1.0645,1.0684,1.0684,1.0684,1.0645,1.0645,1.0645,1.0645,1.0645,1.0645,1.0684,1.0684,1.0684,1.0684,1.0713,1.0713,1.0713,1.0752,1.0752,1.0752,1.0781,1.0781,1.082,1.082,1.085,1.082,1.085,1.085,1.0889,1.0889,1.0928,1.0957,1.0957,1.0957,1.0996,1.0996,1.0996,1.1035,1.1035,1.1074,1.1074,1.1104,1.1143,1.1143,1.1182,1.1182,1.1221,1.1221,1.126,1.126,1.126,1.126,1.126,1.126,1.1299,1.1299,1.1338,1.1338,1.1367,1.1406,1.1406,1.1445,1.1445,1.1445,1.1445,1.1494,1.1494,1.1533,1.1533,1.1533,1.1572,1.1572,1.1611,1.1611,1.1611,1.1611,1.165,1.1689,1.1689,1.1689,1.1729,1.1729,1.1729,1.1777,1.1777,1.1777,1.1777,1.1777,1.1777,1.1816,1.1855,1.1855,1.1895,1.1895,1.1943,1.1943,1.1982,1.1982,1.1982,1.2031,1.2031,1.2031,1.2031,1.2119,1.2119,1.2119,1.2119,1.2158,1.2158,1.2207,1.2246,1.2246,1.2246,1.2295,1.2295,1.2344,1.2344,1.2344,1.2383,1.2432,1.2432,1.2432,1.2432,1.248,1.248,1.248,1.248,1.252,1.252,1.252,1.2568,1.2568,1.2617,1.2617,1.2666,1.2666,1.2666,1.2715,1.2715,1.2764,1.2764,1.2764,1.2764,1.2812,1.2812,1.2812,1.2861,1.2861,1.2861,1.291,1.291,1.291,1.291,1.291,1.3008,1.3008,1.2959,1.3008,1.3066,1.3115,1.3164,1.3164,1.3223,1.3223,1.3271,1.3223,1.3223,1.3271,1.3271,1.3271,1.332,1.332,1.332,1.3428,1.3428,1.3486,1.3486,1.3486,1.3486,1.3535,1.3594,1.3594,1.3594,1.3594,1.3652,1.3652,1.3652,1.3652,1.3652,1.3711,1.3711,1.3711,1.376,1.3818,1.3818,1.3877,1.3936,1.3936,1.3877,1.3936,1.3936,1.3994,1.3994,1.3994,1.4053,1.4053,1.4053,1.4053,1.4053,1.4053,1.4111,1.4111,1.4111,1.417,1.417,1.4229,1.4229,1.4297,1.4297,1.4297,1.4355,1.4355,1.4414,1.4414,1.4482,1.4414,1.4482,1.4482,1.4482,1.4482,1.4482,1.4541,1.4541,1.4609,1.4736,1.4736,1.4795,1.4795,1.4795,1.4795,1.4795,1.4863,1.4863,1.4932,1.4932,1.4932,1.4932,1.5,1.5068,1.5,1.5068,1.5068,1.5068,1.5068,1.5137,1.5137,1.5137,1.5137,1.5137,1.5137,1.3828,1.3877,1.3936,1.3936,1.3936,1.3887,1.3936,1.3887,1.3887,1.3887,1.3828,1.3828,1.377,1.3828,1.3828,1.3828,1.377,1.3828,1.3828,1.3828,1.3828,1.3828,1.3828,1.377,1.377,1.377,1.377,1.377,1.3711,1.3711,1.3652,1.3652,1.3662,1.3662,1.3604,1.3604,1.3604,1.3604,1.3604,1.3604,1.3604,1.3604,1.3604,1.3604,1.3604,1.3545,1.3545,1.3545,1.3604,1.3662,1.3662,1.3662,1.3662,1.3662,1.3662,1.3604,1.3604,1.3604,1.3604,1.3604,1.3604,1.3604,1.3545,1.3604,1.3545,1.3545,0,0,1.6475,1.6475,1.6475,1.6729,1.6729,1.6729,1.6729,1.6807,1.6729,1.6729,1.6641,1.6641,1.6562,1.6641,1.6641,1.3662,1.3604,1.3604,1.3555,1.3496,1.3438,1.3438,1.3438,1.3389,1.3389,1.3447,1.3389,1.3389,1.3389,1.3389,1.3389,1.3389,1.3281,1.3281,1.3232,1.3281,1.3281,1.3281,1.3281,1.3281,1.3281,1.3232,1.3232,1.3232,1.3232,1.3232,1.3232,1.3281,1.3281,1.3281,1.334,1.334,1.3281,1.3281,1.334,1.334,1.3281,1.3281,1.3232,1.3232,1.3232,1.3281,1.334,1.3281,1.3281,1.3232,1.3232,1.3232,1.3232,1.3232,1.3184,1.3184,1.3125,1.3232,1.3232,1.3232,1.3281,1.3232,1.3291,1.3232,1.3232,1.3232,1.3184,1.3184,1.4004,1.4062,1.4121,1.4062,1.4004,1.4004,1.4004,1.4004,1.4004,1.4004,1.4004,1.4004,1.4004,1.4004,1.3945,1.3945,1.3955,1.3955,1.3955,1.3955,1.3955,1.3896,1.3896,1.3896,1.3838,1.3779,1.3779,1.3779,1.3779,1.3721,1.3779,1.3838,1.3779,1.3779,1.3779,1.3779,1.3721,1.3721,1.3672,1.3672,1.3672,1.3672,1.3613,1.3613,0,1.5146,1.5146,1.5078,1.5146,1.5146,1.5146,1.5146,1.5078,1.5078,0,0,0,0,0,0,0,0,0,0,0,0,0,0,0,0,0,0,0,0,0,0,0,0,0,0,0,0
1.0684,1.0684,1.0684,1.0684,1.0645,1.0645,1.0645,1.0645,1.0645,1.0645,1.0645,1.0684,1.0684,1.0684,1.0713,1.0713,1.0752,1.0752,1.0752,1.0781,1.0781,1.082,1.0781,1.082,1.0859,1.082,1.082,1.0859,1.0889,1.0928,1.0928,1.0957,1.0957,1.0957,1.0996,1.0996,1.0996,1.1035,1.1074,1.1074,1.1074,1.1104,1.1143,1.1143,1.1182,1.1182,1.1221,1.1221,1.126,1.126,1.126,1.126,1.126,1.126,1.1299,1.1299,1.1338,1.1338,1.1377,1.1377,1.1416,1.1416,1.1416,1.1455,1.1455,1.1494,1.1494,1.1533,1.1533,1.1572,1.1572,1.1572,1.1611,1.1611,1.1611,1.165,1.165,1.165,1.1689,1.1689,1.1729,1.1729,1.1729,1.1777,1.1777,1.1777,1.1777,1.1777,1.1777,1.1816,1.1816,1.1855,1.1904,1.1904,1.1943,1.1943,1.1982,1.1982,1.2031,1.2031,1.2031,1.2031,1.207,1.2119,1.2119,1.2119,1.2158,1.2158,1.2207,1.2246,1.2246,1.2246,1.2246,1.2295,1.2295,1.2344,1.2344,1.2344,1.2383,1.2383,1.2383,1.2432,1.2432,1.248,1.248,1.248,1.252,1.252,1.252,1.2568,1.2568,1.2568,1.2617,1.2617,1.2617,1.2666,1.2666,1.2715,1.2764,1.2764,1.2764,1.2812,1.2764,1.2812,1.2861,1.2861,1.2861,1.2861,1.291,1.291,1.291,1.291,1.291,1.2959,1.3008,1.3008,1.3008,1.3008,1.3066,1.3115,1.3164,1.3164,1.3164,1.3223,1.3271,1.3223,1.3223,1.3271,1.3271,1.3271,1.332,1.3379,1.332,1.3379,1.3428,1.3486,1.3486,1.3486,1.3535,1.3594,1.3594,1.3594,1.3594,1.3594,1.3652,1.3652,1.3711,1.3652,1.3652,1.3711,1.3711,1.3711,1.3818,1.3818,1.3877,1.3936,1.3936,1.3936,1.3936,1.3994,1.3994,1.3994,1.3994,1.3994,1.3994,1.4053,1.4053,1.4053,1.4053,1.4111,1.4111,1.417,1.417,1.417,1.4229,1.4229,1.4297,1.4297,1.4297,1.4297,1.4297,1.4355,1.4355,1.4414,1.4414,1.4414,1.4482,1.4482,1.4541,1.4482,1.4482,1.4541,1.4609,1.4668,1.4736,1.4736,1.4736,1.4795,1.4795,1.4795,1.4795,1.4863,1.4863,1.4863,1.4932,1.4932,1.4932,1.5,1.5068,1.5068,1.5137,1.5137,1.5068,1.5068,1.5137,1.5137,1.5137,1.5137,1.5137,1.5137,1.3828,1.3887,1.3936,1.3936,1.3936,1.3936,1.3936,1.3887,1.3887,1.3887,1.3828,1.3828,1.3828,1.3828,1.3828,1.377,1.377,1.377,1.377,1.3828,1.3828,1.3828,1.3828,1.3828,1.377,1.377,1.377,1.377,1.3711,1.3711,1.3662,1.3662,1.3662,1.3662,1.3604,1.3604,1.3604,1.3604,1.3604,1.3604,1.3604,1.3604,1.3604,1.3604,1.3604,1.3604,1.3604,1.3545,1.3604,1.3662,1.3662,1.3662,1.3662,1.3662,1.3662,1.3604,1.3604,1.3662,1.3604,1.3604,1.3604,1.3604,1.3545,1.3555,1.3555,1.3555,0,0,1.6396,1.6562,1.6641,1.6807,1.6807,1.6807,1.6729,1.6807,1.6807,1.6729,1.6641,1.6641,1.6562,1.6562,1.6562,1.3662,1.3604,1.3604,1.3555,1.3496,1.3447,1.3447,1.3447,1.3389,1.3389,1.3447,1.3447,1.3389,1.3389,1.3389,1.3389,1.3281,1.3281,1.3281,1.3281,1.3281,1.3281,1.3281,1.3281,1.3281,1.3281,1.3281,1.3281,1.3232,1.3281,1.3232,1.3232,1.3281,1.3281,1.334,1.334,1.334,1.334,1.3281,1.334,1.334,1.334,1.3281,1.3281,1.3281,1.334,1.334,1.334,1.3281,1.3281,1.3281,1.3281,1.3281,1.3232,1.3232,1.3184,1.3184,1.3232,1.3232,1.3184,1.3291,1.3291,1.3291,1.3291,1.3232,1.3291,1.3232,1.3232,1.3945,0,1.4062,1.4131,1.4062,1.4004,1.4004,1.4014,1.4014,1.4014,1.4014,1.3955,1.3955,1.3955,1.3955,1.3955,1.3955,1.3955,1.3955,1.3955,1.3955,1.3955,1.3896,1.3896,1.3896,1.3838,1.3779,1.3779,1.3779,1.3779,1.3779,1.3838,1.3838,1.3779,1.3779,1.3779,1.3779,1.3721,1.3721,1.3672,1.3721,1.3672,1.3672,1.3613,1.3613,0,1.5215,1.5146,1.5146,1.5146,1.5146,1.5146,1.5146,1.5078,1.5078,0,0,0,0,0,0,0,0,0,0,0,0,0,0,0,0,0,0,0,0,0,0,0,0,0,0,0,0
1.0684,1.0684,1.0684,1.0684,1.0645,1.0645,1.0645,1.0645,1.0645,1.0645,1.0645,1.0684,1.0684,1.0684,1.0713,1.0713,1.0752,1.0781,1.0752,1.0781,1.0781,1.0781,1.0781,1.082,1.0859,1.0859,1.0859,1.0859,1.0928,1.0928,1.0928,1.0967,1.0967,1.0967,1.0996,1.0996,1.0996,1.1035,1.1074,1.1035,1.1104,1.1104,1.1143,1.1182,1.1182,1.1182,1.1221,1.1221,1.126,1.126,1.126,1.126,1.126,1.126,1.1299,1.1299,1.1338,1.1338,1.1377,1.1377,1.1416,1.1416,1.1455,1.1455,1.1455,1.1494,1.1494,1.1533,1.1533,1.1572,1.1572,1.1611,1.1611,1.1611,1.165,1.165,1.165,1.1689,1.1689,1.1729,1.1729,1.1729,1.1777,1.1777,1.1777,1.1777,1.1777,1.1777,1.1777,1.1816,1.1816,1.1855,1.1855,1.1904,1.1943,1.1943,1.1943,1.1982,1.1982,1.2031,1.2031,1.2031,1.207,1.2119,1.2119,1.2158,1.2158,1.2158,1.2207,1.2246,1.2246,1.2246,1.2295,1.2295,1.2295,1.2344,1.2344,1.2344,1.2383,1.2383,1.2383,1.2432,1.2432,1.248,1.248,1.248,1.2529,1.2529,1.2529,1.2568,1.2568,1.2568,1.2617,1.2617,1.2617,1.2666,1.2715,1.2715,1.2812,1.2812,1.2812,1.2812,1.2812,1.2812,1.2861,1.2861,1.291,1.291,1.291,1.291,1.291,1.291,1.291,1.2959,1.3018,1.3018,1.3018,1.3018,1.3066,1.3115,1.3115,1.3164,1.3164,1.3164,1.3223,1.3223,1.3223,1.3271,1.3271,1.3271,1.332,1.3379,1.332,1.3428,1.3428,1.3545,1.3545,1.3545,1.3545,1.3594,1.3594,1.3594,1.3594,1.3594,1.3652,1.3652,1.3652,1.3652,1.3652,1.3711,1.3711,1.376,1.376,1.3818,1.3877,1.3936,1.3936,1.3936,1.3936,1.3994,1.3994,1.3994,1.3994,1.3994,1.3994,1.4053,1.4053,1.4053,1.4053,1.4111,1.4111,1.417,1.4229,1.4229,1.4229,1.4229,1.4297,1.4297,1.4297,1.4297,1.4297,1.4297,1.4355,1.4355,1.4414,1.4414,1.4482,1.4482,1.4482,1.4482,1.4482,1.4541,1.4541,1.4609,1.4668,1.4736,1.4736,1.4736,1.4805,1.4805,1.4805,1.4863,1.4863,1.4863,1.4932,1.4932,1.4932,1.5,1.5068,1.5068,1.5068,1.5137,1.5068,1.5137,1.5137,1.5137,1.5137,1.5137,1.5137,1.3828,1.3887,1.3945,1.3945,1.3945,1.3945,1.3945,1.3945,1.3887,1.3887,1.3887,1.3828,1.3887,1.3828,1.3828,1.3828,1.3828,1.3828,1.3828,1.3828,1.3828,1.3828,1.3828,1.3828,1.3828,1.3828,1.377,1.377,1.377,1.3662,1.3662,1.3662,1.3662,1.3662,1.3662,1.3662,1.3662,1.3662,1.3662,1.3662,1.3662,1.3662,1.3662,1.3662,1.3662,1.3604,1.3604,1.3604,1.3604,1.3604,1.3604,1.3604,1.3604,1.3604,1.3604,1.3604,1.3662,1.3604,1.3604,1.3662,1.3662,1.3604,1.3604,1.3604,1.3604,1.3604,0,0,1.6396,1.6396,1.6396,1.6641,1.6729,1.6729,1.6816,1.6807,1.6895,1.6807,1.6807,1.6641,1.6562,1.6562,1.6562,1.6641,1.3721,1.3604,1.3604,1.3555,1.3496,1.3447,1.3447,1.3447,1.3389,1.3389,1.3447,1.3447,1.3389,1.3389,1.334,1.334,1.3281,1.3281,1.3281,1.3281,1.3281,1.3281,1.3281,1.3281,1.3281,1.3281,1.3281,1.3281,1.3281,1.3281,1.3281,1.3232,1.3281,1.3281,1.3281,1.334,1.334,1.334,1.3281,1.334,1.334,1.334,1.3291,1.3291,1.3291,1.3291,1.3291,1.334,1.3291,1.3291,1.3291,1.3291,1.3291,1.3232,1.3232,1.3232,1.3232,1.3232,1.3232,1.3232,1.3291,1.3291,1.3291,1.3291,1.3291,1.3232,1.3232,1.3232,1.3184,1.4014,1.4014,1.4014,1.4072,1.4072,1.4014,1.4014,1.4014,1.4014,1.4014,1.4014,1.3955,1.3955,1.3955,1.3955,1.3955,1.3955,1.3955,1.3955,1.3955,1.3955,1.3955,1.3896,1.3896,1.3838,1.3779,1.3779,1.3779,1.3779,1.3779,1.3838,1.3838,1.3779,1.3838,1.3779,1.3779,1.3779,1.3721,1.3721,1.3721,1.3721,1.3672,1.3672,1.3613,0,1.5215,1.5215,1.5215,1.5146,1.5215,1.5146,1.5146,1.5146,1.5078,0,0,0,0,0,0,0,0,0,0,0,0,0,0,0,0,0,0,0,0,0,0,0,0,0,0,0,0
1.0684,1.0684,1.0684,1.0684,1.0684,1.0645,1.0645,1.0645,1.0645,1.0645,1.0645,1.0684,1.0684,1.0684,1.0713,1.0713,1.0752,1.0781,1.0781,1.0781,1.0781,1.0781,1.082,1.082,1.082,1.082,1.0859,1.0859,1.0928,1.0928,1.0928,1.0967,1.0967,1.0967,1.0996,1.0996,1.1035,1.1074,1.1113,1.1113,1.1113,1.1143,1.1143,1.1182,1.1182,1.1182,1.1221,1.1221,1.1221,1.126,1.126,1.1299,1.126,1.1299,1.1299,1.1338,1.1377,1.1338,1.1377,1.1377,1.1416,1.1416,1.1416,1.1455,1.1455,1.1455,1.1494,1.1494,1.1533,1.1572,1.1572,1.1611,1.1611,1.1611,1.165,1.165,1.165,1.1689,1.1689,1.1729,1.1729,1.1777,1.1777,1.1777,1.1777,1.1777,1.1777,1.1777,1.1777,1.1816,1.1855,1.1904,1.1904,1.1904,1.1943,1.1943,1.1982,1.1982,1.1982,1.2031,1.2031,1.207,1.207,1.2119,1.2158,1.2158,1.2158,1.2158,1.2207,1.2246,1.2246,1.2295,1.2295,1.2295,1.2344,1.2344,1.2344,1.2344,1.2383,1.2383,1.2383,1.2432,1.248,1.248,1.248,1.2529,1.2529,1.2529,1.2529,1.2568,1.2568,1.2617,1.2617,1.2617,1.2666,1.2666,1.2715,1.2715,1.2764,1.2812,1.2812,1.2812,1.2812,1.2812,1.2861,1.2861,1.291,1.291,1.291,1.291,1.291,1.2959,1.291,1.3018,1.3066,1.3066,1.3066,1.3066,1.3066,1.3115,1.3115,1.3164,1.3164,1.3164,1.3223,1.3223,1.3223,1.3271,1.3271,1.332,1.332,1.3379,1.333,1.3428,1.3428,1.3545,1.3545,1.3594,1.3545,1.3594,1.3594,1.3594,1.3594,1.3594,1.3652,1.3652,1.3711,1.3711,1.3711,1.3711,1.376,1.3711,1.376,1.3818,1.3877,1.3936,1.3936,1.3936,1.3936,1.3994,1.3994,1.3994,1.3994,1.4053,1.4053,1.4053,1.4053,1.4053,1.4111,1.417,1.4111,1.417,1.4229,1.4229,1.4229,1.4229,1.4297,1.4297,1.4297,1.4297,1.4297,1.4297,1.4355,1.4355,1.4414,1.4414,1.4482,1.4482,1.4482,1.4482,1.4482,1.4541,1.4609,1.4609,1.4668,1.4668,1.4736,1.4736,1.4805,1.4805,1.4805,1.4863,1.4863,1.4932,1.4932,1.5,1.5,1.5,1.5068,1.5068,1.5068,1.5137,1.5068,1.5137,1.5137,1.5137,1.5137,1.5137,1.5137,1.5137,1.3887,1.3945,1.3945,1.3945,1.3945,1.3945,1.3887,1.3887,1.3887,1.3887,1.3887,1.3887,1.3887,1.3828,1.3828,1.3828,1.3828,1.3828,1.3828,1.3828,1.3828,1.3828,1.3828,1.3828,1.377,1.377,1.3711,1.3711,1.3662,1.3662,1.3711,1.3662,1.3662,1.3662,1.3604,1.3662,1.3662,1.3662,1.3662,1.3662,1.3662,1.3662,1.3662,1.3662,1.3662,1.3604,1.3604,1.3604,1.3662,1.3662,1.3604,1.3604,1.3604,1.3604,1.3662,1.3604,1.3604,1.3662,1.3662,1.3604,1.3604,1.3604,1.3604,1.3604,0,0,1.6396,1.6396,1.6396,1.6396,1.6641,1.6729,1.6729,1.6816,1.6729,1.665,1.6729,1.6562,1.6641,1.6562,1.6562,1.6562,1.3779,1.3721,1.3721,1.3662,1.3604,1.3555,1.3496,1.3447,1.3447,1.3389,1.3389,1.3389,1.3389,1.3389,1.334,1.334,1.3281,1.334,1.334,1.3281,1.3281,1.3281,1.3281,1.3281,1.3281,1.3281,1.3281,1.3281,1.3281,1.3281,1.3281,1.3232,1.3232,1.3281,1.3232,1.3291,1.334,1.334,1.334,1.3291,1.334,1.334,1.334,1.334,1.334,1.3291,1.3291,1.334,1.3291,1.3291,1.3291,1.3291,1.3291,1.3291,1.3291,1.3291,1.3232,1.3232,1.3232,1.3291,1.3291,1.3232,1.3232,1.3232,1.3232,1.3232,1.3232,1.3184,1.3184,1.3184,1.4072,1.4014,1.4014,1.4014,1.4072,1.4014,1.4014,1.4014,1.4014,1.4014,1.4014,1.4014,1.3955,1.3955,1.3955,1.3896,1.3896,1.3896,1.3955,1.3955,1.3955,1.3955,1.3896,1.3896,1.3838,1.3779,1.3779,1.3779,1.3779,1.3779,1.3838,1.3838,1.3779,1.3838,1.3779,1.3779,1.3779,1.3721,1.3721,1.3721,1.373,1.373,1.3672,0,1.5146,1.5225,1.5146,1.5156,1.5156,1.5225,1.5225,1.5156,1.5156,1.5088,0,0,0,0,0,0,0,0,0,0,0,0,0,0,0,0,0,0,0,0,0,0,0,0,0,0,0,0
1.0684,1.0684,1.0684,1.0684,1.0684,1.0645,1.0645,1.0645,1.0645,1.0645,1.0645,1.0684,1.0684,1.0684,1.0684,1.0752,1.0781,1.0781,1.0791,1.0791,1.082,1.0791,1.082,1.082,1.082,1.082,1.082,1.0859,1.0889,1.0928,1.0928,1.0967,1.0967,1.0967,1.0996,1.0996,1.0996,1.1074,1.1113,1.1113,1.1113,1.1143,1.1182,1.1182,1.1221,1.1221,1.1221,1.126,1.126,1.126,1.1299,1.1299,1.1299,1.1299,1.1338,1.1338,1.1338,1.1377,1.1377,1.1377,1.1416,1.1455,1.1416,1.1455,1.1455,1.1494,1.1494,1.1533,1.1533,1.1533,1.1572,1.1611,1.1611,1.1611,1.1611,1.165,1.165,1.1689,1.1738,1.1738,1.1738,1.1738,1.1777,1.1777,1.1777,1.1777,1.1777,1.1777,1.1777,1.1816,1.1855,1.1904,1.1904,1.1904,1.1943,1.1943,1.1982,1.1982,1.2031,1.2031,1.207,1.207,1.207,1.2119,1.2158,1.2158,1.2158,1.2158,1.2207,1.2246,1.2246,1.2246,1.2295,1.2295,1.2344,1.2344,1.2344,1.2344,1.2383,1.2383,1.2383,1.2432,1.248,1.248,1.248,1.2529,1.2529,1.2529,1.2529,1.2578,1.2617,1.2617,1.2666,1.2666,1.2666,1.2715,1.2715,1.2715,1.2764,1.2812,1.2812,1.2812,1.2812,1.2812,1.2861,1.291,1.291,1.291,1.291,1.291,1.2959,1.2959,1.3018,1.3018,1.3066,1.3066,1.3066,1.3066,1.3115,1.3115,1.3115,1.3164,1.3164,1.3164,1.3223,1.3271,1.3271,1.3271,1.333,1.333,1.333,1.3379,1.3379,1.3438,1.3438,1.3545,1.3594,1.3594,1.3594,1.3594,1.3594,1.3594,1.3594,1.3594,1.3652,1.3652,1.3652,1.3652,1.3652,1.3711,1.3711,1.3711,1.377,1.3818,1.3818,1.3877,1.3936,1.3936,1.3936,1.3994,1.3994,1.3994,1.3994,1.4053,1.4053,1.4053,1.4053,1.4111,1.417,1.417,1.417,1.4238,1.4238,1.4238,1.4238,1.4238,1.4297,1.4297,1.4297,1.4297,1.4297,1.4297,1.4355,1.4414,1.4414,1.4482,1.4482,1.4482,1.4482,1.4482,1.4482,1.4541,1.4609,1.4609,1.4668,1.4668,1.4736,1.4736,1.4805,1.4805,1.4805,1.4932,1.5,1.5,1.5,1.5,1.5,1.5068,1.5068,1.5068,1.5068,1.5137,1.5137,1.5137,1.5137,1.5137,1.5137,1.5137,1.5137,1.5137,1.3887,1.3945,1.3945,1.3945,1.3945,1.3945,1.3887,1.3887,1.3887,1.3887,1.3887,1.3887,1.3887,1.3828,1.3828,1.3828,1.3828,1.3828,1.3828,1.3828,1.3828,1.377,1.377,1.377,1.377,1.3711,1.3711,1.3711,1.3711,1.3711,1.3662,1.3662,1.3662,1.3662,1.3662,1.3662,1.3662,1.3662,1.3662,1.3662,1.3662,1.3662,1.3662,1.3662,1.3662,1.3604,1.3604,1.3604,1.3662,1.3662,1.3604,1.3604,1.3604,1.3604,1.3662,1.3662,1.3604,1.3662,1.3662,1.3662,1.3662,1.3604,1.3604,1.3604,0,0,1.6484,1.6406,1.6406,1.6406,1.6484,1.6729,1.6729,1.6816,1.6729,1.665,1.665,1.665,1.6562,1.6484,1.6406,0,1.6484,1.3779,1.3721,1.3604,1.3604,1.3496,1.3447,1.3447,1.3389,1.3389,1.3389,1.3389,1.3447,1.3389,1.3389,1.3389,1.334,1.3389,1.334,1.3281,1.3281,1.334,1.3281,1.3281,1.3281,1.3281,1.3281,1.3291,1.3291,1.3232,1.3232,1.3232,1.3232,1.3232,1.3232,1.3291,1.3291,1.334,1.334,1.334,1.334,1.334,1.3389,1.334,1.334,1.3291,1.3291,1.334,1.334,1.3291,1.3291,1.3291,1.3291,1.3291,1.3291,1.3232,1.3232,1.3232,1.3232,1.3232,1.3232,1.3232,1.3232,1.3232,1.3232,1.3232,1.3232,1.3184,1.3184,1.3135,1.4072,1.4014,1.4014,1.4072,1.4014,1.4014,1.4014,1.4014,1.4014,1.4014,1.4014,1.3955,1.3955,1.3955,1.3955,1.3896,1.3896,1.3896,1.3955,1.3955,1.3955,1.3896,1.3896,1.3838,1.3838,1.3779,1.3838,1.3779,1.3779,1.3779,1.3838,1.3838,1.3779,1.3779,1.3779,1.3779,1.3779,1.373,1.373,1.373,1.373,1.373,1.3672,0,1.5156,1.5156,1.5156,1.5225,1.5225,1.5293,1.5225,1.5156,1.5156,1.5088,0,0,0,0,0,0,0,0,0,0,0,0,0,0,0,0,0,0,0,0,0,0,0,0,0,0,0,0
1.0684,1.0684,1.0684,1.0684,1.0684,1.0645,1.0645,1.0645,1.0645,1.0645,1.0645,1.0684,1.0684,1.0684,1.0713,1.0752,1.0791,1.0791,1.0791,1.082,1.082,1.082,1.082,1.082,1.082,1.0859,1.082,1.0859,1.0889,1.0928,1.0928,1.0967,1.0967,1.0967,1.0996,1.0996,1.1035,1.1074,1.1113,1.1113,1.1113,1.1143,1.1143,1.1182,1.1221,1.1221,1.126,1.126,1.126,1.126,1.1299,1.1299,1.1299,1.1299,1.1299,1.1338,1.1338,1.1338,1.1377,1.1377,1.1416,1.1455,1.1455,1.1455,1.1455,1.1494,1.1494,1.1494,1.1533,1.1533,1.1611,1.1611,1.1611,1.165,1.1611,1.165,1.1689,1.1689,1.1738,1.1738,1.1738,1.1777,1.1777,1.1777,1.1777,1.1816,1.1777,1.1816,1.1816,1.1816,1.1855,1.1904,1.1943,1.1943,1.1943,1.1943,1.1982,1.1982,1.2031,1.207,1.207,1.207,1.207,1.2158,1.2158,1.2158,1.2158,1.2158,1.2207,1.2246,1.2246,1.2246,1.2295,1.2295,1.2344,1.2344,1.2344,1.2344,1.2383,1.2383,1.2383,1.2432,1.248,1.248,1.2529,1.2529,1.2529,1.2529,1.2578,1.2578,1.2617,1.2617,1.2666,1.2666,1.2666,1.2715,1.2715,1.2715,1.2764,1.2764,1.2812,1.2812,1.2812,1.2812,1.2861,1.2861,1.291,1.291,1.291,1.2959,1.2969,1.3018,1.3018,1.3066,1.3066,1.3066,1.3066,1.3066,1.3115,1.3115,1.3115,1.3115,1.3164,1.3164,1.3271,1.3271,1.3271,1.3271,1.333,1.333,1.333,1.3379,1.3379,1.3438,1.3545,1.3545,1.3594,1.3594,1.3545,1.3594,1.3652,1.3594,1.3652,1.3594,1.3652,1.3652,1.3652,1.3652,1.3652,1.3711,1.3711,1.377,1.377,1.3818,1.3818,1.3877,1.3936,1.3936,1.3936,1.3994,1.3994,1.3994,1.3994,1.4053,1.4053,1.4053,1.4111,1.4111,1.417,1.417,1.4238,1.4238,1.4238,1.4238,1.4238,1.4238,1.4297,1.4297,1.4297,1.4355,1.4297,1.4355,1.4414,1.4414,1.4482,1.4482,1.4482,1.4482,1.4541,1.4541,1.4541,1.4541,1.4668,1.4668,1.4736,1.4736,1.4736,1.4736,1.4736,1.4805,1.4805,1.4932,1.4932,1.4932,1.5,1.5,1.5,1.5068,1.5068,1.5068,1.5137,1.5137,1.5137,1.5137,1.5137,1.5137,1.5137,1.5137,1.5137,1.5137,1.3887,1.3887,1.3945,1.3945,1.3945,1.3945,1.3887,1.3887,1.3887,1.3887,1.3887,1.3887,1.3887,1.3828,1.3828,1.3828,1.3828,1.3828,1.3828,1.3828,1.377,1.3828,1.3828,1.377,1.377,1.3721,1.3721,1.3721,1.3721,1.3721,1.3721,1.3662,1.3662,1.3662,1.3662,1.3604,1.3662,1.3662,1.3662,1.3662,1.3662,1.3662,1.3662,1.3662,1.3662,1.3662,1.3662,1.3604,1.3662,1.3662,1.3604,1.3604,1.3604,1.3604,1.3662,1.3662,1.3662,1.3662,1.3662,1.3662,1.3662,1.3662,1.3604,1.3604,0,0,1.6406,1.6406,1.6406,1.6406,1.6562,1.665,1.6729,1.665,1.665,1.665,1.665,1.6562,1.6484,1.6406,1.6406,0,0,0,1.3721,1.3613,1.3613,1.3496,1.3447,1.3447,1.3389,1.3389,1.3389,1.3389,1.3389,1.3389,1.3389,1.3389,1.334,1.3389,1.3389,1.334,1.334,1.334,1.334,1.334,1.3291,1.3291,1.3291,1.3291,1.3291,1.3291,1.3291,1.3291,1.3232,1.3291,1.3291,1.3291,1.3291,1.3291,1.334,1.3291,1.334,1.334,1.334,1.334,1.334,1.334,1.334,1.334,1.334,1.3291,1.334,1.3291,1.3291,1.3291,1.3291,1.3232,1.3232,1.3232,1.3184,1.3184,1.3232,1.3232,1.3232,1.3232,1.3232,1.3232,1.3232,1.3184,1.3184,1.3135,0,1.4072,1.4014,1.4072,1.4072,1.4014,1.4072,1.4014,1.4014,1.4014,1.4014,1.3955,1.3955,1.3955,1.3955,1.3955,1.3955,1.3896,1.3896,1.3896,1.3896,1.3896,1.3838,1.3838,1.3838,1.3779,1.3779,1.3779,1.3779,1.3779,1.3838,1.3838,1.3779,1.3838,1.3779,1.3779,1.373,1.373,1.373,1.373,1.373,1.373,1.3672,0,1.5156,1.5225,1.5225,1.5225,1.5225,1.5293,1.5293,1.5225,1.5156,1.5088,0,0,0,0,0,0,0,0,0,0,0,0,0,0,0,0,0,0,0,0,0,0,0,0,0,0,0,0
1.0684,1.0684,1.0684,1.0684,1.0684,1.0684,1.0645,1.0645,1.0645,1.0645,1.0654,1.0654,1.0684,1.0684,1.0723,1.0752,1.0791,1.0791,1.0791,1.082,1.082,1.082,1.082,1.082,1.0859,1.0859,1.0859,1.0859,1.0889,1.0928,1.0967,1.0967,1.0967,1.0967,1.0996,1.1035,1.1035,1.1074,1.1113,1.1113,1.1113,1.1143,1.1143,1.1182,1.1221,1.1221,1.126,1.126,1.126,1.126,1.1299,1.1299,1.1299,1.1299,1.1338,1.1338,1.1338,1.1377,1.1377,1.1377,1.1416,1.1455,1.1455,1.1455,1.1494,1.1494,1.1494,1.1494,1.1494,1.1572,1.1572,1.1611,1.1611,1.165,1.165,1.1689,1.1689,1.1738,1.1738,1.1738,1.1777,1.1777,1.1816,1.1777,1.1816,1.1816,1.1816,1.1816,1.1816,1.1816,1.1904,1.1904,1.1943,1.1943,1.1943,1.1943,1.1992,1.1992,1.2031,1.2031,1.207,1.207,1.207,1.2119,1.2158,1.2158,1.2158,1.2207,1.2207,1.2256,1.2207,1.2256,1.2295,1.2295,1.2295,1.2295,1.2344,1.2344,1.2344,1.2393,1.2393,1.2432,1.248,1.2529,1.248,1.2529,1.2578,1.2578,1.2578,1.2578,1.2617,1.2617,1.2666,1.2666,1.2666,1.2715,1.2764,1.2764,1.2764,1.2812,1.2812,1.2812,1.2812,1.2861,1.2861,1.291,1.291,1.2969,1.2969,1.3018,1.3018,1.3018,1.3066,1.3066,1.3066,1.3066,1.3115,1.3115,1.3115,1.3115,1.3115,1.3174,1.3223,1.3271,1.3271,1.3271,1.333,1.333,1.333,1.333,1.333,1.3379,1.3379,1.3438,1.3486,1.3545,1.3594,1.3594,1.3594,1.3594,1.3594,1.3594,1.3594,1.3594,1.3652,1.3652,1.3652,1.3652,1.3652,1.3711,1.3711,1.377,1.3818,1.3818,1.3818,1.3877,1.3936,1.3877,1.3936,1.3994,1.3994,1.4053,1.4053,1.4053,1.4053,1.4053,1.4111,1.4111,1.418,1.4238,1.4238,1.4238,1.4238,1.4238,1.4238,1.4238,1.4238,1.4297,1.4297,1.4355,1.4355,1.4424,1.4424,1.4482,1.4482,1.4482,1.4482,1.4541,1.4541,1.4541,1.4541,1.4609,1.4668,1.4668,1.4736,1.4736,1.4736,1.4736,1.4805,1.4805,1.4805,1.4932,1.4932,1.4932,1.5,1.5068,1.5068,1.5068,1.5068,1.5137,1.5137,1.5137,1.5137,1.5137,1.5137,1.5205,1.5137,1.5205,1.5137,1.5137,1.5137,1.4004,1.4004,1.4004,1.3945,1.3945,1.3887,1.3887,1.3887,1.3887,1.3887,1.3887,1.3887,1.3828,1.3828,1.3828,1.3828,1.3828,1.3828,1.3828,1.3828,1.3828,1.3828,1.377,1.377,1.377,1.3721,1.3721,1.3721,1.3721,1.3721,1.3721,1.3721,1.3662,1.3662,1.3662,1.3662,1.3662,1.3662,1.3721,1.3662,1.3662,1.3662,1.3662,1.3662,1.3662,1.3662,1.3604,1.3662,1.3662,1.3662,1.3662,1.3662,1.3662,1.3662,1.3662,1.3662,1.3721,1.3721,1.3662,1.3662,1.3662,1.3662,1.3662,1.3604,0,0,1.6406,1.6406,1.6406,1.665,1.665,1.6729,1.665,1.665,1.665,1.665,1.665,1.6562,1.6484,0,0,0,0,1.3721,1.3555,1.3555,1.3555,1.3447,1.3447,1.3447,1.3389,1.3389,1.3389,1.3389,1.334,1.3389,1.334,1.334,1.334,1.3389,1.3389,1.334,1.334,1.3291,1.3291,1.3291,1.3291,1.334,1.334,1.334,1.3291,1.3291,1.3232,1.3232,1.3291,1.3291,1.3291,1.3291,1.3291,1.3291,1.3291,1.334,1.334,1.334,1.334,1.334,1.334,1.3398,1.334,1.334,1.3291,1.3291,1.3291,1.3291,1.3232,1.3232,1.3184,1.3232,1.3232,1.3184,1.3232,1.3232,1.3291,1.3232,1.3232,1.3232,1.3232,1.3232,1.3184,1.3184,1.3135,0,1.4072,1.4014,1.4072,1.4014,1.4014,1.4014,1.4014,1.4014,1.4014,1.4014,1.3955,1.3955,1.3955,1.3955,1.3896,1.3955,1.3896,1.3896,1.3896,1.3896,1.3896,1.3838,1.3838,1.3838,1.3779,1.3779,1.3779,1.3779,1.3779,1.3838,1.3838,1.3779,1.3838,1.3779,1.3779,1.3779,1.373,1.373,1.3779,1.373,1.373,1.373,0,1.5225,1.5225,1.5225,1.5293,1.5225,1.5293,1.5293,1.5225,1.5156,1.5088,0,0,0,0,0,0,0,0,0,0,0,0,0,0,0,0,0,0,0,0,0,0,0,0,0,0,0,0
1.0684,1.0684,1.0684,1.0654,1.0684,1.0654,1.0654,1.0684,1.0684,1.0654,1.0654,1.0684,1.0684,1.0684,1.0723,1.0752,1.0791,1.0791,1.0791,1.082,1.082,1.082,1.082,1.082,1.0859,1.0859,1.0859,1.0889,1.0889,1.0928,1.0967,1.0967,1.0967,1.0967,1.0996,1.0996,1.1035,1.1074,1.1113,1.1113,1.1113,1.1152,1.1152,1.1182,1.1221,1.1221,1.1221,1.126,1.126,1.126,1.1299,1.1299,1.1299,1.1338,1.1338,1.1377,1.1377,1.1377,1.1377,1.1416,1.1455,1.1455,1.1455,1.1455,1.1494,1.1494,1.1494,1.1494,1.1533,1.1572,1.1572,1.1611,1.1611,1.165,1.165,1.1689,1.1689,1.1738,1.1738,1.1738,1.1777,1.1777,1.1777,1.1777,1.1777,1.1816,1.1816,1.1816,1.1855,1.1855,1.1904,1.1904,1.1943,1.1943,1.1943,1.1943,1.1992,1.1992,1.2031,1.2031,1.207,1.207,1.207,1.2158,1.2158,1.2158,1.2158,1.2207,1.2207,1.2256,1.2207,1.2256,1.2295,1.2295,1.2344,1.2344,1.2344,1.2344,1.2393,1.2393,1.2432,1.2432,1.248,1.2529,1.248,1.2529,1.2578,1.2578,1.2578,1.2627,1.2666,1.2666,1.2666,1.2715,1.2715,1.2715,1.2764,1.2764,1.2812,1.2812,1.2812,1.2812,1.2861,1.2861,1.292,1.292,1.292,1.2969,1.2969,1.2969,1.3018,1.3018,1.3066,1.3066,1.3066,1.3066,1.3115,1.3115,1.3115,1.3115,1.3115,1.3174,1.3223,1.3271,1.3271,1.3271,1.3271,1.333,1.333,1.333,1.333,1.333,1.3379,1.3438,1.3486,1.3545,1.3545,1.3594,1.3594,1.3594,1.3594,1.3594,1.3594,1.3594,1.3652,1.3652,1.3652,1.3652,1.3711,1.377,1.377,1.377,1.3828,1.3828,1.3828,1.3877,1.3877,1.3877,1.3936,1.3994,1.3994,1.3994,1.3994,1.4053,1.4053,1.4111,1.4111,1.4111,1.418,1.4238,1.4238,1.4238,1.4238,1.4238,1.4238,1.4238,1.4238,1.4238,1.4297,1.4355,1.4424,1.4424,1.4482,1.4482,1.4482,1.4482,1.4482,1.4551,1.4609,1.4609,1.4609,1.4609,1.4678,1.4736,1.4736,1.4736,1.4736,1.4736,1.4805,1.4805,1.4873,1.4932,1.4932,1.5,1.5,1.5068,1.5068,1.5068,1.5068,1.5068,1.5137,1.5137,1.5137,1.5137,1.5137,1.5205,1.5137,1.5205,1.5205,1.5205,1.5205,1.4004,1.4004,1.4004,1.3945,1.3945,1.3887,1.3887,1.3887,1.3887,1.3887,1.3887,1.3887,1.3887,1.3828,1.3828,1.3828,1.3828,1.3828,1.3828,1.3828,1.3828,1.3828,1.3828,1.377,1.377,1.3721,1.3721,1.3721,1.3721,1.3721,1.3662,1.3721,1.3662,1.3662,1.3662,1.3662,1.3662,1.3721,1.3721,1.3721,1.3662,1.3721,1.3662,1.3662,1.3662,1.3662,1.3662,1.3662,1.3662,1.3662,1.3662,1.3604,1.3662,1.3662,1.3662,1.3662,1.3721,1.3721,1.3662,1.3662,1.3662,1.3604,1.3662,1.3604,0,0,1.6406,1.6406,1.6484,1.665,1.665,1.6729,1.6729,1.665,1.665,1.665,1.665,1.665,0,0,0,0,0,1.3721,1.3662,1.3662,1.3555,1.3447,1.3447,1.3447,1.3389,1.3447,1.3447,1.3389,1.3389,1.3389,1.334,1.334,1.334,1.334,1.334,1.334,1.334,1.334,1.3291,1.3291,1.3291,1.334,1.334,1.334,1.3291,1.3291,1.3291,1.3232,1.3291,1.3291,1.3291,1.3291,1.3291,1.3291,1.3232,1.334,1.334,1.334,1.334,1.334,1.3398,1.3398,1.334,1.3291,1.3291,1.3291,1.3291,1.3291,1.3242,1.3242,1.3184,1.3242,1.3242,1.3242,1.3242,1.3242,1.3242,1.3242,1.3242,1.3242,1.3242,1.3242,1.3184,1.3184,1.3184,1.4014,1.4014,1.4014,1.4014,1.4014,1.4014,1.4014,1.3955,1.3955,1.3955,1.3955,1.3955,1.3955,1.3955,1.3955,1.3896,1.3955,1.3896,1.3896,1.3896,1.3896,1.3896,1.3838,1.3838,1.3838,1.3779,1.3838,1.3779,1.3779,1.3779,1.3838,1.3838,1.3779,1.3838,1.3838,1.3838,1.373,1.3779,1.373,1.3779,1.373,1.373,1.3672,0,1.5225,1.5225,1.5225,1.5293,1.5225,1.5293,1.5293,1.5156,1.5156,1.5088,0,0,0,0,0,0,0,0,0,0,0,0,0,0,0,0,0,0,0,0,0,0,0,0,0,0,0,0
1.0684,1.0684,1.0684,1.0684,1.0684,1.0684,1.0654,1.0684,1.0684,1.0684,1.0654,1.0684,1.0684,1.0723,1.0723,1.0752,1.0791,1.0791,1.082,1.082,1.082,1.082,1.082,1.0859,1.0859,1.0859,1.0859,1.0898,1.0898,1.0928,1.0928,1.0967,1.0967,1.0967,1.1006,1.1006,1.1035,1.1074,1.1113,1.1113,1.1113,1.1152,1.1152,1.1182,1.1221,1.126,1.126,1.126,1.126,1.126,1.1299,1.1299,1.1299,1.1338,1.1338,1.1377,1.1377,1.1377,1.1416,1.1416,1.1455,1.1455,1.1455,1.1455,1.1494,1.1494,1.1494,1.1494,1.1533,1.1572,1.1572,1.1572,1.1611,1.165,1.165,1.165,1.1699,1.1738,1.1738,1.1738,1.1777,1.1777,1.1816,1.1816,1.1816,1.1816,1.1816,1.1865,1.1865,1.1865,1.1904,1.1943,1.1943,1.1943,1.1943,1.1943,1.1992,1.1992,1.2031,1.2031,1.208,1.208,1.208,1.2119,1.2168,1.2168,1.2168,1.2207,1.2207,1.2256,1.2256,1.2295,1.2295,1.2295,1.2344,1.2344,1.2393,1.2393,1.2393,1.2393,1.2432,1.2432,1.248,1.248,1.2529,1.2529,1.2529,1.2578,1.2627,1.2627,1.2666,1.2666,1.2715,1.2715,1.2715,1.2715,1.2764,1.2764,1.2764,1.2764,1.2764,1.2812,1.2812,1.2861,1.292,1.292,1.2969,1.2969,1.2969,1.2969,1.2969,1.3018,1.3066,1.3018,1.3018,1.3066,1.3115,1.3115,1.3115,1.3115,1.3174,1.3174,1.3223,1.3271,1.3271,1.3271,1.3271,1.333,1.333,1.333,1.333,1.3379,1.3379,1.3486,1.3486,1.3545,1.3545,1.3545,1.3604,1.3604,1.3604,1.3604,1.3604,1.3604,1.3652,1.3652,1.3652,1.3711,1.3711,1.377,1.377,1.3828,1.3828,1.3828,1.3877,1.3877,1.3877,1.3877,1.3877,1.3936,1.3994,1.3994,1.4053,1.4053,1.4111,1.4111,1.4121,1.4121,1.418,1.4238,1.418,1.4238,1.4238,1.4238,1.4238,1.4238,1.4238,1.4238,1.4297,1.4355,1.4482,1.4482,1.4482,1.4551,1.4482,1.4482,1.4482,1.4551,1.4609,1.4678,1.4678,1.4678,1.4736,1.4736,1.4736,1.4736,1.4736,1.4736,1.4805,1.4805,1.4805,1.4932,1.5,1.5,1.5,1.5068,1.5068,1.5068,1.5068,1.5137,1.5137,1.5137,1.5137,1.5137,1.5137,1.5205,1.5205,1.5205,1.5205,1.5205,1.4062,1.4004,1.4004,1.4062,1.4004,1.3945,1.3887,1.3887,1.3887,1.3887,1.3887,1.3887,1.3887,1.3828,1.3887,1.3828,1.3828,1.3828,1.3828,1.3828,1.3828,1.3828,1.3828,1.3828,1.3828,1.377,1.377,1.377,1.377,1.3721,1.3721,1.3721,1.3721,1.3721,1.3662,1.3662,1.3662,1.3662,1.3721,1.3721,1.3721,1.3662,1.3721,1.3662,1.3662,1.3662,1.3662,1.3662,1.3721,1.3662,1.3662,1.3662,1.3662,1.3662,1.3662,1.3721,1.3662,1.3721,1.3721,1.3662,1.3662,1.3662,1.3662,1.3662,1.3613,0,0,1.6406,1.6484,1.6562,1.665,1.665,1.6729,1.6729,1.665,1.665,1.665,1.665,1.665,0,0,0,0,0,0,1.3613,1.3613,1.3506,1.3447,1.3447,1.3447,1.3447,1.3447,1.3398,1.3398,1.3398,1.3398,1.3398,1.3398,1.3398,1.3398,1.3447,1.3398,1.3398,1.3398,1.3398,1.3291,1.3291,1.334,1.334,1.334,1.3291,1.3291,1.3291,1.3291,1.3291,1.3291,1.3291,1.3291,1.3232,1.3291,1.3232,1.334,1.334,1.334,1.334,1.334,1.334,1.334,1.334,1.3291,1.3291,1.3242,1.3242,1.3291,1.3242,1.3242,1.3184,1.3242,1.3242,1.3242,1.3242,1.3242,1.3242,1.3242,1.3184,1.3184,1.3184,1.3184,1.3135,1.3135,1.3135,1.4014,1.4014,1.4014,1.4014,1.4014,1.4014,1.4014,1.3955,1.3955,1.3955,1.3955,1.3955,1.3955,1.3955,1.3955,1.3896,1.3896,1.3896,1.3896,1.3838,1.3896,1.3896,1.3838,1.3838,1.3838,1.3789,1.3789,1.3789,1.3789,1.3789,1.3789,1.3789,1.3789,1.3789,1.3789,1.3838,1.3789,1.3789,1.3789,1.3789,1.3789,1.373,1.373,0,1.5156,1.5225,1.5225,1.5293,1.5225,1.5293,1.5225,1.5156,1.5156,1.5088,0,0,0,0,0,0,0,0,0,0,0,0,0,0,0,0,0,0,0,0,0,0,0,0,0,0,0,0
1.0684,1.0684,1.0684,1.0684,1.0684,1.0654,1.0654,1.0684,1.0684,1.0684,1.0684,1.0684,1.0723,1.0723,1.0752,1.0752,1.0791,1.0791,1.082,1.082,1.082,1.082,1.0859,1.0859,1.0859,1.0859,1.0898,1.0928,1.0898,1.0967,1.0967,1.0967,1.0967,1.1006,1.1035,1.1035,1.1074,1.1074,1.1113,1.1113,1.1113,1.1152,1.1152,1.1182,1.1221,1.126,1.126,1.126,1.126,1.1299,1.1299,1.1299,1.1299,1.1338,1.1338,1.1377,1.1377,1.1377,1.1416,1.1455,1.1455,1.1455,1.1455,1.1494,1.1494,1.1494,1.1494,1.1533,1.1533,1.1572,1.1572,1.1572,1.1611,1.165,1.165,1.165,1.1699,1.1699,1.1738,1.1738,1.1738,1.1777,1.1777,1.1816,1.1816,1.1816,1.1816,1.1816,1.1865,1.1865,1.1904,1.1943,1.1943,1.1943,1.1943,1.1943,1.1992,1.2031,1.2031,1.2031,1.208,1.208,1.208,1.2168,1.2168,1.2168,1.2207,1.2256,1.2256,1.2256,1.2256,1.2295,1.2295,1.2295,1.2344,1.2344,1.2344,1.2393,1.2393,1.2432,1.2432,1.248,1.248,1.2529,1.2529,1.2529,1.2578,1.2578,1.2627,1.2627,1.2676,1.2676,1.2715,1.2715,1.2715,1.2715,1.2764,1.2764,1.2764,1.2764,1.2764,1.2764,1.2812,1.2812,1.2871,1.292,1.292,1.2969,1.2969,1.2969,1.2969,1.3018,1.3018,1.3018,1.3018,1.3066,1.3115,1.3115,1.3115,1.3174,1.3223,1.3223,1.3223,1.3271,1.3271,1.3271,1.3271,1.333,1.333,1.333,1.333,1.3379,1.3438,1.3486,1.3486,1.3486,1.3545,1.3545,1.3604,1.3604,1.3604,1.3604,1.3604,1.3604,1.3652,1.3652,1.3652,1.3711,1.3711,1.377,1.377,1.3828,1.3828,1.3828,1.3887,1.3936,1.3936,1.3887,1.3887,1.3994,1.3994,1.3994,1.4053,1.4053,1.4121,1.4121,1.4121,1.4121,1.418,1.4238,1.4238,1.4238,1.4238,1.4238,1.4238,1.4297,1.4238,1.4297,1.4355,1.4355,1.4424,1.4482,1.4482,1.4551,1.4551,1.4482,1.4482,1.4609,1.4678,1.4678,1.4678,1.4678,1.4736,1.4678,1.4736,1.4736,1.4736,1.4736,1.4805,1.4805,1.4873,1.5,1.5,1.5,1.5068,1.5068,1.5068,1.5068,1.5068,1.5068,1.5137,1.5068,1.5137,1.5205,1.5205,1.5205,1.5205,1.5273,1.5205,1.5283,1.4004,1.4062,1.4062,1.4062,1.4004,1.3945,1.3887,1.3887,1.3887,1.3887,1.3828,1.3828,1.3828,1.3828,1.3828,1.3828,1.3828,1.3828,1.3828,1.3828,1.3828,1.3828,1.3828,1.3828,1.3828,1.3779,1.3779,1.3779,1.3721,1.3721,1.3721,1.3721,1.3721,1.3721,1.3721,1.3662,1.3662,1.3662,1.3662,1.3721,1.3721,1.3721,1.3721,1.3662,1.3662,1.3662,1.3662,1.3662,1.3721,1.3662,1.3662,1.3662,1.3662,1.3662,1.3662,1.3721,1.3662,1.3721,1.3721,1.3662,1.3662,1.3662,1.3662,1.3662,1.3613,0,0,1.6406,1.665,1.665,1.665,1.6729,1.6729,1.6729,1.6729,1.665,1.665,1.6572,1.665,0,0,0,0,0,0,0,1.3613,1.3506,1.3447,1.3506,1.3447,1.3447,1.3447,1.3447,1.3447,1.3398,1.3398,1.3398,1.3398,1.3447,1.3447,1.3447,1.3398,1.3398,1.3398,1.334,1.334,1.3291,1.334,1.334,1.334,1.3291,1.3291,1.3291,1.3291,1.3291,1.3291,1.3291,1.3291,1.3232,1.3232,1.3242,1.334,1.3291,1.334,1.334,1.334,1.334,1.334,1.334,1.3291,1.3291,1.3242,1.3291,1.3291,1.3291,1.3242,1.3242,1.3242,1.3291,1.3242,1.3291,1.3242,1.3242,1.3242,1.3242,1.3184,1.3242,1.3184,1.3135,1.3086,1.3086,1.4014,1.4072,1.4072,1.4014,1.4014,1.4014,1.4014,1.3955,1.3955,1.3955,1.3955,1.3955,1.3955,1.3955,1.3955,1.3896,1.3896,1.3896,1.3896,1.3838,1.3896,1.3896,1.3838,1.3838,1.3838,1.3789,1.3838,1.3789,1.3789,1.3789,1.3838,1.3789,1.3789,1.3789,1.3789,1.3838,1.3789,1.3789,1.3789,1.3789,1.3789,1.373,0,1.5088,1.5156,1.5225,1.5225,1.5225,1.5225,1.5293,1.5156,1.5156,1.5088,1.5088,0,0,0,0,0,0,0,0,0,0,0,0,0,0,0,0,0,0,0,0,0,0,0,0,0,0,0,0
1.0723,1.0684,1.0684,1.0684,1.0684,1.0684,1.0684,1.0684,1.0684,1.0684,1.0684,1.0684,1.0723,1.0752,1.0752,1.0791,1.0791,1.082,1.082,1.082,1.0859,1.0859,1.0859,1.0859,1.0859,1.0859,1.0898,1.0928,1.0928,1.0967,1.0967,1.0928,1.0967,1.0967,1.1035,1.1074,1.1074,1.1113,1.1113,1.1152,1.1152,1.1152,1.1182,1.1221,1.126,1.126,1.126,1.126,1.1299,1.1299,1.1299,1.1299,1.1299,1.1338,1.1377,1.1377,1.1416,1.1416,1.1416,1.1455,1.1455,1.1455,1.1455,1.1455,1.1494,1.1494,1.1494,1.1533,1.1533,1.1572,1.1572,1.1572,1.1611,1.165,1.165,1.165,1.1699,1.1738,1.1738,1.1738,1.1777,1.1777,1.1777,1.1777,1.1816,1.1816,1.1816,1.1816,1.1865,1.1865,1.1904,1.1943,1.1992,1.1943,1.1992,1.1992,1.2031,1.2031,1.2031,1.2031,1.208,1.208,1.208,1.2168,1.2168,1.2168,1.2256,1.2256,1.2295,1.2256,1.2256,1.2295,1.2295,1.2344,1.2344,1.2344,1.2344,1.2393,1.2393,1.2432,1.248,1.248,1.2529,1.2529,1.2529,1.2529,1.2578,1.2578,1.2627,1.2676,1.2676,1.2676,1.2725,1.2725,1.2725,1.2725,1.2773,1.2773,1.2773,1.2822,1.2773,1.2822,1.2822,1.2822,1.2871,1.292,1.292,1.2969,1.2969,1.3018,1.3018,1.3018,1.3018,1.3018,1.3018,1.3066,1.3115,1.3115,1.3115,1.3174,1.3271,1.3223,1.3271,1.3271,1.3271,1.3271,1.3271,1.333,1.333,1.333,1.333,1.3379,1.3379,1.3486,1.3486,1.3486,1.3486,1.3545,1.3604,1.3604,1.3604,1.3604,1.3652,1.3604,1.3652,1.3652,1.3711,1.3711,1.3711,1.377,1.377,1.3828,1.3828,1.3828,1.3887,1.3936,1.3945,1.3887,1.3994,1.3994,1.3994,1.4062,1.4062,1.4062,1.4121,1.418,1.418,1.418,1.418,1.4238,1.4238,1.4238,1.4238,1.4238,1.4238,1.4297,1.4238,1.4297,1.4355,1.4424,1.4424,1.4482,1.4482,1.4482,1.4551,1.4551,1.4551,1.4609,1.4678,1.4678,1.4678,1.4678,1.4678,1.4736,1.4736,1.4736,1.4736,1.4736,1.4736,1.4805,1.4941,1.5,1.5068,1.5068,1.5068,1.5068,1.5068,1.5068,1.5068,1.5137,1.5137,1.5137,1.5137,1.5137,1.5137,1.5205,1.5205,1.5283,1.5205,1.5205,1.4004,1.4004,1.4004,1.4004,1.4004,1.3945,1.3887,1.3887,1.3887,1.3828,1.3887,1.3828,1.3828,1.3828,1.3828,1.3828,1.3828,1.3828,1.3828,1.3828,1.3828,1.3828,1.3828,1.3828,1.3828,1.3779,1.3779,1.3779,1.3779,1.3779,1.3721,1.3721,1.3721,1.3721,1.3721,1.3662,1.3662,1.3662,1.3662,1.3662,1.3662,1.3721,1.3721,1.3721,1.3662,1.3662,1.3662,1.3662,1.3721,1.3662,1.3662,1.3662,1.3662,1.3662,1.3662,1.3662,1.3662,1.3662,1.3662,1.3662,1.3662,1.3662,1.3662,1.3662,1.3662,1.3662,0,0,1.6816,1.6729,1.6729,1.6729,1.6729,1.6729,1.6738,1.6738,1.6572,1.665,1.665,1.665,0,0,0,0,0,0,0,1.3506,1.3447,1.3506,1.3447,1.3447,1.3447,1.3447,1.3447,1.3398,1.3398,1.3398,1.3398,1.3447,1.3447,1.3447,1.3447,1.3398,1.3398,1.334,1.334,1.3291,1.334,1.334,1.334,1.334,1.3291,1.3232,1.3291,1.3291,1.3291,1.3291,1.3291,1.3242,1.3242,1.3291,1.334,1.3291,1.334,1.334,1.334,1.334,1.334,1.334,1.334,1.3291,1.3291,1.3291,1.3291,1.3291,1.3242,1.3242,1.3242,1.3291,1.3291,1.3291,1.3242,1.3242,1.3184,1.3184,1.3184,1.3242,1.3184,1.3135,1.3086,1.3086,1.4072,1.4072,1.4072,1.4072,1.4014,1.4014,1.4014,1.3955,1.3955,1.3955,1.3955,1.3955,1.3955,1.3955,1.3955,1.3896,1.3955,1.3896,1.3896,1.3896,1.3896,1.3838,1.3838,1.3838,1.3838,1.3789,1.3789,1.3789,1.3789,1.3789,1.3789,1.3789,1.3789,1.3789,1.3789,1.3789,1.3789,1.3789,1.3789,1.3789,1.3789,1.373,1.373,0,1.5156,1.5225,1.5225,1.5293,1.5293,1.5225,1.5156,1.5225,1.5156,1.5088,0,0,0,0,0,0,0,0,0,0,0,0,0,0,0,0,0,0,0,0,0,0,0,0,0,0,0,0
1.0723,1.0723,1.0723,1.0684,1.0684,1.0684,1.0684,1.0684,1.0684,1.0684,1.0684,1.0684,1.0723,1.0723,1.0752,1.0791,1.0791,1.082,1.082,1.082,1.0859,1.0859,1.0859,1.0859,1.0859,1.0859,1.0928,1.0928,1.0928,1.0967,1.0967,1.0967,1.0967,1.0967,1.1035,1.1074,1.1074,1.1113,1.1113,1.1152,1.1113,1.1152,1.1191,1.1221,1.126,1.126,1.126,1.1299,1.1299,1.1299,1.1299,1.1338,1.1338,1.1377,1.1377,1.1377,1.1416,1.1416,1.1416,1.1455,1.1455,1.1455,1.1455,1.1455,1.1494,1.1533,1.1494,1.1533,1.1572,1.1572,1.1572,1.1572,1.1611,1.166,1.1699,1.1699,1.1738,1.1738,1.1738,1.1738,1.1777,1.1777,1.1777,1.1777,1.1777,1.1816,1.1816,1.1816,1.1865,1.1904,1.1904,1.1943,1.1992,1.1943,1.2031,1.2031,1.2031,1.208,1.2031,1.208,1.208,1.208,1.208,1.2168,1.2168,1.2168,1.2295,1.2295,1.2295,1.2295,1.2295,1.2344,1.2344,1.2344,1.2344,1.2344,1.2344,1.2393,1.2432,1.2432,1.2432,1.248,1.248,1.2529,1.2529,1.2529,1.2578,1.2627,1.2627,1.2676,1.2676,1.2676,1.2725,1.2725,1.2725,1.2725,1.2773,1.2773,1.2773,1.2822,1.2773,1.2822,1.2822,1.2822,1.2871,1.292,1.292,1.2969,1.2969,1.2969,1.3018,1.3018,1.3018,1.3018,1.3018,1.3066,1.3125,1.3125,1.3125,1.3174,1.3281,1.3223,1.3281,1.3281,1.3281,1.3281,1.3281,1.333,1.333,1.333,1.333,1.3379,1.3379,1.3486,1.3486,1.3486,1.3545,1.3545,1.3545,1.3604,1.3604,1.3604,1.3652,1.3652,1.3711,1.3711,1.3711,1.377,1.377,1.377,1.377,1.3828,1.3828,1.3828,1.3887,1.3887,1.3945,1.4004,1.4004,1.4004,1.4004,1.4062,1.4062,1.4062,1.4121,1.4121,1.4121,1.418,1.418,1.4238,1.4238,1.4238,1.4238,1.4297,1.4297,1.4297,1.4238,1.4238,1.4297,1.4297,1.4424,1.4482,1.4482,1.4482,1.4551,1.4551,1.4551,1.4609,1.4609,1.4678,1.4678,1.4678,1.4678,1.4678,1.4678,1.4736,1.4736,1.4736,1.4805,1.4941,1.4941,1.501,1.5068,1.501,1.5068,1.5068,1.5068,1.5068,1.5068,1.5137,1.5137,1.5137,1.5137,1.5137,1.5205,1.5215,1.5215,1.5283,1.5283,1.4062,1.4062,1.4004,1.4004,1.4062,1.4004,1.3945,1.3945,1.3887,1.3887,1.3887,1.3887,1.3828,1.3828,1.3828,1.3828,1.3828,1.3828,1.3828,1.3828,1.3828,1.3828,1.3828,1.3828,1.3828,1.3828,1.3779,1.3779,1.3779,1.3779,1.3779,1.3779,1.3721,1.3721,1.3721,1.3721,1.3662,1.3662,1.3662,1.3662,1.3662,1.3662,1.3662,1.3721,1.3721,1.3721,1.3662,1.3721,1.3662,1.3721,1.3662,1.3662,1.3662,1.3662,1.3721,1.3721,1.3662,1.3662,1.3662,1.3662,1.3662,1.3662,1.3662,1.3662,1.3662,1.3662,0,0,1.6738,1.6816,1.6738,1.6738,1.6738,1.6738,1.6738,1.6738,1.6738,1.665,1.665,1.665,1.665,0,0,0,0,0,1.3613,1.3447,1.3506,1.3447,1.3506,1.3447,1.3447,1.3447,1.3447,1.3447,1.3447,1.3447,1.3398,1.3447,1.3447,1.3447,1.3447,1.3398,1.334,1.334,1.334,1.334,1.3291,1.3291,1.334,1.334,1.334,1.334,1.334,1.3291,1.334,1.3291,1.3291,1.3291,1.3291,1.3242,1.3291,1.334,1.3291,1.3291,1.3291,1.334,1.334,1.334,1.334,1.3291,1.3291,1.3291,1.3291,1.3291,1.3291,1.3242,1.3242,1.3242,1.3291,1.3291,1.3291,1.3242,1.3184,1.3184,1.3184,1.3184,1.3184,1.3135,1.3135,1.3037,1.4014,1.4014,1.4014,1.4131,1.4072,1.4014,1.4014,1.4014,1.3955,1.3955,1.3955,1.3955,1.3955,1.3955,1.3955,1.3955,1.3896,1.3896,1.3896,1.3896,1.3896,1.3896,1.3896,1.3896,1.3838,1.3838,1.3789,1.3789,1.3789,1.3789,1.3789,1.3789,1.3789,1.3789,1.3789,1.3789,1.3789,1.3789,1.3789,1.3789,1.3789,1.3789,1.373,1.373,1.373,0,1.5293,1.5293,1.5293,1.5293,1.5293,1.5225,1.5225,1.5156,1.5088,0,0,0,0,0,0,0,0,0,0,0,0,0,0,0,0,0,0,0,0,0,0,0,0,0,0,0,0
1.0723,1.0723,1.0723,1.0684,1.0684,1.0684,1.0684,1.0684,1.0684,1.0684,1.0684,1.0684,1.0723,1.0723,1.0752,1.0791,1.0791,1.0791,1.082,1.082,1.082,1.082,1.0859,1.0859,1.0859,1.0898,1.0928,1.0928,1.0928,1.0967,1.0967,1.0967,1.0967,1.0967,1.1035,1.1074,1.1074,1.1113,1.1113,1.1152,1.1152,1.1152,1.1191,1.1221,1.126,1.126,1.126,1.126,1.1299,1.1299,1.1338,1.1338,1.1338,1.1377,1.1416,1.1416,1.1416,1.1416,1.1416,1.1455,1.1455,1.1455,1.1455,1.1455,1.1494,1.1494,1.1533,1.1533,1.1572,1.1572,1.1572,1.1572,1.1611,1.1611,1.166,1.1699,1.1738,1.1738,1.1777,1.1738,1.1777,1.1777,1.1777,1.1777,1.1816,1.1816,1.1816,1.1816,1.1865,1.1904,1.1904,1.1943,1.1992,1.1992,1.1992,1.2031,1.2031,1.208,1.208,1.208,1.208,1.208,1.208,1.2168,1.2168,1.2168,1.2295,1.2295,1.2295,1.2295,1.2344,1.2344,1.2344,1.2344,1.2344,1.2344,1.2393,1.2393,1.2393,1.2441,1.2441,1.2441,1.248,1.2529,1.2529,1.2529,1.2578,1.2627,1.2627,1.2676,1.2676,1.2725,1.2725,1.2725,1.2725,1.2725,1.2773,1.2773,1.2773,1.2822,1.2822,1.2822,1.2822,1.2822,1.2871,1.292,1.292,1.2969,1.2969,1.3018,1.3018,1.3018,1.3018,1.3018,1.3018,1.3125,1.3125,1.3125,1.3174,1.3223,1.3281,1.3223,1.3281,1.3281,1.3281,1.3281,1.3281,1.333,1.333,1.333,1.333,1.3379,1.3438,1.3496,1.3545,1.3496,1.3545,1.3545,1.3604,1.3604,1.3604,1.3652,1.3652,1.3652,1.3711,1.3711,1.377,1.377,1.377,1.377,1.3828,1.3828,1.3828,1.3828,1.3887,1.3945,1.3945,1.4004,1.4004,1.4004,1.4004,1.4062,1.4062,1.4121,1.4121,1.418,1.4121,1.418,1.418,1.4238,1.4238,1.4297,1.4297,1.4297,1.4297,1.4297,1.4297,1.4297,1.4365,1.4365,1.4482,1.4482,1.4482,1.4482,1.4551,1.4551,1.4551,1.4609,1.4678,1.4678,1.4678,1.4678,1.4678,1.4678,1.4678,1.4746,1.4746,1.4805,1.4805,1.501,1.501,1.5078,1.5078,1.5078,1.501,1.5078,1.5078,1.5078,1.5146,1.5146,1.5146,1.5146,1.5215,1.5146,1.5215,1.5215,1.5215,1.5283,1.5352,1.5352,1.4062,1.4004,1.4004,1.4062,1.4004,1.4004,1.3945,1.3887,1.3887,1.3887,1.3887,1.3887,1.3887,1.3828,1.3887,1.3828,1.3828,1.3828,1.3887,1.3887,1.3887,1.3887,1.3887,1.3828,1.3828,1.3828,1.3779,1.3779,1.3779,1.3779,1.3779,1.3721,1.3721,1.3721,1.3721,1.3721,1.3721,1.3721,1.3721,1.3721,1.3662,1.3721,1.3721,1.3721,1.3721,1.3662,1.3662,1.3662,1.3721,1.3721,1.3721,1.3662,1.3662,1.3721,1.3721,1.3662,1.3662,1.3721,1.3721,1.3662,1.3662,1.3662,1.3662,1.3662,1.3672,0,0,1.6816,1.6816,1.6816,1.6738,1.6738,1.6738,1.6738,1.6738,1.6572,1.6572,1.6572,1.6738,0,0,0,0,0,0,1.3613,1.3506,1.3506,1.3506,1.3506,1.3506,1.3447,1.3447,1.3447,1.3447,1.3447,1.3447,1.3398,1.3398,1.3447,1.3447,1.3447,1.334,1.334,1.334,1.334,1.334,1.3291,1.3291,1.3291,1.3291,1.334,1.334,1.334,1.3291,1.334,1.3291,1.3291,1.3291,1.3242,1.3242,1.3291,1.3291,1.3291,1.3291,1.3291,1.334,1.334,1.3291,1.335,1.3291,1.3291,1.3242,1.3291,1.3291,1.3291,1.3242,1.3242,1.3242,1.3291,1.3291,1.3291,1.3242,1.3193,1.3193,1.3193,1.3193,1.3193,1.3135,1.3135,1.3135,1.4014,1.4014,1.4014,1.4014,1.4014,1.4014,1.3955,1.4014,1.3955,1.3955,1.3955,1.3896,1.3896,1.3955,1.3896,1.3896,1.3896,1.3896,1.3896,1.3896,1.3896,1.3896,1.3896,1.3896,1.3848,1.3848,1.3848,1.3848,1.3789,1.3789,1.3789,1.3848,1.3848,1.3789,1.3789,1.3789,1.3789,1.3789,1.3789,1.3789,1.3789,1.3789,1.373,1.373,1.373,0,1.5293,1.5225,1.5293,1.5225,1.5225,1.5156,1.5156,1.5156,1.5088,0,0,0,0,0,0,0,0,0,0,0,0,0,0,0,0,0,0,0,0,0,0,0,0,0,0,0,0
1.0752,1.0723,1.0723,1.0723,1.0684,1.0684,1.0684,1.0684,1.0684,1.0684,1.0684,1.0684,1.0723,1.0752,1.0752,1.0791,1.0791,1.0791,1.082,1.082,1.082,1.0859,1.0898,1.0898,1.0898,1.0928,1.0928,1.0928,1.0928,1.0967,1.0967,1.0967,1.0967,1.0967,1.1035,1.1074,1.1113,1.1113,1.1113,1.1152,1.1152,1.1191,1.1191,1.1221,1.126,1.126,1.126,1.126,1.1299,1.1299,1.1338,1.1338,1.1377,1.1377,1.1377,1.1416,1.1416,1.1416,1.1416,1.1455,1.1455,1.1455,1.1455,1.1455,1.1533,1.1533,1.1533,1.1572,1.1572,1.1572,1.1572,1.1611,1.1611,1.1611,1.166,1.166,1.1699,1.1738,1.1738,1.1738,1.1777,1.1777,1.1777,1.1777,1.1826,1.1826,1.1865,1.1865,1.1904,1.1904,1.1904,1.1953,1.1992,1.1992,1.1992,1.2031,1.2031,1.208,1.208,1.208,1.208,1.2119,1.2119,1.2168,1.2168,1.2168,1.2207,1.2256,1.2295,1.2295,1.2344,1.2344,1.2344,1.2344,1.2344,1.2344,1.2393,1.2393,1.2393,1.2441,1.2441,1.2441,1.248,1.2529,1.2529,1.2529,1.2627,1.2627,1.2676,1.2676,1.2676,1.2676,1.2725,1.2725,1.2725,1.2725,1.2773,1.2773,1.2871,1.2871,1.2871,1.2822,1.2822,1.2822,1.2871,1.2871,1.292,1.292,1.2969,1.3018,1.3018,1.3066,1.3018,1.3066,1.3066,1.3066,1.3125,1.3125,1.3174,1.3223,1.3223,1.3223,1.3281,1.3281,1.3281,1.3281,1.3281,1.333,1.333,1.333,1.333,1.3389,1.3389,1.3496,1.3545,1.3545,1.3545,1.3604,1.3604,1.3604,1.3604,1.3604,1.3652,1.3662,1.3711,1.377,1.377,1.377,1.377,1.377,1.3828,1.3828,1.3828,1.3887,1.3887,1.3945,1.3945,1.4004,1.4004,1.4004,1.4062,1.4062,1.4121,1.4121,1.418,1.418,1.4121,1.418,1.4238,1.4297,1.4238,1.4297,1.4297,1.4297,1.4297,1.4297,1.4297,1.4297,1.4365,1.4365,1.4424,1.4482,1.4482,1.4551,1.4551,1.4482,1.4551,1.4609,1.4678,1.4678,1.4678,1.4678,1.4678,1.4678,1.4678,1.4746,1.4746,1.4805,1.4805,1.4873,1.4941,1.501,1.5078,1.5078,1.501,1.5078,1.5078,1.5078,1.5146,1.5146,1.5146,1.5146,1.5215,1.5215,1.5215,1.5215,1.5283,1.5352,1.5352,1.542,1.4062,1.4062,1.4062,1.4062,1.4004,1.4004,1.3945,1.3945,1.3945,1.3887,1.3887,1.3887,1.3887,1.3887,1.3887,1.3887,1.3828,1.3828,1.3887,1.3887,1.3887,1.3887,1.3887,1.3838,1.3838,1.3838,1.3838,1.3838,1.3779,1.3779,1.3779,1.3721,1.3779,1.3721,1.3721,1.3721,1.3662,1.3662,1.3662,1.3662,1.3662,1.3662,1.3721,1.3721,1.3721,1.3721,1.3721,1.3662,1.3721,1.3721,1.3721,1.3721,1.3662,1.3721,1.3662,1.3662,1.3662,1.3672,1.3672,1.3672,1.3672,1.3672,1.3672,1.3672,0,0,0,1.6816,1.6816,1.6816,1.6738,1.6738,1.6738,1.6738,1.6738,1.6738,1.6572,1.665,1.6572,0,0,0,0,0,0,0,1.3506,1.3506,1.3506,1.3506,1.3506,1.3447,1.3398,1.3398,1.3447,1.3398,1.3398,1.3398,1.334,1.3398,1.3398,1.3398,1.3398,1.334,1.334,1.334,1.334,1.3291,1.3291,1.3291,1.3291,1.334,1.3291,1.3291,1.3291,1.335,1.335,1.3291,1.335,1.3291,1.3291,1.3291,1.3291,1.3291,1.335,1.335,1.3291,1.335,1.3291,1.3291,1.3291,1.3291,1.3291,1.3291,1.3291,1.3291,1.3242,1.3242,1.3242,1.3291,1.3291,1.3242,1.3242,1.3193,1.3193,1.3193,1.3193,1.3242,1.3193,1.3135,1.3135,1.4072,1.4014,1.4014,1.4014,1.4014,1.4014,1.3955,1.4014,1.3955,1.3955,1.3955,1.3896,1.3955,1.3955,1.3955,1.3896,1.3896,1.3896,1.3896,1.3896,1.3896,1.3896,1.3896,1.3896,1.3848,1.3848,1.3848,1.3789,1.3789,1.3789,1.3789,1.3848,1.3789,1.3789,1.3789,1.3789,1.3789,1.3789,1.3789,1.373,1.3789,1.3789,1.373,1.373,0,1.5225,1.5293,1.5293,1.5225,1.5225,1.5225,1.5225,1.5156,1.5156,1.5088,0,0,0,0,0,0,0,0,0,0,0,0,0,0,0,0,0,0,0,0,0,0,0,0,0,0,0,0
1.0752,1.0752,1.0752,1.0723,1.0723,1.0684,1.0684,1.0684,1.0684,1.0684,1.0723,1.0723,1.0723,1.0752,1.0791,1.0791,1.0791,1.083,1.083,1.083,1.083,1.083,1.0859,1.0898,1.0898,1.0898,1.0928,1.0928,1.0928,1.0967,1.0967,1.0967,1.0967,1.1006,1.1074,1.1113,1.1113,1.1152,1.1152,1.1152,1.1152,1.1191,1.123,1.123,1.126,1.126,1.126,1.126,1.1299,1.1299,1.1338,1.1377,1.1377,1.1377,1.1377,1.1416,1.1416,1.1416,1.1416,1.1455,1.1455,1.1455,1.1455,1.1455,1.1533,1.1533,1.1572,1.1572,1.1572,1.1572,1.1621,1.1621,1.1621,1.166,1.166,1.1699,1.1738,1.1738,1.1738,1.1738,1.1738,1.1777,1.1777,1.1777,1.1826,1.1865,1.1865,1.1904,1.1904,1.1904,1.1953,1.1953,1.1992,1.1992,1.1992,1.2031,1.208,1.208,1.208,1.208,1.208,1.2119,1.2119,1.2168,1.2168,1.2168,1.2207,1.2256,1.2305,1.2305,1.2344,1.2344,1.2344,1.2344,1.2344,1.2344,1.2393,1.2393,1.2393,1.2441,1.2441,1.248,1.248,1.2529,1.2578,1.2578,1.2627,1.2676,1.2676,1.2676,1.2676,1.2725,1.2725,1.2725,1.2725,1.2725,1.2773,1.2822,1.2822,1.2871,1.2822,1.2822,1.2822,1.2822,1.2871,1.292,1.2969,1.3018,1.3018,1.3066,1.3066,1.3066,1.3066,1.3066,1.3066,1.3066,1.3125,1.3125,1.3174,1.3174,1.3223,1.3223,1.3223,1.3281,1.3281,1.3281,1.3281,1.333,1.333,1.333,1.333,1.3389,1.3438,1.3496,1.3545,1.3496,1.3545,1.3604,1.3604,1.3604,1.3662,1.3662,1.3662,1.3662,1.3711,1.3711,1.377,1.377,1.377,1.377,1.3828,1.3828,1.3828,1.3887,1.3887,1.3945,1.3945,1.4004,1.4004,1.4004,1.4062,1.4062,1.4121,1.4121,1.418,1.418,1.418,1.418,1.4238,1.4238,1.4238,1.4297,1.4297,1.4297,1.4297,1.4365,1.4365,1.4365,1.4365,1.4424,1.4424,1.4482,1.4482,1.4482,1.4551,1.4551,1.4551,1.4609,1.4609,1.4678,1.4609,1.4678,1.4678,1.4746,1.4746,1.4746,1.4805,1.4805,1.4805,1.4805,1.4873,1.501,1.501,1.501,1.501,1.5078,1.5078,1.5146,1.5215,1.5146,1.5215,1.5146,1.5215,1.5215,1.5215,1.5215,1.5215,1.5352,1.542,1.4062,1.4062,1.4062,1.4062,1.4062,1.4004,1.4004,1.3945,1.4004,1.3945,1.3887,1.3887,1.3887,1.3887,1.3887,1.3887,1.3887,1.3887,1.3838,1.3838,1.3838,1.3838,1.3838,1.3838,1.3838,1.3838,1.3838,1.3838,1.3838,1.3779,1.3838,1.3779,1.3779,1.3779,1.3721,1.3721,1.3721,1.3662,1.3721,1.3662,1.3662,1.3662,1.3662,1.3721,1.3721,1.3779,1.3721,1.3721,1.3662,1.3721,1.3721,1.3721,1.3721,1.3672,1.3721,1.3672,1.3672,1.3721,1.3672,1.3672,1.3672,1.3613,1.3613,1.3672,1.3672,0,0,1.6738,1.6738,1.6816,1.6738,1.6738,1.6738,1.6738,1.6738,1.6738,1.6738,1.665,1.665,1.6572,1.6572,1.6572,1.6494,0,0,0,0,1.3555,1.3555,1.3506,1.3506,1.3447,1.3447,1.3398,1.3398,1.3398,1.3398,1.3398,1.3398,1.334,1.3398,1.3398,1.3447,1.334,1.334,1.334,1.3398,1.334,1.335,1.3291,1.3291,1.3291,1.3291,1.3291,1.3291,1.3291,1.335,1.335,1.335,1.3291,1.3291,1.3291,1.335,1.335,1.335,1.335,1.335,1.335,1.335,1.3291,1.3291,1.3291,1.3291,1.3291,1.3291,1.3291,1.3291,1.3242,1.3242,1.3291,1.3291,1.3242,1.3242,1.3242,1.3242,1.3242,1.3193,1.3193,1.3242,1.3193,1.3135,1.3135,0,1.4072,1.4072,1.4072,1.4014,1.4014,1.4014,1.4014,1.3955,1.4014,1.3955,1.3955,1.3955,1.3955,1.3955,1.3896,1.3896,1.3955,1.3896,1.3896,1.3896,1.3896,1.3848,1.3906,1.3848,1.3848,1.3848,1.3848,1.3848,1.3848,1.3789,1.3848,1.3848,1.3848,1.3789,1.3789,1.3789,1.3789,1.373,1.373,1.3789,1.3789,1.3789,0,1.5225,1.5225,1.5293,1.5293,1.5293,1.5225,1.5225,1.5156,1.5156,1.5156,1.5156,0,0,0,0,0,0,0,0,0,0,0,0,0,0,0,0,0,0,0,0,0,0,0,0,0,0,0,0
1.0752,1.0752,1.0723,1.0723,1.0723,1.0684,1.0684,1.0684,1.0684,1.0684,1.0684,1.0684,1.0752,1.0791,1.0791,1.0791,1.0791,1.083,1.083,1.083,1.083,1.083,1.0859,1.0898,1.0898,1.0898,1.0928,1.0928,1.0928,1.0928,1.0967,1.0967,1.0967,1.1006,1.1074,1.1074,1.1113,1.1152,1.1152,1.1152,1.1152,1.1191,1.123,1.123,1.126,1.126,1.126,1.126,1.1299,1.1299,1.1299,1.1338,1.1377,1.1377,1.1377,1.1377,1.1416,1.1416,1.1416,1.1416,1.1455,1.1455,1.1455,1.1494,1.1533,1.1572,1.1572,1.1572,1.1621,1.1621,1.1621,1.1621,1.1621,1.166,1.1699,1.1699,1.1699,1.1738,1.1738,1.1738,1.1738,1.1777,1.1777,1.1826,1.1865,1.1865,1.1865,1.1904,1.1904,1.1953,1.1953,1.1953,1.1992,1.1992,1.2031,1.2031,1.208,1.208,1.208,1.208,1.208,1.2119,1.2119,1.2168,1.2168,1.2168,1.2207,1.2207,1.2305,1.2305,1.2344,1.2393,1.2393,1.2393,1.2393,1.2393,1.2393,1.2393,1.2393,1.2441,1.2441,1.248,1.2529,1.2578,1.2578,1.2578,1.2627,1.2627,1.2627,1.2676,1.2676,1.2725,1.2725,1.2725,1.2773,1.2725,1.2773,1.2822,1.2871,1.2871,1.2822,1.2871,1.2822,1.2822,1.2871,1.292,1.2969,1.3018,1.3018,1.3018,1.3066,1.3066,1.3066,1.3066,1.3066,1.3125,1.3125,1.3125,1.3174,1.3174,1.3223,1.3174,1.3223,1.3223,1.3223,1.3281,1.3281,1.3281,1.333,1.333,1.333,1.3389,1.3389,1.3438,1.3496,1.3496,1.3545,1.3604,1.3604,1.3662,1.3662,1.3711,1.3711,1.3711,1.377,1.377,1.377,1.377,1.377,1.3828,1.3828,1.3828,1.3828,1.3887,1.3887,1.3945,1.3945,1.4004,1.4004,1.4004,1.4062,1.4062,1.4121,1.4121,1.418,1.418,1.4238,1.4238,1.4238,1.4238,1.4238,1.4297,1.4297,1.4297,1.4297,1.4365,1.4365,1.4424,1.4424,1.4424,1.4482,1.4492,1.4492,1.4492,1.4551,1.4551,1.4609,1.4609,1.4609,1.4678,1.4678,1.4678,1.4746,1.4746,1.4746,1.4746,1.4805,1.4805,1.4805,1.4805,1.4805,1.501,1.501,1.501,1.5078,1.5078,1.5078,1.5146,1.5215,1.5215,1.5215,1.5215,1.5215,1.5215,1.5215,1.5215,1.5215,1.5352,1.5352,1.4062,1.4062,1.4062,1.4062,1.4062,1.4004,1.3945,1.3945,1.3945,1.3945,1.3887,1.3887,1.3887,1.3887,1.3896,1.3896,1.3887,1.3838,1.3838,1.3838,1.3887,1.3887,1.3838,1.3838,1.3838,1.3779,1.3838,1.3838,1.3838,1.3838,1.3838,1.3838,1.3779,1.3779,1.3721,1.3721,1.3721,1.3721,1.3721,1.3662,1.3662,1.3662,1.3662,1.3721,1.3721,1.3721,1.3672,1.3672,1.3672,1.3721,1.3721,1.3721,1.3721,1.3672,1.3721,1.3721,1.3672,1.3672,1.3672,1.3672,1.3672,1.3613,1.3613,1.3613,1.3613,1.3672,0,1.6738,1.6738,1.6738,1.6738,1.6738,1.665,1.6738,1.665,1.6738,1.6738,1.665,1.665,1.6572,1.6572,1.6572,0,0,0,0,0,1.3555,1.3506,1.3506,1.3506,1.3447,1.3447,1.3398,1.3398,1.3398,1.3398,1.3398,1.3398,1.334,1.334,1.3506,1.3447,1.3398,1.335,1.335,1.335,1.335,1.335,1.3291,1.3291,1.3291,1.3291,1.3291,1.3291,1.3291,1.335,1.335,1.335,1.3291,1.3291,1.335,1.335,1.335,1.335,1.335,1.335,1.335,1.335,1.3291,1.3291,1.3291,1.3291,1.3291,1.3291,1.3291,1.3291,1.3242,1.3291,1.3291,1.3291,1.3291,1.3242,1.3242,1.3242,1.3242,1.3242,1.3242,1.3242,1.3193,1.3193,0,1.4199,1.4072,1.4072,1.4072,1.4014,1.4014,1.4014,1.4014,1.4014,1.4014,1.3955,1.4014,1.3955,1.4014,1.3955,1.3955,1.3906,1.3955,1.3906,1.3848,1.3848,1.3906,1.3906,1.3906,1.3848,1.3848,1.3848,1.3848,1.3848,1.3848,1.3789,1.3848,1.3848,1.3848,1.3848,1.3789,1.3789,1.3789,1.373,1.373,1.373,1.3789,0,1.5225,1.5225,1.5225,1.5293,1.5293,1.5293,1.5293,1.5225,1.5225,1.5156,1.5156,1.5156,0,0,0,0,0,0,0,0,0,0,0,0,0,0,0,0,0,0,0,0,0,0,0,0,0,0,0,0
1.0752,1.0752,1.0752,1.0723,1.0723,1.0684,1.0684,1.0684,1.0684,1.0684,1.0723,1.0723,1.0762,1.0791,1.0791,1.0791,1.083,1.083,1.083,1.083,1.0859,1.0859,1.0859,1.0898,1.0938,1.0938,1.0938,1.0938,1.0938,1.0967,1.0967,1.0967,1.0967,1.1045,1.1074,1.1113,1.1113,1.1152,1.1152,1.1152,1.1152,1.1191,1.123,1.126,1.126,1.126,1.126,1.126,1.1299,1.1299,1.1299,1.1338,1.1377,1.1416,1.1416,1.1416,1.1416,1.1416,1.1455,1.1416,1.1416,1.1455,1.1455,1.1455,1.1494,1.1533,1.1572,1.1572,1.1621,1.1621,1.1621,1.1621,1.166,1.166,1.1699,1.1699,1.1738,1.1738,1.1738,1.1738,1.1738,1.1738,1.1777,1.1777,1.1865,1.1865,1.1904,1.1904,1.1904,1.1953,1.1953,1.1953,1.1992,1.1992,1.2031,1.2031,1.208,1.2119,1.2119,1.2119,1.2119,1.2119,1.2119,1.2168,1.2168,1.2168,1.2256,1.2256,1.2305,1.2305,1.2344,1.2393,1.2393,1.2393,1.2441,1.2441,1.2441,1.249,1.249,1.248,1.248,1.248,1.2529,1.2529,1.2578,1.2578,1.2578,1.2627,1.2676,1.2676,1.2676,1.2676,1.2725,1.2725,1.2773,1.2773,1.2773,1.2871,1.2822,1.2822,1.2871,1.2871,1.2871,1.2822,1.2871,1.292,1.2969,1.3018,1.3018,1.3018,1.3076,1.3076,1.3076,1.3076,1.3125,1.3125,1.3125,1.3174,1.3174,1.3174,1.3223,1.3174,1.3223,1.3223,1.3223,1.3223,1.3281,1.3281,1.333,1.333,1.333,1.3389,1.3389,1.3496,1.3545,1.3545,1.3545,1.3545,1.3604,1.3604,1.3662,1.3662,1.3662,1.3711,1.377,1.377,1.377,1.377,1.377,1.3828,1.3828,1.3887,1.3887,1.3887,1.3887,1.3945,1.3945,1.4004,1.4004,1.4062,1.4062,1.4062,1.4121,1.418,1.4238,1.418,1.4238,1.4238,1.4238,1.4238,1.4238,1.4307,1.4307,1.4365,1.4365,1.4365,1.4365,1.4424,1.4424,1.4424,1.4492,1.4492,1.4492,1.4492,1.4551,1.4551,1.4619,1.4619,1.4619,1.4678,1.4678,1.4678,1.4746,1.4746,1.4746,1.4746,1.4805,1.4805,1.4805,1.4873,1.4873,1.501,1.501,1.5078,1.5078,1.5078,1.5078,1.5078,1.5215,1.5215,1.5215,1.5215,1.5215,1.5215,1.5215,1.5215,1.5283,1.5283,1.4062,1.4062,1.4062,1.4062,1.4062,1.4062,1.4062,1.3945,1.3945,1.3945,1.4004,1.3945,1.3945,1.3945,1.3945,1.3945,1.3896,1.3896,1.3896,1.3838,1.3896,1.3838,1.3838,1.3838,1.3838,1.3838,1.3838,1.3838,1.3838,1.3838,1.3779,1.3838,1.3838,1.3779,1.3779,1.3721,1.3721,1.3721,1.3721,1.3721,1.3672,1.3672,1.3672,1.3672,1.3672,1.3721,1.3721,1.3721,1.3672,1.3672,1.3721,1.3721,1.3721,1.3721,1.3672,1.3721,1.3672,1.3672,1.3672,1.3672,1.3672,1.3672,1.3613,1.3613,1.3613,1.3613,0,0,1.665,1.665,1.6738,1.6738,1.665,1.665,1.665,1.665,1.6738,1.6738,1.665,1.665,1.6572,1.6494,1.665,1.6572,0,0,0,1.3672,1.3613,1.3564,1.3506,1.3506,1.3447,1.3447,1.3398,1.3398,1.3398,1.3398,1.335,1.335,1.3291,1.335,1.3457,1.3398,1.335,1.335,1.3291,1.335,1.335,1.335,1.3291,1.3291,1.3291,1.3291,1.335,1.335,1.335,1.335,1.335,1.335,1.335,1.335,1.335,1.335,1.335,1.3398,1.3398,1.335,1.335,1.335,1.3291,1.3291,1.3291,1.3242,1.3291,1.3291,1.3291,1.3291,1.3242,1.3291,1.3291,1.3291,1.3193,1.3242,1.3193,1.3242,1.3242,1.3242,1.3242,1.3242,1.3242,1.3242,0,1.4131,1.4072,1.4072,1.4072,1.4014,1.4014,1.4014,1.4014,1.4014,1.4014,1.3955,1.3965,1.3965,1.3965,1.3965,1.3965,1.3965,1.3965,1.3965,1.3906,1.3906,1.3906,1.3906,1.3906,1.3848,1.3848,1.3906,1.3906,1.3848,1.3848,1.3848,1.3848,1.3848,1.3848,1.3789,1.3789,1.3789,1.3789,1.373,1.373,1.373,1.3789,1.3789,0,1.5225,1.5225,1.5303,1.5303,1.5303,1.5303,1.5225,1.5225,1.5225,1.5225,1.5156,0,0,0,0,0,0,0,0,0,0,0,0,0,0,0,0,0,0,0,0,0,0,0,0,0,0,0,0
1.0752,1.0752,1.0752,1.0723,1.0723,1.0684,1.0684,1.0684,1.0693,1.0693,1.0723,1.0762,1.0791,1.0791,1.0791,1.083,1.083,1.083,1.083,1.083,1.0859,1.0859,1.0859,1.0898,1.0938,1.0938,1.0938,1.0938,1.0967,1.0967,1.0967,1.0967,1.1006,1.1045,1.1074,1.1113,1.1113,1.1152,1.1152,1.1191,1.1191,1.1191,1.123,1.127,1.127,1.127,1.127,1.1299,1.1299,1.1338,1.1299,1.1338,1.1377,1.1416,1.1416,1.1416,1.1416,1.1416,1.1455,1.1455,1.1455,1.1455,1.1455,1.1494,1.1494,1.1582,1.1582,1.1582,1.1621,1.1621,1.1621,1.166,1.1621,1.166,1.166,1.1738,1.1738,1.1738,1.1738,1.1777,1.1777,1.1777,1.1777,1.1826,1.1826,1.1904,1.1865,1.1904,1.1953,1.1953,1.1953,1.1953,1.1992,1.1992,1.1992,1.2041,1.208,1.2119,1.208,1.2119,1.2119,1.2119,1.2168,1.2217,1.2217,1.2217,1.2256,1.2256,1.2305,1.2305,1.2344,1.2393,1.2393,1.2393,1.2393,1.2441,1.249,1.249,1.249,1.249,1.249,1.249,1.2529,1.2529,1.2529,1.2578,1.2578,1.2578,1.2627,1.2676,1.2676,1.2725,1.2725,1.2773,1.2773,1.2773,1.2773,1.2871,1.2822,1.2871,1.2871,1.2871,1.2871,1.2871,1.292,1.2969,1.2969,1.3018,1.3018,1.3076,1.3076,1.3076,1.3125,1.3125,1.3125,1.3174,1.3125,1.3125,1.3125,1.3174,1.3223,1.3174,1.3174,1.3232,1.3232,1.3232,1.3232,1.3281,1.3389,1.3389,1.333,1.3389,1.3438,1.3545,1.3545,1.3545,1.3604,1.3604,1.3604,1.3662,1.3662,1.3662,1.3721,1.3721,1.377,1.377,1.377,1.377,1.377,1.3828,1.3828,1.3887,1.3887,1.3887,1.3887,1.3887,1.3945,1.4004,1.4004,1.4062,1.4062,1.4062,1.4121,1.418,1.4238,1.418,1.4238,1.4238,1.4238,1.4238,1.4238,1.4238,1.4307,1.4365,1.4365,1.4424,1.4424,1.4492,1.4424,1.4424,1.4492,1.4492,1.4492,1.4492,1.4551,1.4551,1.4619,1.4619,1.4746,1.4746,1.4678,1.4678,1.4746,1.4746,1.4746,1.4746,1.4814,1.4814,1.4873,1.4873,1.4814,1.501,1.501,1.5078,1.501,1.5078,1.5078,1.5078,1.5146,1.5146,1.5283,1.5215,1.5283,1.5283,1.5215,1.5215,1.5215,1.5283,1.5352,1.4062,1.4062,1.4062,1.4062,1.4062,1.4004,1.4004,1.3945,1.4004,1.4004,1.3955,1.3955,1.3955,1.3955,1.3955,1.3896,1.3896,1.3838,1.3838,1.3838,1.3838,1.3838,1.3838,1.3838,1.3838,1.3838,1.3838,1.3838,1.3838,1.3779,1.3838,1.3838,1.3779,1.3779,1.3721,1.3721,1.3721,1.3721,1.3721,1.3672,1.3672,1.3672,1.3672,1.3672,1.3721,1.3672,1.3672,1.3672,1.3672,1.3721,1.3721,1.3721,1.3721,1.3672,1.3721,1.3721,1.3721,1.3672,1.3672,1.3672,1.3672,1.3672,1.3672,1.3672,1.373,1.373,0,0,1.665,1.6738,1.6738,1.6738,1.6738,1.6738,1.6738,1.6738,1.666,1.666,1.6572,1.666,1.6572,1.666,0,0,0,0,1.3672,1.3506,1.3564,1.3506,1.3506,1.3447,1.3457,1.3398,1.335,1.335,1.335,1.335,1.335,1.3291,1.3291,0,1.3398,1.3398,1.3398,1.335,1.335,1.335,1.335,1.3291,1.3291,1.3291,1.335,1.3398,1.3398,1.3291,1.335,1.335,1.335,1.335,1.335,1.335,1.335,1.335,1.335,1.3398,1.335,1.335,1.335,1.335,1.3291,1.3291,1.3291,1.3291,1.3291,1.3242,1.3242,1.3242,1.3291,1.3291,1.3291,1.3291,1.3193,1.3193,1.3193,1.3242,1.3242,1.3242,1.3242,1.3242,1.3301,0,1.4072,1.4072,1.4072,1.4072,1.4014,1.4014,1.4014,1.4014,1.4023,1.4023,1.4023,1.4023,1.3965,1.3965,1.3965,1.3965,1.3965,1.3965,1.3906,1.3906,1.3906,1.3906,1.3906,1.3906,1.3906,1.3848,1.3906,1.3906,1.3906,1.3848,1.3789,1.3848,1.3848,1.3848,1.3789,1.3789,1.3789,1.3789,1.373,1.373,1.373,1.373,0,1.5303,1.5303,1.5303,1.5303,1.5303,1.5303,1.5225,1.5234,1.5234,1.5234,1.5156,1.5166,0,0,0,0,0,0,0,0,0,0,0,0,0,0,0,0,0,0,0,0,0,0,0,0,0,0,0,0
1.0791,1.0791,1.0762,1.0762,1.0723,1.0693,1.0693,1.0693,1.0693,1.0723,1.0762,1.0762,1.0791,1.0791,1.0791,1.083,1.083,1.083,1.083,1.083,1.0859,1.0859,1.0859,1.0898,1.0938,1.0938,1.0938,1.0938,1.0967,1.0967,1.0967,1.0967,1.1006,1.1045,1.1074,1.1074,1.1113,1.1113,1.1152,1.1152,1.1191,1.123,1.123,1.127,1.127,1.127,1.127,1.1299,1.1299,1.1299,1.1338,1.1338,1.1377,1.1377,1.1416,1.1416,1.1416,1.1416,1.1416,1.1455,1.1455,1.1455,1.1494,1.1494,1.1533,1.1582,1.1582,1.1582,1.1621,1.1621,1.1621,1.166,1.166,1.166,1.1699,1.1738,1.1738,1.1738,1.1738,1.1777,1.1777,1.1777,1.1787,1.1787,1.1787,1.1865,1.1904,1.1904,1.1953,1.1953,1.1953,1.1953,1.1992,1.1992,1.2041,1.2041,1.208,1.2129,1.2129,1.2129,1.2129,1.2168,1.2168,1.2256,1.2217,1.2256,1.2256,1.2305,1.2305,1.2305,1.2344,1.2393,1.2393,1.2441,1.2441,1.2441,1.249,1.249,1.249,1.249,1.249,1.2529,1.2529,1.2529,1.2578,1.2578,1.2627,1.2627,1.2627,1.2676,1.2676,1.2725,1.2725,1.2725,1.2773,1.2773,1.2822,1.2871,1.2871,1.2871,1.2871,1.292,1.292,1.292,1.2969,1.2969,1.2969,1.3018,1.3076,1.3076,1.3076,1.3076,1.3125,1.3125,1.3125,1.3125,1.3125,1.3125,1.3174,1.3174,1.3281,1.3281,1.3281,1.3281,1.3232,1.3232,1.3281,1.3281,1.3389,1.333,1.3389,1.3389,1.3438,1.3545,1.3545,1.3604,1.3604,1.3604,1.3662,1.3662,1.3662,1.3662,1.3662,1.3721,1.3721,1.377,1.377,1.377,1.377,1.3828,1.3887,1.3887,1.3887,1.3887,1.3887,1.3887,1.3945,1.4004,1.4004,1.4062,1.4062,1.4121,1.4121,1.418,1.4238,1.418,1.4238,1.4238,1.4238,1.4307,1.4238,1.4307,1.4307,1.4365,1.4365,1.4424,1.4424,1.4492,1.4492,1.4492,1.4492,1.4492,1.4492,1.4551,1.4551,1.4551,1.4619,1.4678,1.4678,1.4678,1.4678,1.4746,1.4746,1.4746,1.4746,1.4746,1.4814,1.4814,1.4814,1.4814,1.4873,1.501,1.501,1.5078,1.5078,1.5078,1.5078,1.5078,1.5146,1.5146,1.5215,1.5283,1.5283,1.5283,1.5283,1.5215,1.5283,1.4131,1.4131,1.4062,1.4062,1.4062,1.4062,1.4062,1.4062,1.4004,1.3955,1.4014,1.4014,1.3955,1.3955,1.3955,1.3896,1.3896,1.3896,1.3896,1.3838,1.3838,1.3838,1.3838,1.3838,1.3779,1.3838,1.3779,1.3779,1.3838,1.3838,1.3838,1.3779,1.3779,1.3838,1.3779,1.3779,1.3721,1.3721,1.3721,1.3721,1.3672,1.3672,1.3672,1.3672,1.3672,1.3672,1.3672,1.3672,1.3672,1.3672,1.3672,1.3721,1.3721,1.3721,1.3721,1.3721,1.3721,1.3721,1.3721,1.3672,1.3672,1.3672,1.3672,1.3672,1.3672,1.3613,1.3672,1.373,0,0,1.666,1.6738,1.6738,1.6738,1.6738,1.6738,1.6738,1.6738,1.666,1.666,1.666,1.6572,1.666,1.666,0,0,0,1.3672,1.3564,1.3564,1.3506,1.3506,1.3506,1.3457,1.3398,1.3398,1.335,1.335,1.335,1.335,1.335,1.3291,1.335,0,1.3398,1.3398,1.3398,1.335,1.335,1.335,1.3398,1.335,1.3291,1.335,1.335,1.3398,1.3398,1.3291,1.335,1.335,1.335,1.335,1.3291,1.335,1.335,1.335,1.335,1.3398,1.335,1.335,1.335,1.335,1.3291,1.3291,1.3301,1.3301,1.3301,1.3242,1.3242,1.3301,1.3301,1.3242,1.3242,1.3301,1.3242,1.3193,1.3193,1.3242,1.3242,1.3242,1.3301,1.335,1.335,1.4014,1.4023,1.4023,1.4023,1.4023,1.4023,1.4023,1.4023,1.4023,1.4023,1.4023,1.4023,1.4023,1.4023,1.3965,1.3965,1.3965,1.3965,1.3965,1.3965,1.3965,1.3906,1.3906,1.3906,1.3906,1.3906,1.3906,1.3906,1.3906,1.3906,1.3906,1.3848,1.3848,1.3848,1.3848,1.3789,1.3789,1.3789,1.3789,1.373,1.373,1.373,1.3789,0,1.5303,1.5303,1.5303,1.5303,1.5303,1.5303,1.5303,1.5234,1.5234,1.5234,1.5166,1.5166,0,0,0,0,0,0,0,0,0,0,0,0,0,0,0,0,0,0,0,0,0,0,0,0,0,0,0,0
1.0791,1.0791,1.0762,1.0762,1.0762,1.0723,1.0723,1.0693,1.0723,1.0723,1.0762,1.0762,1.0791,1.0791,1.0791,1.083,1.083,1.083,1.083,1.083,1.0859,1.0859,1.0898,1.0898,1.0938,1.0938,1.0938,1.0938,1.0967,1.0967,1.0967,1.1006,1.1006,1.1045,1.1084,1.1113,1.1113,1.1113,1.1152,1.1191,1.1191,1.123,1.127,1.127,1.127,1.127,1.127,1.1309,1.1309,1.1338,1.1338,1.1338,1.1377,1.1377,1.1416,1.1416,1.1416,1.1416,1.1455,1.1455,1.1455,1.1455,1.1494,1.1543,1.1543,1.1582,1.1582,1.1582,1.1621,1.1621,1.166,1.166,1.166,1.166,1.166,1.1699,1.1738,1.1738,1.1738,1.1787,1.1787,1.1787,1.1787,1.1865,1.1865,1.1904,1.1904,1.1904,1.1953,1.1953,1.1953,1.1953,1.2041,1.2041,1.2041,1.208,1.208,1.2129,1.2129,1.2129,1.2129,1.2168,1.2168,1.2256,1.2256,1.2256,1.2256,1.2305,1.2305,1.2305,1.2354,1.2393,1.2441,1.2441,1.2441,1.2441,1.249,1.249,1.249,1.249,1.249,1.2529,1.2529,1.2539,1.2578,1.2627,1.2627,1.2676,1.2676,1.2676,1.2725,1.2725,1.2773,1.2773,1.2773,1.2822,1.2871,1.2871,1.2871,1.2871,1.292,1.292,1.292,1.292,1.292,1.2969,1.3018,1.3018,1.3076,1.3076,1.3076,1.3125,1.3125,1.3125,1.3125,1.3125,1.3125,1.3125,1.3232,1.3232,1.3232,1.3281,1.3281,1.3281,1.3232,1.3232,1.3281,1.333,1.3389,1.3389,1.3389,1.3389,1.3438,1.3555,1.3555,1.3555,1.3604,1.3604,1.3662,1.3662,1.3662,1.3721,1.3662,1.3721,1.377,1.377,1.377,1.377,1.3828,1.3887,1.3887,1.3887,1.3828,1.3828,1.3828,1.3887,1.3887,1.3945,1.4004,1.4062,1.4062,1.4121,1.4121,1.418,1.4238,1.4238,1.4238,1.4238,1.4248,1.4248,1.4248,1.4238,1.4307,1.4365,1.4365,1.4424,1.4424,1.4492,1.4492,1.4492,1.4492,1.4492,1.4551,1.4551,1.4551,1.4619,1.4619,1.4678,1.4678,1.4746,1.4746,1.4746,1.4814,1.4814,1.4746,1.4746,1.4814,1.4814,1.4814,1.4814,1.4814,1.4941,1.4941,1.501,1.501,1.501,1.501,1.5078,1.5146,1.5146,1.5215,1.5283,1.5283,1.5283,1.5283,1.5215,1.5283,1.4248,1.4189,1.4072,1.4072,1.4131,1.4072,1.4072,1.4014,1.4014,1.4014,1.4014,1.3955,1.3955,1.3896,1.3896,1.3896,1.3896,1.3896,1.3896,1.3838,1.3838,1.3838,1.3838,1.3838,1.3779,1.3838,1.3779,1.3779,1.3779,1.3779,1.3779,1.3721,1.3779,1.3779,1.3779,1.3721,1.3721,1.3672,1.3672,1.3721,1.3672,1.3672,1.3672,1.3672,1.3672,1.3672,1.3672,1.3672,1.3672,1.3672,1.3672,1.3721,1.373,1.373,1.373,1.373,1.373,1.373,1.373,1.373,1.373,1.3672,1.3672,1.3672,1.3613,1.3613,1.3672,1.3672,0,0,1.6738,1.6738,1.6738,1.6738,1.6738,1.6738,1.6738,1.6738,1.666,1.666,1.666,1.666,1.6572,1.6738,0,0,0,1.373,1.3564,1.3564,1.3564,1.3506,1.3506,1.3457,1.3457,1.3398,1.3398,1.335,1.335,1.335,1.3398,1.335,1.335,0,1.3457,1.3398,1.3398,1.3398,1.3398,1.3398,1.3398,1.3398,1.335,1.335,1.335,1.3398,1.3398,1.3291,1.335,1.335,1.335,1.3291,1.3291,1.335,1.335,1.3291,1.335,1.335,1.335,1.335,1.335,1.335,1.3301,1.3301,1.3301,1.3301,1.3301,1.3301,1.3301,1.3301,1.3301,1.3242,1.3242,1.3193,1.3193,1.3193,1.3193,1.3242,1.3242,1.3301,1.3301,1.335,1.335,0,1.4082,1.4023,1.4023,1.4023,1.4023,1.4023,1.4023,1.4023,1.4023,1.4023,1.4023,1.4023,1.4023,1.4023,1.3965,1.3965,1.3965,1.3965,1.3906,1.3906,1.3906,1.3906,1.3906,1.3906,1.3906,1.3906,1.3906,1.3906,1.3906,1.3906,1.3848,1.3906,1.3848,1.3848,1.3789,1.3789,1.3789,1.3789,1.373,1.3789,1.3789,1.3789,0,1.5303,1.5303,1.5303,1.5303,1.5303,1.5303,1.5303,1.5234,1.5234,1.5234,1.5234,1.5166,0,0,0,0,0,0,0,0,0,0,0,0,0,0,0,0,0,0,0,0,0,0,0,0,0,0,0,0
1.0791,1.0791,1.0762,1.0762,1.0723,1.0723,1.0723,1.0723,1.0723,1.0723,1.0762,1.0762,1.0791,1.0791,1.083,1.083,1.083,1.083,1.083,1.083,1.0859,1.0859,1.0898,1.0898,1.0938,1.0938,1.0967,1.0967,1.0967,1.0967,1.0967,1.1006,1.1006,1.1045,1.1084,1.1113,1.1113,1.1113,1.1152,1.1191,1.1191,1.123,1.127,1.127,1.127,1.1309,1.1309,1.1309,1.1309,1.1348,1.1348,1.1348,1.1387,1.1387,1.1416,1.1416,1.1416,1.1416,1.1455,1.1455,1.1455,1.1455,1.1455,1.1504,1.1504,1.1543,1.1582,1.1582,1.1621,1.1621,1.166,1.166,1.166,1.1699,1.1699,1.1738,1.1738,1.1738,1.1738,1.1787,1.1787,1.1826,1.1826,1.1865,1.1865,1.1904,1.1904,1.1953,1.1953,1.1992,1.1992,1.2041,1.2041,1.2041,1.2041,1.2041,1.208,1.2129,1.2129,1.2129,1.2129,1.2168,1.2168,1.2217,1.2256,1.2256,1.2256,1.2305,1.2305,1.2354,1.2354,1.2393,1.2393,1.2441,1.2441,1.2441,1.249,1.249,1.249,1.249,1.2539,1.2539,1.2539,1.2539,1.2578,1.2578,1.2627,1.2627,1.2676,1.2676,1.2725,1.2725,1.2773,1.2773,1.2773,1.2822,1.2822,1.2822,1.2871,1.292,1.292,1.292,1.292,1.292,1.292,1.2969,1.3018,1.3076,1.3076,1.3076,1.3125,1.3125,1.3125,1.3125,1.3125,1.3174,1.3125,1.3174,1.3232,1.3232,1.3232,1.3281,1.3281,1.3281,1.3281,1.3281,1.3281,1.333,1.333,1.3389,1.3389,1.3438,1.3496,1.3555,1.3555,1.3604,1.3604,1.3604,1.3662,1.3662,1.3662,1.3721,1.3721,1.3721,1.377,1.377,1.377,1.377,1.3828,1.3887,1.3887,1.3887,1.3828,1.3887,1.3887,1.3887,1.3945,1.4004,1.4004,1.4062,1.4062,1.4121,1.4121,1.418,1.4248,1.418,1.4248,1.4248,1.4248,1.4248,1.4248,1.4307,1.4307,1.4365,1.4424,1.4424,1.4424,1.4492,1.4492,1.4492,1.4492,1.4492,1.4551,1.4551,1.4551,1.4619,1.4678,1.4746,1.4678,1.4678,1.4746,1.4814,1.4814,1.4814,1.4814,1.4814,1.4814,1.4873,1.4814,1.4814,1.4814,1.4941,1.4941,1.501,1.4941,1.501,1.501,1.5078,1.5146,1.5146,1.5215,1.5215,1.5283,1.5283,1.5215,1.4248,1.4248,1.4131,1.4131,1.4131,1.4072,1.4131,1.4072,1.4072,1.4014,1.4014,1.3955,1.3955,1.3955,1.3896,1.3896,1.3896,1.3896,1.3896,1.3838,1.3838,1.3838,1.3838,1.3838,1.3838,1.3838,1.3779,1.3779,1.3779,1.3779,1.3779,1.3721,1.3721,1.3721,1.3721,1.3779,1.3779,1.3721,1.3721,1.3721,1.373,1.373,1.3672,1.3672,1.3672,1.3672,1.3672,1.3672,1.3672,1.3672,1.3672,1.3672,1.3672,1.373,1.373,1.373,1.373,1.373,1.373,1.373,1.373,1.373,1.373,1.3672,1.3672,1.3672,1.3672,1.3613,1.3672,1.3672,0,0,1.6738,1.6738,1.6738,1.6738,1.6738,1.6738,1.6738,1.6738,1.666,1.666,1.6572,1.6572,1.6572,1.6572,0,0,1.3672,1.3564,1.3564,1.3506,1.3506,1.3506,1.3506,1.3457,1.3457,1.3457,1.3398,1.3457,1.3457,1.3457,1.3457,1.3457,1.335,1.3457,1.3457,1.3398,1.3398,1.3398,1.3398,1.3398,1.3398,1.3398,1.335,1.335,1.335,1.3398,1.3398,1.3291,1.335,1.335,1.335,1.335,1.3301,1.335,1.335,1.335,1.335,1.335,1.335,1.335,1.3301,1.335,1.3301,1.3301,1.3301,1.3301,1.3301,1.3301,1.3301,1.3301,1.3301,1.3242,1.3242,1.3301,1.3242,1.3193,1.3193,1.3242,1.3301,1.3301,1.3301,1.3301,1.3789,0,1.4082,1.4023,1.4023,1.4023,1.4023,1.4023,1.4023,1.4023,1.4023,1.4023,1.4023,1.4023,1.4023,1.4023,1.3965,1.3965,1.3965,1.3965,1.3906,1.3906,1.3906,1.3906,1.3848,1.3906,1.3906,1.3906,1.3906,1.3906,1.3906,1.3906,1.3848,1.3906,1.3848,1.3848,1.3789,1.3789,1.3789,1.3789,1.374,1.3789,1.3789,1.3789,0,1.5303,1.5303,1.5303,1.5303,1.5303,1.5303,1.5303,1.5303,1.5234,1.5234,1.5166,1.5166,0,0,0,0,0,0,0,0,0,0,0,0,0,0,0,0,0,0,0,0,0,0,0,0,0,0,0,0
1.0791,1.0791,1.0762,1.0762,1.0723,1.0723,1.0723,1.0723,1.0723,1.0762,1.0762,1.0762,1.0791,1.0791,1.0791,1.083,1.083,1.083,1.083,1.0859,1.0859,1.0898,1.0898,1.0938,1.0938,1.0938,1.0967,1.0967,1.0967,1.0967,1.1006,1.1006,1.1006,1.1045,1.1084,1.1113,1.1113,1.1113,1.1152,1.1191,1.1191,1.123,1.127,1.127,1.127,1.1309,1.1309,1.1309,1.1309,1.1348,1.1348,1.1348,1.1387,1.1387,1.1426,1.1426,1.1465,1.1465,1.1465,1.1465,1.1465,1.1465,1.1465,1.1504,1.1504,1.1582,1.1582,1.1582,1.1621,1.1621,1.166,1.166,1.166,1.166,1.1699,1.1738,1.1738,1.1738,1.1738,1.1787,1.1787,1.1787,1.1826,1.1865,1.1865,1.1914,1.1914,1.1953,1.1953,1.1953,1.1992,1.2041,1.208,1.208,1.208,1.208,1.208,1.2129,1.2129,1.2129,1.2129,1.2168,1.2217,1.2256,1.2256,1.2256,1.2256,1.2305,1.2305,1.2305,1.2354,1.2393,1.2393,1.2441,1.2441,1.249,1.249,1.249,1.249,1.249,1.2539,1.2539,1.2539,1.2539,1.2578,1.2627,1.2627,1.2676,1.2676,1.2676,1.2676,1.2725,1.2725,1.2773,1.2773,1.2773,1.2773,1.2822,1.2871,1.2871,1.2871,1.2871,1.2871,1.292,1.292,1.2969,1.3027,1.3027,1.3076,1.3076,1.3125,1.3125,1.3125,1.3125,1.3125,1.3174,1.3174,1.3174,1.3232,1.3232,1.3281,1.3281,1.3281,1.3281,1.3281,1.3281,1.3281,1.334,1.334,1.3389,1.3389,1.3438,1.3496,1.3555,1.3555,1.3604,1.3604,1.3662,1.3662,1.3662,1.3662,1.3721,1.3721,1.3721,1.3779,1.3779,1.3779,1.3828,1.3828,1.3945,1.3887,1.3887,1.3828,1.3828,1.3887,1.3887,1.3945,1.4004,1.4062,1.4062,1.4062,1.4121,1.4121,1.418,1.418,1.418,1.4248,1.4248,1.4248,1.4248,1.4307,1.4307,1.4307,1.4365,1.4424,1.4424,1.4492,1.4492,1.4492,1.4492,1.4492,1.4492,1.4551,1.4551,1.4551,1.4619,1.4678,1.4746,1.4746,1.4746,1.4746,1.4814,1.4814,1.4814,1.4814,1.4873,1.4873,1.4873,1.4814,1.4814,1.4814,1.4941,1.4941,1.4941,1.4941,1.501,1.5078,1.5078,1.5078,0,1.5215,1.5283,1.5283,1.5283,1.5283,1.4248,1.4248,1.4189,1.4189,1.4131,1.4131,1.4131,1.4072,1.4072,1.4014,1.4072,1.3955,1.3955,1.3955,1.3955,1.3896,1.3896,1.3896,1.3896,1.3838,1.3838,1.3838,1.3838,1.3779,1.3779,1.3779,1.3779,1.3779,1.3779,1.3779,1.3779,1.3721,1.373,1.373,1.373,1.373,1.373,1.373,1.373,1.3672,1.373,1.3779,1.3672,1.3672,1.3672,1.3672,1.3672,1.3613,1.3613,1.3613,1.3672,1.3613,1.3613,1.3672,1.373,1.373,1.373,1.373,1.373,1.373,1.373,1.373,1.373,1.3672,1.3672,1.3672,1.3672,1.3672,1.3672,0,0,1.6738,1.6738,1.6738,1.6738,1.6738,1.6738,1.6738,1.6738,1.6738,1.666,1.666,1.666,1.6572,1.6572,1.6572,0,0,1.3672,1.3613,1.3613,1.3564,1.3506,1.3506,1.3506,1.3457,1.3457,1.3457,1.3457,1.3506,1.3506,1.3506,1.3506,1.3457,1.3457,1.3457,1.3398,1.3398,1.3398,1.3398,1.3398,1.3398,1.3398,1.3398,1.335,1.3398,1.335,1.3398,1.335,1.335,1.335,1.335,1.335,1.335,1.335,1.335,1.335,1.335,1.335,1.335,1.335,1.3301,1.3301,1.3301,1.3301,1.3301,1.3301,1.3301,1.3301,1.3301,1.3301,1.3301,1.3301,1.3301,1.3242,1.3242,1.3242,1.3193,1.3193,1.3301,1.3301,1.3301,1.3242,1.3301,1.3906,1.4023,1.4023,1.4023,1.4023,1.4023,1.4023,1.4023,1.4023,1.4023,1.4023,1.4023,1.4023,1.4023,1.4023,1.4023,1.4023,1.4023,1.3965,1.3965,1.3965,1.3906,1.3906,1.3906,1.3906,1.3906,1.3906,1.3906,1.3906,1.3906,1.3848,1.3848,1.3848,1.3906,1.3848,1.3848,1.3848,1.3789,1.3789,1.3789,1.3789,1.3789,1.3789,1.374,0,1.5303,1.5303,1.5303,1.5303,1.5303,1.5303,1.5303,1.5303,1.5303,1.5303,1.5166,1.5166,0,0,0,0,0,0,0,0,0,0,0,0,0,0,0,0,0,0,0,0,0,0,0,0,0,0,0,0
1.0791,1.0791,1.0762,1.0723,1.0723,1.0723,1.0723,1.0723,1.0693,1.0723,1.0723,1.0762,1.0791,1.0791,1.0791,1.0791,1.083,1.083,1.083,1.083,1.0869,1.0898,1.0898,1.0938,1.0938,1.0938,1.0967,1.0967,1.0977,1.1006,1.1006,1.1006,1.1045,1.1045,1.1113,1.1113,1.1113,1.1152,1.1152,1.1191,1.1191,1.123,1.127,1.127,1.127,1.1309,1.1309,1.1309,1.1309,1.1348,1.1348,1.1387,1.1387,1.1387,1.1426,1.1426,1.1426,1.1465,1.1465,1.1465,1.1465,1.1504,1.1504,1.1504,1.1543,1.1582,1.1582,1.1582,1.1621,1.1621,1.166,1.1699,1.1699,1.1699,1.1699,1.1738,1.1738,1.1738,1.1738,1.1787,1.1787,1.1787,1.1826,1.1865,1.1865,1.1914,1.1914,1.1953,1.1953,1.1992,1.1992,1.2041,1.208,1.208,1.208,1.208,1.208,1.2129,1.2129,1.2129,1.2129,1.2168,1.2217,1.2256,1.2256,1.2256,1.2305,1.2305,1.2305,1.2305,1.2354,1.2393,1.2393,1.2393,1.2441,1.249,1.249,1.2539,1.249,1.249,1.2539,1.2539,1.2539,1.2539,1.2539,1.2627,1.2627,1.2676,1.2676,1.2676,1.2725,1.2725,1.2725,1.2773,1.2773,1.2773,1.2822,1.2871,1.292,1.292,1.2871,1.2871,1.2871,1.292,1.292,1.292,1.2979,1.3027,1.3027,1.3076,1.3125,1.3125,1.3125,1.3125,1.3125,1.3174,1.3174,1.3174,1.3281,1.3281,1.3281,1.3281,1.3281,1.3281,1.3281,1.3281,1.3281,1.3281,1.334,1.334,1.334,1.3447,1.3447,1.3555,1.3555,1.3555,1.3604,1.3604,1.3662,1.3662,1.3721,1.3721,1.3779,1.3779,1.3779,1.3828,1.3779,1.3828,1.3828,1.3887,1.3945,1.3887,1.3828,1.3828,1.3887,1.3945,1.4004,1.4062,1.4062,1.4062,1.4121,1.4121,1.4121,1.4121,1.418,1.418,1.4248,1.4248,1.4248,1.4307,1.4307,1.4307,1.4307,1.4365,1.4434,1.4492,1.4492,1.4492,1.4492,1.4492,1.4492,1.4551,1.4551,1.4551,1.4551,0,1.4678,1.4746,1.4746,1.4746,1.4746,1.4814,1.4883,1.4883,1.4883,1.4883,1.4941,1.4941,1.4883,1.4814,1.4814,1.4941,1.4883,1.4883,1.4883,1.4814,0,1.501,1.4941,0,1.5078,1.4307,1.4307,1.4248,1.4248,1.4189,1.4189,1.4189,1.4131,1.4131,1.4131,1.4131,1.4072,1.4072,1.4014,1.4014,1.3955,1.3955,1.3955,1.3896,1.3896,1.3896,1.3838,1.3896,1.3838,1.3838,1.3838,1.3779,1.3779,1.3779,1.3779,1.3779,1.3779,1.373,1.3779,1.3779,1.373,1.373,1.373,1.373,1.373,1.373,1.373,1.373,1.373,1.373,1.373,1.3672,1.3672,1.3672,1.3613,1.3613,1.3613,1.3613,1.3613,1.3613,1.3613,1.3613,1.3672,1.373,1.373,1.373,1.373,1.373,1.373,1.373,1.373,1.373,1.3672,1.3672,1.3672,1.3672,1.373,0,0,1.6738,1.6738,1.6738,1.6738,1.6738,1.6738,1.6738,1.6738,1.6738,1.666,1.666,1.666,1.666,1.6582,1.6582,0,0,0,1.373,1.3564,1.3623,1.3564,1.3506,1.3506,1.3506,1.3506,1.3506,1.3506,1.3506,1.3506,1.3457,1.3506,1.3506,1.3457,1.3457,1.3457,1.3398,1.3398,1.3398,1.3457,1.3457,1.3398,1.3398,1.3398,1.335,1.3398,1.3398,1.335,1.335,1.3398,1.3398,1.3398,1.3398,1.335,1.335,1.335,1.335,1.335,1.335,1.335,1.335,1.3301,1.3301,1.3301,1.3301,1.3301,1.3301,1.3301,1.3301,1.3301,1.3301,1.3301,1.3301,1.3242,1.3242,1.3242,1.3242,1.3242,1.3193,1.3301,1.3301,1.3301,1.3242,1.3301,1.3965,1.3965,1.4023,1.4023,1.4023,1.4023,1.4023,1.4023,1.4023,1.4023,1.4023,1.4023,1.4023,1.4023,1.4023,1.4023,1.4023,1.4023,1.3965,1.3965,1.3965,1.3965,1.3965,1.3965,1.3906,1.3906,1.3906,1.3906,1.3906,1.3906,1.3848,1.3906,1.3848,1.3906,1.3848,1.3848,1.3848,1.3789,1.3789,1.3789,1.374,1.374,1.374,1.374,1.374,0,1.5303,1.5303,1.5303,1.5303,1.5303,1.5303,1.5303,1.5303,1.5234,1.5166,1.5166,0,0,0,0,0,0,0,0,0,0,0,0,0,0,0,0,0,0,0,0,0,0,0,0,0,0,0,0
1.0762,1.0791,1.0762,1.0723,1.0723,1.0723,1.0723,1.0723,1.0723,1.0723,1.0723,1.0762,1.0791,1.0791,1.0791,1.083,1.083,1.083,1.083,1.0869,1.0869,1.0898,1.0898,1.0938,1.0938,1.0938,1.0938,1.0977,1.0977,1.0977,1.1006,1.1006,1.1045,1.1045,1.1113,1.1113,1.1113,1.1152,1.1152,1.1191,1.1191,1.123,1.127,1.127,1.127,1.1309,1.1309,1.1309,1.1309,1.1348,1.1348,1.1348,1.1387,1.1387,1.1426,1.1426,1.1465,1.1465,1.1465,1.1465,1.1465,1.1504,1.1504,1.1543,1.1582,1.1582,1.1621,1.1621,1.1621,1.166,1.1699,1.1699,1.1748,1.1738,1.1738,1.1738,1.1738,1.1787,1.1787,1.1826,1.1826,1.1865,1.1865,1.1865,1.1914,1.1914,1.1914,1.1953,1.1953,1.1953,1.1992,1.208,1.208,1.208,1.208,1.208,1.208,1.2129,1.2129,1.2129,1.2168,1.2217,1.2217,1.2256,1.2256,1.2256,1.2305,1.2305,1.2305,1.2354,1.2354,1.2393,1.2393,1.2393,1.2441,1.2441,1.249,1.249,1.249,1.249,1.2539,1.2539,1.2539,1.2539,1.2588,1.2627,1.2676,1.2676,1.2676,1.2725,1.2725,1.2725,1.2725,1.2773,1.2773,1.2871,1.2871,1.292,1.292,1.292,1.292,1.292,1.292,1.292,1.292,1.2979,1.2979,1.3027,1.3027,1.3076,1.3125,1.3125,1.3125,1.3125,1.3125,1.3174,1.3174,1.3174,1.3232,1.3281,1.3281,1.3281,1.3281,1.334,1.334,1.334,1.334,1.334,1.334,1.3389,1.3389,1.3447,1.3496,1.3555,1.3555,1.3555,1.3604,1.3604,1.3662,1.3662,1.3721,1.3721,1.3721,1.3779,1.3779,1.3779,1.3779,1.3828,1.3828,1.3887,1.3887,1.3887,1.3838,1.3838,1.3887,1.3945,1.4004,1.4004,1.4062,1.4062,1.4121,1.4062,1.4189,1.4121,1.4189,1.4189,1.4248,1.4248,1.4248,1.4248,1.4248,1.4307,1.4307,1.4365,1.4365,1.4434,1.4492,1.4492,1.4551,1.4492,1.4551,1.4551,1.4551,1.4619,1.4619,1.4688,1.4746,1.4746,1.4746,1.4746,1.4814,1.4814,1.4883,1.4883,1.4883,1.4883,1.4941,1.4941,1.4883,1.4814,1.4814,1.4883,1.4883,1.4814,1.4746,0,1.501,1.501,1.4492,1.4375,1.4307,1.4307,1.4248,1.4248,1.4248,1.4189,1.4248,1.4189,1.4131,1.4131,1.4131,1.4131,1.4072,1.4072,1.4014,1.4072,1.4014,1.4014,1.4014,1.3896,1.3896,1.3838,1.3838,1.3838,1.3838,1.3838,1.3838,1.3838,1.3779,1.3779,1.3779,1.3779,1.3779,1.373,1.3779,1.3779,1.373,1.373,1.373,1.373,1.373,1.373,1.373,1.373,1.373,1.373,1.373,1.373,1.3672,1.3672,1.3613,1.3613,1.3613,1.3613,1.3613,1.3613,1.3564,1.3613,1.373,1.373,1.373,1.373,1.373,1.373,1.373,1.373,1.373,1.373,1.3672,1.3672,1.3672,1.3672,1.3672,0,0,1.6738,1.6738,1.6738,1.6738,1.6738,1.6738,1.6738,1.6738,1.6738,1.666,1.6582,1.666,1.666,1.6582,1.6582,1.6494,1.6494,1.3457,1.3623,1.3623,1.3623,1.3506,1.3506,1.3506,1.3506,1.3506,1.3457,1.3398,1.3457,1.3506,1.3457,1.3506,1.3506,1.3506,1.3457,1.3457,1.3398,1.3398,1.3398,1.3398,1.3408,1.3457,1.3457,1.3457,1.3457,1.3398,1.3398,1.335,1.335,1.3408,1.3457,1.3408,1.335,1.335,1.335,1.335,1.3301,1.3242,1.335,1.335,1.3301,1.3301,1.3301,1.3301,1.3301,1.3301,1.335,1.335,1.335,1.3301,1.3301,1.3301,1.3301,1.3242,1.3242,1.3242,1.3242,1.3242,1.3252,1.3301,1.3301,1.3252,1.3252,1.3193,1.3965,1.4023,1.4023,1.4023,1.4023,1.4023,1.4023,1.4082,1.4023,1.4023,1.4023,1.4023,1.4023,1.4023,1.4023,1.4023,1.3965,1.4023,1.3965,1.3965,1.3965,1.3965,1.3965,1.3965,1.3906,1.3906,1.3906,1.3906,1.3906,1.3848,1.3848,1.3906,1.3848,1.3906,1.3848,1.3848,1.3848,1.3789,1.3799,1.374,1.374,1.374,1.374,1.374,1.374,0,1.5371,1.5371,1.5303,1.5303,1.5303,1.5303,1.5303,1.5234,1.5234,1.5166,1.5166,0,0,0,0,0,0,0,0,0,0,0,0,0,0,0,0,0,0,0,0,0,0,0,0,0,0,0,0
1.0762,1.0791,1.0762,1.0723,1.0723,1.0693,1.0723,1.0723,1.0723,1.0723,1.0723,1.0723,1.0762,1.0791,1.0791,1.083,1.083,1.083,1.0869,1.0869,1.0869,1.0898,1.0938,1.0938,1.0977,1.0938,1.0977,1.0977,1.0977,1.1006,1.1006,1.1006,1.1045,1.1084,1.1123,1.1123,1.1123,1.1152,1.1152,1.1191,1.123,1.123,1.127,1.127,1.127,1.1309,1.1309,1.1309,1.1309,1.1348,1.1348,1.1387,1.1387,1.1387,1.1426,1.1426,1.1465,1.1465,1.1465,1.1465,1.1465,1.1504,1.1504,1.1543,1.1582,1.1582,1.1621,1.1621,1.1621,1.166,1.1748,1.1748,1.1748,1.1748,1.1748,1.1748,1.1787,1.1787,1.1826,1.1826,1.1865,1.1865,1.1865,1.1865,1.1914,1.1914,1.1914,1.1914,1.1953,1.1953,1.1992,1.208,1.208,1.208,1.208,1.208,1.2129,1.2129,1.2129,1.2168,1.2168,1.2217,1.2217,1.2256,1.2305,1.2305,1.2305,1.2305,1.2305,1.2354,1.2393,1.2393,1.2393,1.2393,1.2441,1.249,1.249,1.249,1.249,1.249,1.2539,1.2539,1.2539,1.2588,1.2627,1.2627,1.2676,1.2676,1.2725,1.2725,1.2725,1.2725,1.2773,1.2822,1.2871,1.2871,1.2871,1.292,1.292,1.292,1.292,1.292,1.292,1.292,1.2979,1.2979,1.2979,1.3027,1.3027,1.3076,1.3076,1.3125,1.3125,1.3125,1.3125,1.3184,1.3184,1.3232,1.3232,1.3232,1.3281,1.3281,1.3281,1.334,1.334,1.334,1.334,1.334,1.334,1.3389,1.3389,1.3447,1.3496,1.3555,1.3555,1.3604,1.3662,1.3721,1.3721,1.3721,1.3721,1.3721,1.3779,1.3779,1.3779,1.3779,1.3838,1.3838,1.3838,1.3838,1.3887,1.3838,1.3838,1.3838,1.3887,1.3945,1.4004,1.4004,1.4004,1.4062,1.4121,1.4189,1.4189,1.4189,1.4189,1.4189,1.4248,1.4248,1.4248,1.4248,1.4248,1.4307,1.4307,1.4365,1.4365,1.4434,1.4492,1.4492,1.4492,1.4492,1.4561,1.4561,1.4561,1.4619,1.4619,1.4688,1.4688,1.4746,1.4746,1.4746,1.4814,1.4814,1.4814,1.4883,1.4883,1.4883,1.4941,1.4941,1.4883,1.4883,1.4814,1.4941,1.4883,1.4619,1.4561,1.4619,1.4561,1.4561,1.4375,1.4375,1.4375,1.4307,1.4307,1.4307,1.4189,1.4189,1.4189,1.4131,1.4131,1.4131,1.4131,1.4131,1.4072,1.4014,1.4014,1.4014,1.4014,1.4014,1.3955,1.3896,1.3896,1.3838,1.3838,1.3838,1.3838,1.3838,1.3838,1.3838,1.3779,1.3779,1.3779,1.3779,1.373,1.373,1.373,1.373,1.373,1.373,1.373,1.3672,1.3672,1.373,1.3672,1.3672,1.373,1.373,1.3672,1.3672,1.3672,1.3672,1.3613,1.3613,1.3613,1.3564,1.3613,1.3564,1.3564,1.3564,1.3672,1.3672,1.3672,1.3672,1.3672,1.3672,1.3672,1.3672,1.3672,1.3672,1.3672,1.3672,1.3613,1.3613,1.3564,1.335,1.3291,0,0,1.666,1.666,1.6748,1.666,1.6748,1.6748,1.6748,1.666,1.666,1.666,1.666,1.3398,1.335,1.3242,1.3242,1.3506,1.3506,1.3506,1.3506,1.3457,1.3457,1.3457,1.3457,1.3457,1.335,1.3398,1.3457,1.3516,1.3516,1.3516,1.3516,1.3516,1.3516,1.3457,1.335,1.3408,1.3408,1.3408,1.3408,1.3408,1.3457,1.3457,1.3457,1.3457,1.3408,1.335,1.3408,1.3408,1.3457,1.3408,1.3408,1.3408,1.3408,1.335,1.3301,1.3301,1.3301,1.3301,1.3301,1.3301,1.3301,1.3242,1.3242,1.335,1.335,1.335,1.335,1.3301,1.3301,1.3301,1.3301,1.3252,1.3252,1.3252,1.3252,1.3252,1.3252,1.3301,1.3301,1.3301,1.3252,1.3193,1.3193,1.4023,1.4023,1.4023,1.4023,1.4023,1.4023,1.4023,1.4023,1.4023,1.4023,1.4023,1.3965,1.4023,1.4023,1.4023,1.3965,1.3965,1.3965,1.3965,1.3965,1.3965,1.3906,1.3906,1.3906,1.3906,1.3906,1.3906,1.3848,1.3848,1.3848,1.3848,1.3848,1.3906,1.3848,1.3848,1.3848,1.3799,1.3799,1.374,1.374,1.374,1.374,1.374,0,1.5303,1.5371,1.5371,1.5303,1.5303,1.5303,1.5303,1.5234,1.5234,1.5234,1.5166,1.5166,0,0,0,0,0,0,0,0,0,0,0,0,0,0,0,0,0,0,0,0,0,0,0,0,0,0,0,0
1.0791,1.0791,1.0762,1.0723,1.0723,1.0723,1.0723,1.0723,1.0723,1.0723,1.0723,1.0723,1.0762,1.0791,1.0791,1.083,1.083,1.083,1.083,1.0869,1.0869,1.0898,1.0938,1.0938,1.0977,1.0938,1.0977,1.0977,1.0977,1.0977,1.1006,1.1006,1.1045,1.1084,1.1123,1.1123,1.1152,1.1152,1.1152,1.1191,1.123,1.123,1.127,1.127,1.127,1.1309,1.1309,1.1309,1.1309,1.1348,1.1348,1.1387,1.1426,1.1426,1.1426,1.1426,1.1465,1.1465,1.1465,1.1465,1.1465,1.1504,1.1504,1.1543,1.1582,1.1621,1.1621,1.1621,1.166,1.1699,1.1748,1.1748,1.1748,1.1748,1.1748,1.1748,1.1787,1.1787,1.1826,1.1865,1.1865,1.1865,1.1865,1.1914,1.1914,1.1914,1.1914,1.1953,1.1953,1.1953,1.1953,1.1992,1.208,1.208,1.208,1.2129,1.2129,1.2129,1.2129,1.2168,1.2217,1.2217,1.2217,1.2266,1.2266,1.2305,1.2305,1.2305,1.2305,1.2354,1.2393,1.2393,1.2393,1.2402,1.2441,1.249,1.249,1.249,1.249,1.249,1.2539,1.2539,1.2539,1.2588,1.2627,1.2627,1.2676,1.2676,1.2725,1.2725,1.2725,1.2773,1.2773,1.2822,1.2871,1.2871,1.292,1.292,1.2871,1.292,1.293,1.293,1.293,1.293,1.2979,1.2979,1.2979,1.3027,1.3076,1.3076,1.3125,1.3125,1.3125,1.3125,1.3125,1.3184,1.3232,1.3232,1.3281,1.3281,1.3281,1.334,1.334,1.334,1.334,1.334,1.334,1.334,1.3389,1.3389,1.3389,1.3447,1.3496,1.3555,1.3604,1.3613,1.3662,1.3662,1.3721,1.3721,1.3721,1.3721,1.3779,1.3779,1.3779,1.3838,1.3838,1.3838,1.3838,1.3838,1.3887,1.3887,1.3887,1.3838,1.3896,1.3945,1.4004,1.4004,1.4062,1.4062,1.4131,1.4189,1.4131,1.4189,1.4189,1.4189,1.4248,1.4248,1.4248,1.4248,1.4307,1.4307,1.4307,1.4365,1.4365,1.4434,1.4492,1.4492,1.4492,1.4492,1.4561,1.4561,1.4561,1.4561,1.4619,1.4688,1.4688,1.4746,1.4746,1.4746,1.4746,1.4814,1.4814,1.4883,1.4883,1.4951,1.4951,1.4951,1.4951,1.4951,1.4883,1.4951,1.4688,1.4619,1.4492,1.4492,1.4434,1.4375,1.4375,1.4375,1.4307,1.4307,1.4307,1.4307,1.4189,1.4189,1.4189,1.4131,1.4131,1.4131,1.4131,1.4131,1.4072,1.4072,1.4072,1.4072,1.4014,1.4014,1.3955,1.3896,1.3896,1.3838,1.3838,1.3838,1.3838,1.3838,1.3779,1.3838,1.3838,1.3779,1.3779,1.3779,1.3779,1.373,1.3779,1.373,1.373,1.373,1.373,1.3672,1.3672,1.3672,1.3672,1.3672,1.3672,1.3672,1.3672,1.3672,1.3613,1.3613,1.3613,1.3613,1.3613,1.3613,1.3564,1.3564,1.3564,1.3613,1.3672,1.3613,1.3623,1.3672,1.3672,1.3623,1.3564,1.3564,1.3564,1.3564,1.3506,1.3564,1.3506,1.3506,1.335,1.335,1.3291,1.3291,0,0,1.666,1.666,1.6494,1.6494,1.666,1.666,1.666,1.6582,1.666,1.3398,1.3301,1.3301,1.3242,1.3242,0,1.3457,1.3457,1.3457,1.3457,1.3457,1.3457,1.3398,1.335,1.3301,1.335,1.3457,1.3516,1.3516,1.3516,1.3516,1.3516,1.3516,1.3457,1.335,1.3408,1.3408,1.335,1.335,1.3408,1.3408,1.3457,1.3408,1.3408,1.335,1.3301,1.335,1.335,1.3408,1.3457,1.3408,1.3408,1.335,1.335,1.3301,1.3301,1.3301,1.3301,1.3301,1.3301,1.3242,1.3242,1.3252,1.3301,1.3301,1.335,1.3301,1.3301,1.3301,1.3301,1.3301,1.3252,1.3252,1.3252,1.3301,1.3252,1.3252,1.3252,1.3301,1.3252,1.3252,1.3145,1.3145,1.4082,1.4082,1.4082,1.4023,1.4023,1.4023,1.4023,1.4023,1.4023,1.4023,1.3965,1.3965,1.4023,1.4023,1.4023,1.4023,1.3965,1.3965,1.3965,1.3965,1.3965,1.3965,1.3906,1.3906,1.3906,1.3906,1.3848,1.3848,1.3848,1.3848,1.3848,1.3848,1.3906,1.3906,1.3848,1.3848,1.3848,1.3799,1.3799,1.374,1.3799,1.374,1.3799,0,1.5303,1.5303,1.5303,1.5303,1.5303,1.5303,1.5303,1.5234,1.5234,1.5166,1.5166,1.5166,0,0,0,0,0,0,0,0,0,0,0,0,0,0,0,0,0,0,0,0,0,0,0,0,0,0,0,0
1.0762,1.0762,1.0762,1.0723,1.0693,1.0693,1.0723,1.0723,1.0693,1.0762,1.0762,1.0762,1.0762,1.0801,1.0801,1.083,1.083,1.083,1.0869,1.0869,1.0898,1.0898,1.0938,1.0938,1.0938,1.0977,1.0977,1.0977,1.0977,1.0977,1.1006,1.1006,1.1045,1.1084,1.1123,1.1123,1.1152,1.1152,1.1152,1.1191,1.1191,1.123,1.127,1.127,1.127,1.1309,1.1309,1.1309,1.1348,1.1348,1.1387,1.1387,1.1387,1.1387,1.1426,1.1426,1.1465,1.1465,1.1465,1.1465,1.1465,1.1504,1.1543,1.1543,1.1582,1.1621,1.1621,1.1621,1.166,1.1699,1.1699,1.1748,1.1748,1.1699,1.1748,1.1748,1.1787,1.1826,1.1865,1.1865,1.1865,1.1865,1.1865,1.1865,1.1914,1.1914,1.1914,1.1953,1.1953,1.1953,1.1953,1.2002,1.208,1.208,1.2129,1.2129,1.2129,1.2129,1.2129,1.2168,1.2217,1.2217,1.2217,1.2266,1.2266,1.2305,1.2305,1.2305,1.2305,1.2354,1.2354,1.2441,1.2441,1.2441,1.2441,1.249,1.249,1.249,1.249,1.249,1.2539,1.2539,1.2539,1.2588,1.2637,1.2637,1.2676,1.2676,1.2725,1.2725,1.2725,1.2773,1.2773,1.2773,1.2871,1.2871,1.293,1.293,1.293,1.293,1.293,1.293,1.293,1.2979,1.2979,1.2979,1.2979,1.3076,1.3076,1.3076,1.3125,1.3125,1.3184,1.3125,1.3125,1.3184,1.3232,1.3281,1.3281,1.3281,1.334,1.334,1.334,1.334,1.334,1.3389,1.334,1.3389,1.3389,1.3389,1.3447,1.3447,1.3496,1.3555,1.3555,1.3613,1.3613,1.3662,1.3662,1.3721,1.3721,1.3721,1.3779,1.3779,1.3779,1.3779,1.3838,1.3838,1.3838,1.3838,1.3838,1.3838,1.3896,1.3896,1.3945,1.3945,1.4004,1.4062,1.4062,1.4062,1.4131,1.4189,1.4189,1.4189,1.4189,1.4189,1.4248,1.4248,1.4248,1.4248,1.4307,1.4307,1.4307,1.4365,1.4434,1.4492,1.4492,1.4492,1.4492,1.4492,1.4561,1.4561,1.4561,1.4619,1.4619,1.4688,1.4688,1.4688,1.4746,1.4746,1.4746,1.4814,1.4814,1.4883,1.4883,1.4951,1.4951,1.502,1.4951,1.502,1.502,1.502,1.4688,1.4492,1.4434,1.4434,1.4375,1.4375,1.4375,1.4375,1.4307,1.4307,1.4375,1.4307,1.4248,1.4189,1.4189,1.4131,1.4131,1.4131,1.4131,1.4131,1.4131,1.4072,1.4072,1.4072,1.4014,1.4014,1.3955,1.3896,1.3896,1.3896,1.3896,1.3896,1.3838,1.3838,1.3779,1.3779,1.3838,1.3779,1.3789,1.3789,1.3789,1.373,1.3789,1.373,1.373,1.373,1.373,1.3672,1.3672,1.3672,1.3672,1.3672,1.3672,1.3672,1.3672,1.3613,1.3613,1.3613,1.3613,1.3564,1.3623,1.3564,1.3564,1.3564,1.3506,1.3506,1.3623,1.3623,1.3564,1.3564,1.3564,1.3564,1.3506,1.3506,1.3506,1.3506,1.3457,1.3457,1.3301,1.335,1.335,1.335,1.335,1.3301,1.3301,1.3301,0,0,0,1.6494,1.6494,1.3506,1.3506,1.3506,1.3398,1.335,1.3301,1.3301,1.3301,1.3301,0,1.3408,1.335,1.3301,1.335,1.335,1.335,1.335,1.3301,1.3301,1.3301,1.3301,1.3457,1.3516,1.3516,1.3516,1.3516,1.3457,1.3408,1.3301,1.335,1.335,1.335,1.3301,1.3301,1.3301,1.3301,1.335,1.335,1.3301,1.3301,1.3301,1.335,1.3408,1.3408,1.3408,1.335,1.335,1.335,1.335,1.335,1.3301,1.3301,1.3301,1.3301,1.3252,1.3252,1.3252,1.3252,1.3252,1.3301,1.3301,1.3301,1.3301,1.3301,1.3252,1.3252,1.3252,1.3252,1.3252,1.3252,1.3252,1.3252,1.3252,1.3301,1.3252,1.3145,1.3145,1.4082,1.4082,1.4082,1.4023,1.4023,1.4023,1.4023,1.4023,1.4023,1.4023,1.4023,1.3965,1.4023,1.4023,1.4023,1.4023,1.4023,1.3965,1.3965,1.3965,1.3965,1.3906,1.3906,1.3906,1.3848,1.3848,1.3848,1.3848,1.3799,1.3848,1.3799,1.3799,1.3848,1.3848,1.3848,1.3848,1.3799,1.3799,1.3799,1.3799,1.374,1.374,1.374,0,1.5303,1.5303,1.5303,1.5303,1.5303,1.5303,1.5234,1.5234,1.5166,1.5166,1.5166,1.5166,0,0,0,0,0,0,0,0,0,0,0,0,0,0,0,0,0,0,0,0,0,0,0,0,0,0,0,0
1.0762,1.0762,1.0762,1.0723,1.0693,1.0693,1.0723,1.0723,1.0723,1.0723,1.0762,1.0762,1.0801,1.0801,1.0801,1.083,1.083,1.083,1.0869,1.0869,1.0898,1.0898,1.0938,1.0938,1.0938,1.0938,1.0977,1.0977,1.0977,1.0977,1.0977,1.1006,1.1006,1.1045,1.1123,1.1152,1.1152,1.1152,1.1152,1.1191,1.1191,1.123,1.127,1.127,1.127,1.1309,1.1309,1.1309,1.1348,1.1387,1.1387,1.1387,1.1387,1.1387,1.1426,1.1426,1.1465,1.1465,1.1465,1.1465,1.1504,1.1543,1.1543,1.1582,1.1582,1.1621,1.1621,1.1621,1.166,1.1699,1.1699,1.1748,1.1748,1.1709,1.1748,1.1748,1.1787,1.1787,1.1826,1.1826,1.1875,1.1875,1.1875,1.1914,1.1914,1.1914,1.1953,1.1953,1.1953,1.1953,1.2002,1.2041,1.208,1.2129,1.208,1.2129,1.2129,1.2129,1.2168,1.2168,1.2217,1.2217,1.2217,1.2266,1.2305,1.2305,1.2305,1.2305,1.2354,1.2354,1.2402,1.2441,1.2441,1.2441,1.249,1.249,1.249,1.2539,1.2539,1.2539,1.2539,1.2539,1.2539,1.2588,1.2637,1.2676,1.2676,1.2686,1.2725,1.2725,1.2725,1.2773,1.2822,1.2822,1.2773,1.2822,1.2881,1.2881,1.293,1.2881,1.293,1.293,1.293,1.2979,1.2979,1.2979,1.2979,1.3027,1.3027,1.3076,1.3076,1.3125,1.3125,1.3125,1.3125,1.3184,1.3232,1.3281,1.3281,1.3281,1.334,1.334,1.334,1.334,1.334,1.334,1.334,1.3389,1.3389,1.3447,1.3496,1.3496,1.3496,1.3555,1.3555,1.3613,1.3613,1.3662,1.3662,1.3721,1.3721,1.3779,1.3779,1.3779,1.3779,1.3838,1.3838,1.3838,1.3838,1.3838,1.3838,1.3838,1.3896,1.3896,1.3955,1.4014,1.4072,1.4072,1.4072,1.4131,1.4189,1.4189,1.4189,1.4189,1.4189,1.4189,1.4248,1.4248,1.4248,1.4248,1.4307,1.4307,1.4307,1.4375,1.4375,1.4434,1.4492,1.4492,1.4492,1.4492,1.4561,1.4561,1.4561,1.4619,1.4619,1.4688,1.4688,1.4688,1.4688,1.4746,1.4746,1.4814,1.4814,1.4883,1.4951,1.4951,1.4951,1.502,1.502,1.502,1.502,1.5088,1.502,1.4951,1.4951,1.4951,1.4434,1.4375,1.4375,1.4375,1.4316,1.4316,1.4316,1.4248,1.4189,1.4189,1.4189,1.4131,1.4131,1.4131,1.4131,1.4131,1.4131,1.4072,1.4072,1.4072,1.4014,1.4014,1.3955,1.3896,1.3955,1.3896,1.3896,1.3838,1.3838,1.3838,1.3838,1.3838,1.3838,1.3838,1.3789,1.3838,1.3789,1.373,1.3789,1.3789,1.3789,1.3789,1.3789,1.373,1.373,1.373,1.373,1.373,1.3672,1.3672,1.3672,1.3623,1.3623,1.3623,1.3564,1.3564,1.3564,1.3457,1.3457,1.3457,1.3506,1.3506,1.3623,1.3564,1.3564,1.3564,1.3506,1.3506,1.3506,1.3457,1.3457,1.3398,1.335,1.3301,1.3301,1.335,1.335,1.335,1.335,1.335,1.3301,1.3301,1.3301,1.335,1.335,1.335,1.3398,1.335,1.335,1.335,1.3408,1.335,1.335,1.3301,1.3242,1.3242,1.3301,1.3301,1.3242,1.3242,1.3242,1.3301,1.3242,1.3301,1.3242,1.3242,1.3242,1.3301,1.3301,1.335,1.335,1.3408,1.3457,1.3408,1.3301,1.3301,1.3301,1.3301,1.3301,1.3301,1.3301,1.3301,1.3301,1.335,1.3301,1.3301,1.3301,1.335,1.335,1.3408,1.3457,1.3408,1.335,1.335,1.335,1.3301,1.3301,1.3301,1.3301,1.3301,1.3301,1.3252,1.3252,1.3252,1.3252,1.3252,1.3301,1.3301,1.3301,1.3301,1.3301,1.3252,1.3252,1.3252,1.3252,1.3252,1.3252,1.3252,1.3252,1.3252,1.3301,1.3252,1.3252,0,1.4082,1.4082,1.4082,1.4023,1.4023,1.4023,1.4023,1.4023,1.4023,1.4023,1.4023,1.4023,1.4023,1.4023,1.4023,1.4023,1.4023,1.3965,1.3965,1.3965,1.3965,1.3906,1.3906,1.3906,1.3906,1.3848,1.3848,1.3848,1.3848,1.3848,1.3848,1.3799,1.3857,1.3857,1.3857,1.3857,1.3799,1.3799,1.3799,1.3799,1.3799,1.3799,0,1.5303,1.5303,1.5303,1.5303,1.5303,1.5303,1.5234,1.5234,1.5234,1.5234,1.5166,1.5166,1.5166,0,0,0,0,0,0,0,0,0,0,0,0,0,0,0,0,0,0,0,0,0,0,0,0,0,0,0,0
1.0762,1.0801,1.0762,1.0723,1.0723,1.0723,1.0723,1.0723,1.0723,1.0723,1.0762,1.0762,1.0801,1.0801,1.0801,1.083,1.083,1.083,1.0869,1.0869,1.0898,1.0898,1.0938,1.0938,1.0938,1.0938,1.0977,1.0977,1.0977,1.0977,1.0977,1.1006,1.1006,1.1084,1.1123,1.1162,1.1162,1.1162,1.1162,1.1191,1.123,1.123,1.127,1.127,1.127,1.1309,1.1309,1.1309,1.1348,1.1348,1.1387,1.1387,1.1387,1.1426,1.1426,1.1426,1.1465,1.1465,1.1465,1.1504,1.1504,1.1543,1.1543,1.1582,1.1582,1.1621,1.1621,1.1621,1.166,1.1709,1.1709,1.1748,1.1748,1.1748,1.1748,1.1748,1.1787,1.1787,1.1826,1.1826,1.1875,1.1875,1.1914,1.1914,1.1914,1.1914,1.1953,1.1953,1.1953,1.2002,1.2002,1.2041,1.209,1.209,1.2129,1.2129,1.2178,1.2178,1.2178,1.2178,1.2217,1.2217,1.2217,1.2305,1.2305,1.2305,1.2305,1.2354,1.2354,1.2354,1.2402,1.2441,1.2441,1.2441,1.249,1.249,1.2539,1.2539,1.2539,1.2539,1.2539,1.2539,1.2588,1.2637,1.2637,1.2686,1.2686,1.2686,1.2725,1.2734,1.2773,1.2822,1.2822,1.2822,1.2881,1.2832,1.2881,1.2881,1.2881,1.293,1.293,1.293,1.293,1.2979,1.2979,1.2979,1.3027,1.3076,1.3076,1.3125,1.3076,1.3125,1.3125,1.3125,1.3125,1.3184,1.3232,1.3281,1.3281,1.334,1.334,1.334,1.334,1.334,1.334,1.334,1.3389,1.3447,1.3447,1.3496,1.3496,1.3496,1.3496,1.3555,1.3613,1.3613,1.3613,1.3662,1.3662,1.3779,1.3721,1.3779,1.3838,1.3779,1.3838,1.3838,1.3838,1.3838,1.3838,1.3838,1.3896,1.3896,1.3896,1.3896,1.3955,1.3955,1.4014,1.4072,1.4072,1.4072,1.4189,1.4189,1.4189,1.4189,1.4189,1.4189,1.4248,1.4248,1.4248,1.4248,1.4307,1.4307,1.4307,1.4375,1.4375,1.4434,1.4434,1.4492,1.4492,1.4492,1.4561,1.4561,1.4561,1.4619,1.4688,1.4688,1.4688,1.4688,1.4756,1.4756,1.4756,1.4814,1.4814,1.4814,1.4814,1.4951,1.4951,1.4951,1.502,1.502,1.502,1.5088,1.5088,1.5088,1.5156,1.5225,1.5225,1.543,1.5498,1.543,1.543,1.543,0,1.4316,1.4189,1.4131,1.4131,1.4131,1.4131,1.4131,1.4131,1.4072,1.4131,1.4072,1.4072,1.4072,1.3955,1.4014,1.3955,1.3896,1.3955,1.3896,1.3896,1.3896,1.3838,1.3838,1.3838,1.3838,1.3838,1.3789,1.3789,1.3838,1.3789,1.3789,1.3789,1.3789,1.3838,1.3838,1.3789,1.3789,1.3789,1.3789,1.3672,1.3672,1.3672,1.3672,1.3623,1.3623,1.3623,1.3564,1.3564,1.3564,1.3457,1.3457,1.3457,1.3457,1.3457,1.3457,1.3564,1.3564,1.3564,1.3506,1.3506,1.3506,1.3457,1.3457,1.3398,1.3398,1.335,1.3301,1.3301,1.3301,1.335,1.335,1.3301,1.3301,1.3301,1.335,1.3301,1.335,1.335,1.335,1.3408,1.3301,1.3301,1.3301,1.3301,1.3301,1.3301,1.3301,1.3242,1.3242,1.3242,1.3242,1.3242,1.3193,1.3242,1.3242,1.3193,1.3242,1.3242,1.3242,1.3193,1.3145,1.3096,1.3145,0,1.3242,1.3301,1.3301,1.3301,1.3301,1.3301,1.3301,1.3301,1.3301,1.3301,1.3301,1.3301,1.3301,1.3252,1.3252,1.3301,1.3301,1.3301,1.335,1.3408,1.335,1.335,1.3301,1.3301,1.3301,1.3301,1.3301,1.3301,1.3301,1.3301,1.3252,1.3252,1.3252,1.3193,1.3193,1.3252,1.3252,1.3301,1.3252,1.3301,1.3252,1.3252,1.3252,1.3252,1.3252,1.3252,1.3252,1.3252,1.3301,1.3301,1.3301,1.3301,1.3359,1.4082,1.4082,1.4082,1.4082,1.4023,1.4082,1.4082,1.4023,1.4023,1.4023,1.4023,1.4023,1.4023,1.4023,1.4023,1.4023,1.4023,1.3965,1.3965,1.3965,1.3965,1.3906,1.3906,1.3906,1.3906,1.3857,1.3857,1.3857,1.3857,1.3857,1.3857,1.3799,1.3857,1.3857,1.3857,1.3857,1.3799,1.3799,1.3799,1.3799,1.3799,1.3799,0,1.5303,1.5303,1.5303,1.5303,1.5303,1.5303,1.5303,1.5234,1.5234,1.5234,1.5166,1.5166,1.5166,0,0,0,0,0,0,0,0,0,0,0,0,0,0,0,0,0,0,0,0,0,0,0,0,0,0,0,0
