1.125,1.125,1.125,1.1279,1.1279,1.1279,1.1318,1.1318,1.1357,1.1357,1.1396,1.1396,1.1436,1.1436,1.1436,1.1475,1.1475,1.1475,1.1514,1.1514,1.1562,1.1562,1.1602,1.1602,1.1641,1.1602,1.1641,1.1719,1.1719,1.1719,1.1719,1.1719,1.1719,1.1758,1.1807,1.1846,1.1846,1.1846,1.1885,1.1885,1.1885,1.1885,1.1934,1.1934,1.1973,1.1973,1.1973,1.1973,1.2012,1.2012,1.2061,1.2061,1.2061,1.21,1.21,1.21,1.21,1.21,1.2148,1.2148,1.2188,1.2236,1.2236,1.2236,1.2236,1.2236,1.2285,1.2285,1.2285,1.2285,1.2373,1.2373,1.2422,1.2422,1.2461,1.2461,1.2461,1.251,1.251,1.251,1.251,1.2559,1.2559,1.2559,1.2559,1.2607,1.2607,1.2607,1.2607,1.2656,1.2705,1.2705,1.2705,1.2705,1.2754,1.2754,1.2754,1.2852,1.2852,1.2852,1.2852,1.2852,1.29,1.29,1.29,1.2949,0,1.3047,1.3047,1.3047,1.3105,1.3047,1.3047,1.3105,1.3105,1.3105,1.3262,1.3203,1.3203,1.3262,1.3262,1.3262,1.3262,1.3262,1.3311,1.3311,1.3311,1.3311,1.3359,1.3359,1.3359,1.3418,1.3477,1.3477,1.3525,1.3525,1.3525,1.3525,1.3525,1.3525,1.3584,1.3584,1.3584,1.3691,1.375,1.375,1.375,1.375,1.3809,1.3809,1.3867,1.3809,1.3867,1.3867,1.3926,1.3926,1.3867,1.3926,1.3926,1.4043,1.4043,1.4043,1.4043,1.4102,1.4102,1.4102,1.4102,1.416,1.416,1.416,1.4219,1.4219,1.4277,1.4277,1.4277,1.4277,1.4336,1.4336,1.4404,1.4404,1.4404,1.4463,1.4463,1.4531,1.4531,1.4531,1.4531,1.4531,1.4531,1.459,1.459,1.4531,1.459,1.4658,1.4658,1.4658,1.4658,1.4717,1.4717,1.4785,1.4785,1.4785,1.4854,1.4854,1.4922,1.4922,1.4922,1.498,1.5049,1.3809,1.375,1.375,1.375,1.375,1.3701,1.3701,1.3643,1.3643,1.3584,1.3584,1.3584,1.3584,1.3584,1.3584,1.3584,1.3584,1.3584,1.3643,1.3643,1.3584,1.3584,1.3584,1.3584,1.3584,1.3584,1.3584,1.3584,1.3584,1.3584,1.3584,1.3594,1.3594,1.3594,1.3594,1.3594,1.3535,1.3594,1.3594,1.3594,1.3594,1.3594,1.3535,1.3594,1.3535,1.3535,1.3535,1.3535,1.3477,1.3477,1.3477,1.3477,1.3477,1.3477,1.3428,1.3428,1.3428,1.3428,1.3369,1.3369,1.3369,1.3369,1.3369,1.3369,1.332,0,0,1.6221,1.6221,1.6299,1.6299,1.6299,1.6299,1.6387,1.6387,1.6387,1.6387,1.6387,1.6387,1.6387,1.6387,1.6309,1.6309,1.332,1.332,1.3271,1.332,1.332,1.332,1.3271,1.3271,1.3271,1.3271,1.3223,1.3164,1.3164,1.3223,1.3223,1.3164,1.3164,1.3115,1.3066,1.3066,1.3066,1.3066,1.3066,1.3066,1.3066,1.3066,1.3066,1.3066,1.3018,1.3018,1.3018,1.3018,1.3018,1.3066,1.3066,1.3018,1.3018,1.3018,1.3018,1.3018,1.3018,1.3018,1.2969,1.2969,1.3018,1.3018,1.2969,1.3018,1.3018,1.3018,1.3066,1.3066,1.3018,1.3018,1.3115,1.3066,1.3066,1.3018,1.3018,1.3018,1.3018,1.2969,1.2969,1.2969,1.2969,1.2969,1.2969,1.2861,1.2812,0,1.3877,1.3936,1.3818,1.3818,1.3818,1.3818,1.376,1.377,1.377,1.377,1.377,1.377,1.377,1.377,1.377,1.377,1.377,1.3711,1.377,1.377,1.3711,1.377,1.377,1.377,1.377,1.377,1.377,1.3711,1.3711,1.3711,1.3711,1.3652,1.3652,1.3711,1.3652,1.3652,1.3652,1.3604,1.3604,1.3604,1.3604,1.3604,1.3604,1.3604,1.3545,1.3604,1.3545,1.3604,0,1.5273,1.5273,1.5273,1.5205,1.5205,1.5205,1.5205,1.5273,1.5205,1.5205,1.5205,1.5205,1.5205,1.5205,1.5205,1.5205,1.5137,1.5068,1.5068,1.5137,1.5137,1.5137,1.5068,1.5068,1.5,1.5,1.5,1.5,1.5,1.5,1.5,1.5,1.5,1.4932,1.4932,1.4873,1.4805,1.4805,1.4736,1.4678,0,0,0,0,0,0,0,0,0,0,0,0,0,0,0,0,0,0,0,0,0,0,0,0,0,0,0,0,0,0
1.125,1.125,1.1289,1.1289,1.1289,1.1318,1.1318,1.1357,1.1357,1.1357,1.1396,1.1396,1.1436,1.1436,1.1475,1.1475,1.1475,1.1514,1.1514,1.1562,1.1562,1.1562,1.1602,1.1602,1.1602,1.1641,1.168,1.1719,1.1719,1.1719,1.1719,1.1719,1.1719,1.1758,1.1807,1.1846,1.1846,1.1885,1.1885,1.1885,1.1885,1.1885,1.1885,1.1885,1.1973,1.1973,1.1973,1.1973,1.2012,1.2012,1.2061,1.2061,1.2061,1.21,1.21,1.21,1.21,1.2148,1.2148,1.2148,1.2188,1.2236,1.2236,1.2285,1.2236,1.2285,1.2285,1.2285,1.2285,1.2285,1.2422,1.2422,1.2422,1.2461,1.2461,1.2461,1.2461,1.251,1.2559,1.251,1.251,1.2559,1.2559,1.2559,1.2559,1.2559,1.2607,1.2607,1.2607,1.2656,1.2705,1.2705,1.2705,1.2705,1.2754,1.2754,1.2803,1.2852,1.2852,1.2852,1.2852,1.2852,1.29,1.29,1.2949,1.2949,0,1.3047,1.2998,1.3047,1.3105,1.3047,1.3047,1.3105,1.3105,1.3154,1.3203,1.3154,1.3203,1.3203,1.3262,1.3262,1.3262,1.3262,1.3311,1.3311,1.3311,1.3369,1.3369,1.3418,1.3418,1.3477,1.3477,1.3477,1.3525,1.3525,1.3525,1.3525,1.3525,1.3525,1.3525,1.3584,1.3584,1.3643,1.3691,1.375,1.375,1.375,1.3809,1.3809,1.3809,1.3809,1.3867,1.3867,1.3926,1.3926,1.3867,1.3926,1.3984,1.4043,1.4043,1.4043,1.4043,1.4102,1.4102,1.4102,1.4102,1.416,1.416,1.416,1.4219,1.4219,1.4277,1.4277,1.4336,1.4336,1.4404,1.4404,1.4404,1.4404,1.4404,1.4463,1.4463,1.4531,1.4531,1.459,1.459,1.459,1.459,1.459,1.459,1.4531,1.459,1.4658,1.4658,1.4658,1.4658,1.4717,1.4717,1.4785,1.4785,1.4785,1.4854,1.4854,1.4922,1.4922,1.4922,1.498,1.498,1.3809,1.3809,1.3809,1.375,1.375,1.3701,1.3701,1.3643,1.3643,1.3584,1.3584,1.3584,1.3584,1.3584,1.3584,1.3584,1.3584,1.3584,1.3643,1.3643,1.3643,1.3584,1.3584,1.3584,1.3594,1.3594,1.3594,1.3594,1.3594,1.3594,1.3594,1.3594,1.3594,1.3594,1.3594,1.3594,1.3535,1.3594,1.3594,1.3594,1.3535,1.3594,1.3535,1.3535,1.3535,1.3535,1.3535,1.3535,1.3477,1.3477,1.3477,1.3477,1.3477,1.3477,1.3428,1.3428,1.3428,1.3428,1.3369,1.3379,1.3379,1.3379,1.3379,1.332,1.332,0,0,1.6221,1.6299,1.6299,1.6309,1.6309,1.6309,1.6387,1.6387,1.6465,1.6387,1.6387,1.6387,1.6387,1.6309,1.6387,1.6309,1.332,1.332,1.3271,1.332,1.332,1.332,1.3271,1.3271,1.3271,1.3223,1.3223,1.3164,1.3164,1.3164,1.3164,1.3164,1.3164,1.3066,1.3066,1.3066,1.3066,1.3066,1.3066,1.3066,1.3066,1.3115,1.3115,1.3066,1.3066,1.3018,1.3018,1.3018,1.3066,1.3066,1.3066,1.3018,1.3018,1.3018,1.3018,1.3018,1.3018,1.3018,1.3018,1.3018,1.3018,1.3018,1.3018,1.3018,1.3018,1.3018,1.3018,1.3066,1.3018,1.3018,1.3066,1.3066,1.3018,1.3018,1.3018,1.3018,1.3018,1.2969,1.292,1.292,1.292,1.2969,1.2969,1.292,1.2725,1.2725,0,1.3936,1.377,1.3818,1.3818,1.3818,1.377,1.377,1.377,1.3818,1.3818,1.377,1.3818,1.377,1.377,1.377,1.377,1.377,1.377,1.377,1.3711,1.377,1.377,1.377,1.377,1.377,1.377,1.3711,1.3711,1.3711,1.3711,1.3652,1.3652,1.3711,1.3711,1.3652,1.3652,1.3652,1.3604,1.3604,1.3604,1.3545,1.3604,1.3604,1.3545,1.3545,1.3545,0,1.5342,1.5273,1.5273,1.5273,1.5273,1.5205,1.5273,1.5273,1.5273,1.5205,1.5205,1.5205,1.5205,1.5273,1.5205,1.5205,1.5205,1.5137,1.5137,1.5068,1.5137,1.5137,1.5068,1.5068,1.5068,1.5,1.5,1.5,1.5,1.5,1.5,1.4932,1.4932,1.4932,1.4932,1.4932,1.4805,1.4873,1.4736,1.4736,1.4736,1.4736,1.4805,0,0,0,0,0,0,0,0,0,0,0,0,0,0,0,0,0,0,0,0,0,0,0,0,0,0,0,0
1.125,1.125,1.1289,1.1289,1.1289,1.1318,1.1357,1.1357,1.1357,1.1357,1.1396,1.1396,1.1436,1.1436,1.1475,1.1475,1.1523,1.1523,1.1523,1.1523,1.1562,1.1562,1.1602,1.1602,1.1602,1.1602,1.168,1.1719,1.1719,1.1719,1.1719,1.1719,1.1719,1.1758,1.1807,1.1807,1.1846,1.1885,1.1885,1.1885,1.1885,1.1885,1.1885,1.1934,1.1973,1.1973,1.1973,1.1973,1.1973,1.2021,1.2061,1.2061,1.2061,1.21,1.21,1.21,1.2148,1.2148,1.2148,1.2197,1.2236,1.2236,1.2236,1.2285,1.2285,1.2285,1.2285,1.2285,1.2285,1.2324,1.2422,1.2422,1.2422,1.2471,1.2471,1.251,1.2471,1.251,1.2559,1.251,1.251,1.2559,1.2559,1.2607,1.2559,1.2559,1.2607,1.2607,1.2607,1.2607,1.2705,1.2705,1.2705,1.2754,1.2803,1.2803,1.2803,1.2852,1.2852,1.2852,1.2852,1.29,1.29,1.29,1.2949,1.2949,0,1.3047,1.3047,1.3047,1.3105,1.3047,1.3105,1.3105,1.3154,1.3154,1.3203,1.3203,1.3262,1.3262,1.3262,1.3262,1.3262,1.3311,1.3311,1.3311,1.3311,1.3369,1.3369,1.3418,1.3418,1.3477,1.3477,1.3477,1.3525,1.3525,1.3525,1.3525,1.3525,1.3525,1.3525,1.3525,1.3584,1.3643,1.3691,1.3691,1.3691,1.375,1.375,1.3809,1.3809,1.3809,1.3809,1.3867,1.3926,1.3926,1.3926,1.3926,1.3984,1.4043,1.4043,1.4043,1.4043,1.4102,1.4102,1.4102,1.416,1.416,1.416,1.416,1.4219,1.4219,1.4277,1.4277,1.4346,1.4346,1.4404,1.4404,1.4404,1.4404,1.4404,1.4463,1.4531,1.4531,1.459,1.4531,1.4531,1.459,1.4658,1.459,1.459,1.459,1.459,1.4658,1.4658,1.4658,1.4717,1.4717,1.4717,1.4785,1.4785,1.4785,1.4785,1.4854,1.4854,1.4854,1.4922,1.499,1.499,1.3867,1.3809,1.3809,1.3809,1.376,1.3701,1.3701,1.3643,1.3643,1.3584,1.3584,1.3584,1.3584,1.3584,1.3584,1.3584,1.3594,1.3594,1.3643,1.3643,1.3643,1.3643,1.3643,1.3594,1.3643,1.3643,1.3643,1.3643,1.3643,1.3594,1.3594,1.3594,1.3594,1.3594,1.3594,1.3594,1.3535,1.3535,1.3535,1.3594,1.3594,1.3594,1.3594,1.3594,1.3594,1.3535,1.3594,1.3535,1.3535,1.3428,1.3428,1.3486,1.3486,1.3486,1.3428,1.3428,1.3486,1.3428,1.3428,1.3428,1.3428,1.3379,1.3379,1.332,1.332,0,0,1.6221,1.6221,1.6309,1.6309,1.6309,1.6387,1.6387,1.6387,1.6465,1.6387,1.6387,1.6387,1.6309,1.6309,1.6309,1.6309,1.3271,1.3271,1.3223,1.3271,1.332,1.3271,1.3271,1.3271,1.3223,1.3223,1.3223,1.3164,1.3164,1.3164,1.3164,1.3164,1.3164,1.3115,1.3115,1.3066,1.3066,1.3066,1.3066,1.3115,1.3115,1.3115,1.3115,1.3066,1.3066,1.3066,1.3018,1.3066,1.3066,1.3066,1.3066,1.3018,1.3018,1.3018,1.3018,1.3018,1.3066,1.3018,1.3018,1.2969,1.2969,1.3018,1.3018,1.3018,1.3018,1.3018,1.3066,1.3066,1.3018,1.3018,1.3018,1.3066,1.3018,1.3018,1.3018,1.2969,1.2969,1.2969,1.292,1.292,1.292,1.2969,1.2969,1.3018,1.2725,1.2725,0,1.3818,1.3818,1.3818,1.3818,1.3818,1.3818,1.3818,1.3818,1.3818,1.3818,1.377,1.3818,1.3818,1.377,1.377,1.3711,1.3711,1.3711,1.3711,1.3711,1.377,1.377,1.377,1.377,1.377,1.377,1.3711,1.3711,1.3711,1.3652,1.3652,1.3652,1.3711,1.3652,1.3652,1.3652,1.3652,1.3652,1.3604,1.3604,1.3604,1.3604,1.3604,1.3545,1.3545,1.3545,0,0,1.5273,1.5273,1.5273,1.5273,1.5205,1.5205,1.5273,1.5273,1.5205,1.5205,1.5205,1.5273,1.5273,1.5205,1.5205,1.5205,1.5137,1.5137,1.5068,1.5137,1.5137,1.5068,1.5068,1.5068,1.5068,1.5,1.5,1.5,1.5,1.5,1.5,1.5,1.4932,1.4932,1.4873,1.4805,1.4873,1.4805,1.4736,1.4736,1.4736,1.4736,0,0,0,0,0,0,0,0,0,0,0,0,0,0,0,0,0,0,0,0,0,0,0,0,0,0,0,0
1.125,1.1289,1.1289,1.1289,1.1289,1.1357,1.1357,1.1357,1.1396,1.1396,1.1436,1.1396,1.1436,1.1436,1.1484,1.1484,1.1523,1.1523,1.1523,1.1523,1.1562,1.1562,1.1602,1.1602,1.1602,1.168,1.168,1.1719,1.1719,1.1719,1.1719,1.1768,1.1719,1.1768,1.1807,1.1807,1.1846,1.1885,1.1885,1.1885,1.1885,1.1885,1.1885,1.1934,1.1973,1.1973,1.2021,1.2021,1.2021,1.2021,1.2061,1.2061,1.2061,1.2109,1.2109,1.2109,1.2148,1.2109,1.2148,1.2197,1.2236,1.2236,1.2285,1.2285,1.2285,1.2285,1.2285,1.2285,1.2285,1.2285,1.2422,1.2324,1.2422,1.2471,1.2471,1.2471,1.2471,1.251,1.2559,1.251,1.251,1.2559,1.2559,1.2559,1.2559,1.2559,1.2607,1.2607,1.2656,1.2656,1.2705,1.2705,1.2705,1.2803,1.2852,1.2852,1.2852,1.2852,1.2852,1.29,1.2852,1.29,1.29,1.2949,1.2998,1.2949,1.2998,1.3047,1.3047,1.3057,1.3057,1.3057,1.3057,1.3105,1.3154,1.3154,1.3203,1.3203,1.3262,1.3262,1.3311,1.3311,1.3311,1.3311,1.3311,1.3369,1.3369,1.3369,1.3418,1.3477,1.3477,1.3477,1.3477,1.3525,1.3525,1.3525,1.3525,1.3525,1.3525,1.3525,1.3584,1.3584,1.3584,1.3643,1.3691,1.3691,1.375,1.375,1.3809,1.3809,1.3867,1.3809,1.3809,1.3809,1.3867,1.3926,1.3867,1.3926,1.3926,1.4043,1.4043,1.4043,1.4043,1.4102,1.4102,1.416,1.416,1.416,1.4219,1.416,1.4219,1.4219,1.4277,1.4277,1.4277,1.4346,1.4404,1.4404,1.4404,1.4404,1.4404,1.4463,1.4531,1.4531,1.459,1.4531,1.459,1.459,1.4658,1.459,1.459,1.459,1.4658,1.4658,1.4658,1.4727,1.4727,1.4727,1.4727,1.4785,1.4785,1.4785,1.4785,1.4854,1.4854,1.4854,1.4854,1.4922,1.4922,1.3867,1.3809,1.3809,1.3809,1.376,1.3701,1.3701,1.3643,1.3643,1.3594,1.3594,1.3594,1.3594,1.3594,1.3594,1.3594,1.3594,1.3594,1.3643,1.3643,1.3701,1.3643,1.3643,1.3643,1.3643,1.3643,1.3643,1.3643,1.3643,1.3643,1.3594,1.3594,1.3594,1.3594,1.3594,1.3535,1.3535,1.3535,1.3535,1.3594,1.3594,1.3594,1.3594,1.3594,1.3594,1.3594,1.3594,1.3535,1.3535,1.3486,1.3486,1.3486,1.3486,1.3486,1.3486,1.3486,1.3486,1.3486,1.3486,1.3428,1.3428,1.3428,1.332,1.3271,0,0,1.623,1.623,1.623,1.623,1.6309,1.6309,1.6309,1.6387,1.6387,1.6465,1.6387,1.6387,1.6387,1.6387,1.6309,1.6309,1.623,1.3271,1.3223,1.3271,1.332,1.332,1.332,1.3271,1.3271,1.3223,1.3223,1.3223,1.3164,1.3164,1.3164,1.3164,1.3164,1.3164,1.3164,1.3115,1.3115,1.3115,1.3115,1.3115,1.3115,1.3164,1.3115,1.3115,1.3066,1.3115,1.3115,1.3066,1.3066,1.3066,1.3066,1.3066,1.3066,1.3066,1.3066,1.3066,1.3018,1.3018,1.3018,1.3018,1.3018,1.3018,1.3018,1.3018,1.3018,1.3018,1.3066,1.3066,1.3066,1.3066,1.3018,1.3018,1.3018,1.3018,1.3018,1.3018,1.2969,1.2969,1.2969,1.292,1.292,1.292,1.2969,1.2969,1.3018,1.2773,1.2725,0,1.3877,1.3877,1.3936,1.3877,1.3818,1.3818,1.3818,1.3818,1.3828,1.3828,1.377,1.377,1.377,1.377,1.377,1.3711,1.3711,1.3711,1.3711,1.3711,1.3711,1.377,1.377,1.377,1.377,1.377,1.3711,1.3711,1.3711,1.3711,1.3652,1.3652,1.3711,1.3652,1.3652,1.3652,1.3652,1.3604,1.3604,1.3604,1.3545,1.3604,1.3545,1.3545,1.3545,1.3545,0,1.5342,1.5273,1.5342,1.5273,1.5273,1.5205,1.5205,1.5273,1.5273,1.5273,1.5205,1.5205,1.5273,1.5273,1.5205,1.5205,1.5137,1.5137,1.5137,1.5068,1.5137,1.5137,1.5068,1.5068,1.5068,1.5068,1.5,1.5,1.5,1.5,1.5,1.5,1.5,1.5,1.4941,1.4941,1.4873,1.4873,1.4805,1.4805,1.4736,1.4736,1.4736,0,0,0,0,0,0,0,0,0,0,0,0,0,0,0,0,0,0,0,0,0,0,0,0,0,0,0,0
1.125,1.1289,1.1328,1.1289,1.1289,1.1367,1.1367,1.1367,1.1406,1.1406,1.1445,1.1445,1.1445,1.1445,1.1484,1.1484,1.1523,1.1523,1.1523,1.1562,1.1562,1.1562,1.1602,1.1602,1.1641,1.168,1.168,1.1719,1.1719,1.1719,1.1719,1.1719,1.1768,1.1768,1.1807,1.1807,1.1807,1.1885,1.1885,1.1885,1.1885,1.1885,1.1885,1.1934,1.1934,1.1934,1.1973,1.2021,1.2021,1.2021,1.2061,1.2061,1.2061,1.2109,1.2109,1.2148,1.2148,1.2148,1.2197,1.2197,1.2236,1.2236,1.2236,1.2285,1.2285,1.2285,1.2324,1.2285,1.2285,1.2324,1.2373,1.2334,1.2422,1.2471,1.2471,1.2471,1.2471,1.251,1.251,1.251,1.251,1.2559,1.2559,1.2607,1.2607,1.2607,1.2607,1.2656,1.2656,1.2656,1.2705,1.2705,1.2705,1.2754,1.2803,1.2852,1.2852,1.2852,1.29,1.29,1.29,1.29,1.29,1.2949,1.2998,1.2949,1.2949,1.3057,1.3057,1.3057,1.3105,1.3057,1.3105,1.3105,1.3154,1.3203,1.3262,1.3262,1.3262,1.3311,1.3311,1.3311,1.3311,1.3311,1.3311,1.3369,1.3369,1.3418,1.3418,1.3477,1.3477,1.3477,1.3477,1.3525,1.3525,1.3525,1.3525,1.3525,1.3525,1.3525,1.3584,1.3584,1.3584,1.3691,1.3691,1.375,1.375,1.375,1.3809,1.3867,1.3867,1.3867,1.3809,1.3867,1.3867,1.3926,1.3926,1.3926,1.3984,1.4043,1.4043,1.4043,1.4043,1.4102,1.4102,1.416,1.416,1.416,1.416,1.416,1.4219,1.4219,1.4277,1.4277,1.4346,1.4404,1.4463,1.4463,1.4463,1.4404,1.4463,1.4463,1.4531,1.4531,1.4531,1.4531,1.459,1.459,1.4658,1.4658,1.4658,1.459,1.4658,1.4727,1.4727,1.4727,1.4727,1.4727,1.4785,1.4785,1.4785,1.4785,1.4785,1.4854,1.4854,1.4922,1.4854,1.4854,1.4854,1.3867,1.3867,1.3809,1.3809,1.376,1.3701,1.3643,1.3643,1.3594,1.3594,1.3594,1.3594,1.3594,1.3594,1.3594,1.3594,1.3594,1.3594,1.3643,1.3643,1.3701,1.3643,1.3643,1.3643,1.3643,1.3643,1.3701,1.3643,1.3643,1.3643,1.3643,1.3643,1.3594,1.3594,1.3594,1.3594,1.3594,1.3594,1.3594,1.3594,1.3594,1.3594,1.3594,1.3594,1.3594,1.3535,1.3535,1.3535,1.3535,1.3535,1.3486,1.3486,1.3486,1.3486,1.3486,1.3486,1.3486,1.3486,1.3486,1.3486,1.3428,1.3428,1.332,0,0,0,1.6309,1.623,1.6309,1.6309,1.6309,1.6309,1.6309,1.6387,1.6465,1.6543,1.6465,1.6465,1.6387,1.6387,1.6387,1.6309,1.3223,1.3223,1.3223,1.3271,1.332,1.332,1.332,1.3271,1.3271,1.3223,1.3223,1.3223,1.3223,1.3223,1.3223,1.3164,1.3164,1.3164,1.3223,1.3115,1.3164,1.3115,1.3115,1.3115,1.3115,1.3223,1.3115,1.3066,1.3066,1.3174,1.3115,1.3066,1.3066,1.3066,1.3066,1.3066,1.3066,1.3066,1.3066,1.3066,1.3066,1.3066,1.3066,1.3018,1.3018,1.3018,1.3018,1.3066,1.3018,1.3018,1.3018,1.3066,1.3066,1.3066,1.3018,1.3018,1.3018,1.3018,1.3018,1.2969,1.2969,1.2969,1.2969,1.292,1.292,1.292,1.292,1.292,1.2969,1.2969,1.3936,1.3936,1.3994,1.3994,1.3936,1.3936,1.3877,1.3828,1.3828,1.3877,1.3828,1.3828,1.3828,1.377,1.3828,1.377,1.377,1.3711,1.3711,1.3711,1.3711,1.3711,1.3711,1.377,1.377,1.377,1.377,1.377,1.3711,1.3711,1.3711,1.3652,1.3652,1.3652,1.3711,1.3711,1.3652,1.3711,1.3652,1.3652,1.3604,1.3604,1.3604,1.3604,1.3604,1.3545,1.3545,1.3545,0,0,1.5342,1.5342,1.5273,1.5273,1.5205,1.5273,1.5205,1.5273,1.5205,1.5205,1.5205,1.5205,1.5205,1.5205,1.5205,1.5137,1.5137,1.5137,1.5137,1.5137,1.5137,1.5137,1.5137,1.5068,1.5068,1.5,1.5,1.5,1.5,1.5,1.5,1.4941,1.4941,1.4941,1.4873,1.4805,1.4805,1.4805,1.4805,1.4736,1.4805,1.4736,0,0,0,0,0,0,0,0,0,0,0,0,0,0,0,0,0,0,0,0,0,0,0,0,0,0,0,0
1.1289,1.1328,1.1367,1.1367,1.1367,1.1367,1.1367,1.1406,1.1406,1.1406,1.1406,1.1445,1.1445,1.1445,1.1484,1.1484,1.1523,1.1523,1.1523,1.1562,1.1562,1.1602,1.1641,1.1602,1.168,1.168,1.1719,1.1719,1.1719,1.1719,1.1719,1.1719,1.1719,1.1768,1.1768,1.1807,1.1846,1.1885,1.1934,1.1895,1.1895,1.1934,1.1895,1.1934,1.1934,1.1973,1.1973,1.2021,1.2021,1.2061,1.2061,1.2061,1.2109,1.2109,1.2109,1.2148,1.2148,1.2148,1.2197,1.2197,1.2285,1.2236,1.2236,1.2334,1.2334,1.2334,1.2334,1.2334,1.2334,1.2373,1.2373,1.2373,1.2422,1.2471,1.2471,1.2471,1.2471,1.251,1.2559,1.251,1.252,1.2559,1.2559,1.2607,1.2607,1.2607,1.2656,1.2656,1.2705,1.2705,1.2754,1.2754,1.2754,1.2803,1.2852,1.2852,1.2852,1.29,1.29,1.29,1.29,1.2949,1.2949,1.2949,1.2998,1.2998,1.2998,1.3057,1.3057,1.3057,1.3057,1.3105,1.3105,1.3105,1.3105,1.3203,1.3262,1.3262,1.3262,1.3311,1.3311,1.3311,1.3311,1.3311,1.3311,1.3369,1.3418,1.3418,1.3418,1.3477,1.3477,1.3477,1.3525,1.3525,1.3584,1.3584,1.3525,1.3525,1.3584,1.3643,1.3643,1.3643,1.3643,1.3691,1.3691,1.375,1.375,1.375,1.3867,1.3809,1.3867,1.3809,1.3809,1.3809,1.3867,1.3867,1.3926,1.3926,1.3926,1.4043,1.4043,1.4043,1.4043,1.4043,1.416,1.416,1.416,1.416,1.4219,1.4219,1.4219,1.4219,1.4287,1.4287,1.4346,1.4404,1.4463,1.4463,1.4473,1.4404,1.4473,1.4473,1.4473,1.4531,1.4531,1.4531,1.459,1.459,1.4658,1.4658,1.4658,1.4658,1.4658,1.4658,1.4727,1.4727,1.4727,1.4727,1.4727,1.4785,1.4785,1.4785,1.4785,1.4854,1.4922,1.4922,1.4922,1.4922,1.3809,1.3809,1.3867,1.3818,1.3818,1.376,1.3701,1.3643,1.3643,1.3594,1.3594,1.3594,1.3594,1.3594,1.3594,1.3594,1.3594,1.3594,1.3594,1.3643,1.3643,1.3701,1.3643,1.3643,1.3643,1.3643,1.3643,1.3643,1.3643,1.3643,1.3643,1.3643,1.3643,1.3594,1.3594,1.3594,1.3594,1.3594,1.3594,1.3594,1.3594,1.3594,1.3594,1.3594,1.3594,1.3594,1.3535,1.3535,1.3535,1.3535,1.3535,1.3535,1.3486,1.3486,1.3486,1.3486,1.3486,1.3486,1.3535,1.3535,1.3535,1.3486,1.3535,1.3379,0,0,0,1.6309,1.623,1.623,1.6309,1.6309,1.6309,1.6387,1.6465,1.6465,1.6553,1.6465,1.6465,1.6387,1.6387,1.6387,1.6309,1.3223,1.3223,1.3223,1.3271,1.332,1.332,1.333,1.3271,1.3271,1.3271,1.3223,1.3223,1.3223,1.3223,1.3223,1.3223,1.3223,1.3223,1.3223,1.3223,1.3223,1.3115,1.3115,1.3115,1.3115,1.3115,1.3066,1.3066,1.3066,1.3115,1.3115,1.3066,1.3066,1.3066,1.3066,1.3066,1.3066,1.3066,1.3066,1.3066,1.3066,1.3066,1.3066,1.3066,1.3066,1.3018,1.3018,1.3066,1.3018,1.3018,1.3018,1.3066,1.3066,1.3066,1.3018,1.3018,1.3018,1.3018,1.3018,1.3018,1.2969,1.2969,1.292,1.292,1.292,1.292,1.292,1.292,1.2969,1.2969,1.3936,1.3936,1.3994,1.3936,1.3936,1.3936,1.3936,1.3887,1.3887,1.3877,1.3877,1.3877,1.3828,1.3828,1.3828,1.377,1.377,1.377,1.3711,1.377,1.3711,1.3711,1.377,1.377,1.377,1.377,1.377,1.3711,1.3711,1.3711,1.3711,1.3652,1.3652,1.3662,1.3662,1.3662,1.3662,1.3662,1.3662,1.3662,1.3604,1.3604,1.3545,1.3545,1.3604,1.3604,1.3545,1.3545,0,0,1.5342,1.5342,1.5273,1.5273,1.5205,1.5273,1.5273,1.5273,1.5273,1.5205,1.5205,1.5205,1.5205,1.5205,1.5205,1.5205,1.5205,1.5137,1.5137,1.5137,1.5137,1.5137,1.5068,1.5068,1.5068,1.5,1.5,1.5,1.5,1.501,1.501,1.4941,1.4941,1.4873,1.4873,1.4805,1.4805,1.4805,1.4805,1.4746,1.4746,1.4678,0,0,0,0,0,0,0,0,0,0,0,0,0,0,0,0,0,0,0,0,0,0,0,0,0,0,0,0
1.1289,1.1328,1.1367,1.1367,1.1367,1.1367,1.1367,1.1406,1.1406,1.1406,1.1445,1.1445,1.1445,1.1445,1.1523,1.1484,1.1523,1.1523,1.1523,1.1562,1.1562,1.1602,1.1641,1.168,1.168,1.1719,1.1719,1.1719,1.1719,1.1719,1.1768,1.1768,1.1768,1.1768,1.1807,1.1807,1.1807,1.1895,1.1895,1.1895,1.1895,1.1934,1.1934,1.1934,1.1934,1.1973,1.1973,1.2021,1.2021,1.2061,1.2061,1.2061,1.2109,1.2109,1.2109,1.2148,1.2148,1.2148,1.2197,1.2236,1.2285,1.2285,1.2285,1.2285,1.2285,1.2285,1.2334,1.2334,1.2334,1.2373,1.2373,1.2373,1.2422,1.2471,1.2471,1.2471,1.252,1.252,1.2559,1.252,1.2559,1.2559,1.2559,1.2559,1.2607,1.2607,1.2656,1.2656,1.2656,1.2705,1.2754,1.2754,1.2754,1.2803,1.2803,1.2852,1.2852,1.29,1.29,1.2949,1.29,1.2949,1.2949,1.2998,1.3057,1.3008,1.2949,1.3057,1.3057,1.3057,1.3105,1.3057,1.3105,1.3105,1.3154,1.3213,1.3262,1.3262,1.3262,1.3311,1.3311,1.3311,1.3311,1.3311,1.3369,1.3369,1.3418,1.3418,1.3418,1.3477,1.3477,1.3525,1.3525,1.3584,1.3584,1.3584,1.3584,1.3643,1.3584,1.3643,1.3643,1.3643,1.3643,1.3701,1.375,1.375,1.375,1.3809,1.3867,1.3809,1.3867,1.3809,1.3809,1.3809,1.3867,1.3867,1.3926,1.3926,1.3926,1.4043,1.4043,1.4043,1.4043,1.4102,1.4102,1.416,1.416,1.416,1.4219,1.4219,1.4219,1.4287,1.4287,1.4219,1.4346,1.4287,1.4404,1.4473,1.4473,1.4404,1.4473,1.4473,1.4473,1.4531,1.4531,1.4531,1.4531,1.46,1.46,1.4658,1.4658,1.4658,1.4727,1.4727,1.4727,1.4727,1.4727,1.4727,1.4727,1.4785,1.4785,1.4785,1.4785,1.4854,1.4854,1.4922,1.4922,1.4922,1.3818,1.3867,1.3867,1.3818,1.376,1.376,1.3701,1.3643,1.3643,1.3594,1.3594,1.3594,1.3594,1.3594,1.3594,1.3594,1.3643,1.3594,1.3594,1.3701,1.3701,1.376,1.3701,1.3643,1.3643,1.3643,1.3643,1.3643,1.3643,1.3643,1.3643,1.3652,1.3652,1.3652,1.3594,1.3594,1.3594,1.3594,1.3594,1.3594,1.3594,1.3594,1.3594,1.3594,1.3535,1.3535,1.3535,1.3535,1.3535,1.3535,1.3535,1.3535,1.3486,1.3486,1.3486,1.3486,1.3486,1.3486,1.3535,1.3535,1.3535,1.3428,1.3535,1.3486,1.3486,0,1.623,1.6309,1.623,1.6309,1.6309,1.6309,1.6387,1.6465,1.6465,1.6465,1.6465,1.6465,1.6387,1.6387,1.6387,1.6309,1.6309,1.6553,1.333,1.3223,1.3271,1.333,1.333,1.333,1.333,1.333,1.3271,1.3271,1.3223,1.3271,1.3223,1.3223,1.3223,1.3223,1.3174,1.3223,1.3223,1.3174,1.3115,1.3115,1.3115,1.3174,1.3115,1.3115,1.3066,1.3115,1.3115,1.3115,1.3115,1.3066,1.3066,1.3066,1.3066,1.3066,1.3066,1.3066,1.3115,1.3066,1.3115,1.3066,1.3066,1.3066,1.3066,1.3066,1.3066,1.3018,1.3018,1.3018,1.3066,1.3018,1.3018,1.3018,1.3018,1.3018,1.3018,1.2969,1.2969,1.2969,1.2969,1.292,1.292,1.292,1.292,1.2969,1.292,1.2969,0,1.3936,1.3936,1.3994,1.3994,1.3994,1.3936,1.3936,1.3887,1.3936,1.3828,1.3828,1.3828,1.3828,1.3828,1.3828,1.377,1.377,1.377,1.377,1.377,1.3711,1.377,1.377,1.377,1.377,1.377,1.3711,1.3711,1.3711,1.3711,1.3711,1.3711,1.3711,1.3711,1.3711,1.3662,1.3662,1.3662,1.3662,1.3662,1.3604,1.3604,1.3545,1.3545,1.3604,1.3604,1.3545,1.3545,0,0,1.5273,1.5273,1.5273,1.5273,1.5273,1.5273,1.5273,1.5273,1.5273,1.5273,1.5205,1.5205,1.5205,1.5205,1.5205,1.5205,1.5205,1.5205,1.5137,1.5137,1.5137,1.5137,1.5068,1.5068,1.5068,1.5068,1.501,1.501,1.501,1.501,1.501,1.4941,1.4873,1.4873,1.4873,1.4805,1.4805,1.4805,1.4805,1.4746,1.4746,1.4678,0,0,0,0,0,0,0,0,0,0,0,0,0,0,0,0,0,0,0,0,0,0,0,0,0,0,0,0
1.1289,1.1328,1.1328,1.1367,1.1367,1.1367,1.1367,1.1406,1.1406,1.1406,1.1406,1.1406,1.1445,1.1445,1.1523,1.1523,1.1523,1.1523,1.1523,1.1602,1.1602,1.1602,1.1641,1.168,1.1729,1.1729,1.1729,1.1729,1.1768,1.1768,1.1768,1.1768,1.1768,1.1768,1.1807,1.1807,1.1846,1.1895,1.1895,1.1895,1.1934,1.1934,1.1934,1.1934,1.1973,1.2021,1.2021,1.2061,1.2061,1.2061,1.2061,1.2061,1.2109,1.2109,1.2148,1.2197,1.2197,1.2197,1.2236,1.2236,1.2285,1.2285,1.2285,1.2285,1.2285,1.2334,1.2334,1.2334,1.2334,1.2373,1.2422,1.2373,1.2422,1.2471,1.2471,1.252,1.252,1.252,1.2559,1.252,1.2559,1.2559,1.2607,1.2607,1.2656,1.2656,1.2705,1.2705,1.2705,1.2754,1.2803,1.2803,1.2803,1.2852,1.2852,1.2852,1.2852,1.29,1.29,1.2949,1.2949,1.2949,1.3008,1.3008,1.3057,1.3008,1.3008,1.3008,1.3008,1.3057,1.3057,1.3105,1.3105,1.3105,1.3154,1.3213,1.3262,1.3262,1.3311,1.3311,1.3311,1.3311,1.3311,1.3369,1.3369,1.3369,1.3418,1.3418,1.3477,1.3477,1.3525,1.3525,1.3525,1.3584,1.3584,1.3584,1.3584,1.3643,1.3643,1.3643,1.3701,1.3643,1.3643,1.3701,1.375,1.375,1.375,1.3809,1.3809,1.3809,1.3867,1.3809,1.3809,1.3809,1.3867,1.3867,1.3926,1.3926,1.3926,1.4043,1.4043,1.4043,1.4043,1.4043,1.4102,1.416,1.416,1.4219,1.4219,1.4219,1.4219,1.4287,1.4287,1.4346,1.4346,1.4346,1.4404,1.4473,1.4473,1.4473,1.4473,1.4473,1.4531,1.4531,1.4531,1.4531,1.4531,1.46,1.46,1.4658,1.4658,1.4658,1.4727,1.4727,1.4727,1.4727,1.4727,1.4727,1.4727,1.4795,1.4795,1.4795,1.4795,1.4785,1.4854,1.4922,1.499,0,1.3818,1.3818,1.3867,1.3818,1.376,1.3701,1.3701,1.3643,1.3594,1.3594,1.3594,1.3594,1.3594,1.3594,1.3594,1.3594,1.3594,1.3594,1.3643,1.3701,1.3701,1.3701,1.3701,1.3652,1.3652,1.3652,1.3652,1.3652,1.3701,1.3652,1.3652,1.3652,1.3652,1.3652,1.3594,1.3594,1.3594,1.3594,1.3652,1.3594,1.3594,1.3594,1.3594,1.3594,1.3594,1.3594,1.3535,1.3535,1.3486,1.3535,1.3535,1.3535,1.3486,1.3486,1.3428,1.3486,1.3486,1.3486,1.3535,1.3535,1.3535,1.3486,1.3545,1.3545,1.3545,0,1.623,1.6309,1.6309,1.6309,1.6387,1.6387,1.6387,1.6465,1.6465,1.6465,1.6465,1.6387,1.6387,1.6387,1.6309,1.6309,1.6553,0,0,1.3271,1.3271,1.333,1.333,1.333,1.3271,1.3271,1.3271,1.3271,1.3271,1.3271,1.3271,1.3223,1.3223,1.3223,1.3174,1.3174,1.3223,1.3174,1.3115,1.3115,1.3115,1.3115,1.3115,1.3174,1.3174,1.3174,1.3115,1.3115,1.3115,1.3115,1.3115,1.3115,1.3066,1.3066,1.3066,1.3066,1.3125,1.3066,1.3066,1.3066,1.3125,1.3125,1.3066,1.3066,1.3066,1.3018,1.3018,1.3018,1.3018,1.3018,1.3018,1.3018,1.2969,1.2969,1.3018,1.2969,1.2969,1.2969,1.292,1.292,1.2969,1.2969,1.2969,1.2969,1.292,1.3066,1.3066,1.3936,1.3936,1.3945,1.3994,1.3994,1.3945,1.3945,1.3945,1.3945,1.3828,1.377,1.377,1.377,1.377,1.3828,1.377,1.377,1.377,1.377,1.377,1.3711,1.377,1.377,1.377,1.3711,1.3711,1.3711,1.3711,1.3711,1.3711,1.3711,1.3662,1.3711,1.3711,1.3662,1.3662,1.3662,1.3662,1.3662,1.3662,1.3604,1.3545,1.3545,1.3545,1.3604,1.3604,1.3545,1.3545,0,1.5273,1.5273,1.5352,1.5273,1.5273,1.5205,1.5273,1.5273,1.5273,1.5273,1.5273,1.5205,1.5273,1.5273,1.5205,1.5205,1.5205,1.5205,1.5205,1.5137,1.5137,1.5137,1.5137,1.5068,1.5068,1.5068,1.5068,1.5078,1.501,1.501,1.501,1.501,1.4941,1.4873,1.4873,1.4805,1.4805,1.4805,1.4805,1.4805,1.4746,1.4805,1.4746,0,0,0,0,0,0,0,0,0,0,0,0,0,0,0,0,0,0,0,0,0,0,0,0,0,0,0,0
1.1289,1.1328,1.1328,1.1367,1.1367,1.1367,1.1367,1.1406,1.1406,1.1406,1.1445,1.1406,1.1445,1.1445,1.1523,1.1523,1.1562,1.1523,1.1562,1.1602,1.1602,1.1641,1.1641,1.1729,1.1729,1.1768,1.1729,1.1768,1.1768,1.1768,1.1768,1.1768,1.1768,1.1807,1.1807,1.1846,1.1895,1.1934,1.1934,1.1934,1.1934,1.1934,1.1934,1.1934,1.1973,1.2021,1.2021,1.2061,1.2061,1.2061,1.2061,1.2109,1.2109,1.2109,1.2148,1.2148,1.2197,1.2197,1.2236,1.2236,1.2285,1.2285,1.2285,1.2334,1.2334,1.2334,1.2334,1.2373,1.2422,1.2422,1.2422,1.2422,1.2422,1.2471,1.2471,1.2471,1.252,1.252,1.252,1.252,1.2559,1.2559,1.2559,1.2607,1.2607,1.2656,1.2656,1.2705,1.2705,1.2754,1.2803,1.2754,1.2754,1.2803,1.2852,1.2852,1.2852,1.29,1.29,1.2949,1.29,1.2949,1.2949,1.3008,1.3057,1.3008,1.3008,1.3057,1.3057,1.3057,1.3057,1.3057,1.3105,1.3154,1.3154,1.3213,1.3262,1.3262,1.3311,1.3311,1.3311,1.3311,1.3311,1.332,1.3369,1.3369,1.3369,1.3418,1.3418,1.3477,1.3477,1.3535,1.3535,1.3584,1.3643,1.3584,1.3643,1.3643,1.3643,1.3643,1.3701,1.3701,1.3701,1.3701,1.375,1.375,1.375,1.3809,1.3809,1.3809,1.3867,1.3867,1.3809,1.3867,1.3867,1.3926,1.3926,1.3926,1.3926,1.4043,1.4043,1.4043,1.4102,1.4102,1.416,1.416,1.416,1.4219,1.4219,1.4219,1.4287,1.4287,1.4287,1.4346,1.4346,1.4346,1.4404,1.4473,1.4473,1.4473,1.4473,1.4531,1.4531,1.4531,1.4531,1.4531,1.4531,1.46,1.46,1.4658,1.4727,1.4658,1.4727,1.4727,1.4727,1.4727,1.4727,1.4727,1.4727,1.4795,1.4795,1.4795,1.4854,1.4854,1.4854,1.4922,1.499,1.376,1.376,1.376,1.3818,1.376,1.376,1.3701,1.3701,1.3594,1.3594,1.3594,1.3594,1.3594,1.3643,1.3594,1.3594,1.3643,1.3652,1.3652,1.3652,1.3701,1.3701,1.3701,1.3701,1.3652,1.3652,1.3701,1.3701,1.3652,1.3701,1.3652,1.3652,1.3701,1.3652,1.3652,1.3594,1.3594,1.3594,1.3594,1.3594,1.3594,1.3594,1.3594,1.3594,1.3594,1.3594,1.3594,1.3594,1.3535,1.3535,1.3535,1.3535,1.3535,1.3486,1.3486,1.3486,1.3486,1.3545,1.3486,1.3486,1.3594,1.3545,1.3545,1.3545,1.3545,1.3545,0,1.623,1.6309,1.6309,1.6309,1.6387,1.6387,1.6465,1.6465,1.6553,1.6465,1.6465,1.6387,1.6387,1.6309,1.6309,1.6309,1.6553,0,0,1.3271,1.3271,1.333,1.333,1.333,1.333,1.333,1.333,1.333,1.3271,1.3271,1.3271,1.3271,1.3271,1.3174,1.3174,1.3223,1.3174,1.3174,1.3115,1.3174,1.3115,1.3174,1.3115,1.3115,1.3115,1.3115,1.3115,1.3115,1.3125,1.3125,1.3125,1.3125,1.3125,1.3066,1.3125,1.3125,1.3125,1.3125,1.3066,1.3066,1.3066,1.3125,1.3066,1.3066,1.3066,1.3066,1.3018,1.3018,1.3018,1.3018,1.3018,1.3018,1.2969,1.2969,1.3018,1.3018,1.3018,1.3018,1.3018,1.2969,1.2969,1.2969,1.2969,1.292,1.2871,1.2822,0,1.3945,1.3945,1.3945,1.4004,1.4004,1.3945,1.3945,1.3945,1.3945,1.3945,1.377,1.3887,1.377,1.3828,1.3828,1.377,1.377,1.377,1.377,1.377,1.377,1.377,1.3711,1.377,1.3711,1.3711,1.3711,1.3711,1.3711,1.3711,1.3711,1.3711,1.3662,1.3711,1.3711,1.3711,1.3662,1.3711,1.3711,1.3711,1.3604,1.3662,1.3662,1.3662,1.3604,1.3604,1.3545,1.3545,0,1.5273,1.5273,1.5352,1.5283,1.5273,1.5273,1.5273,1.5273,1.5273,1.5283,1.5283,1.5283,1.5283,1.5205,1.5205,1.5205,1.5205,1.5205,1.5205,1.5215,1.5137,1.5137,1.5137,1.5078,1.5078,1.5078,1.5078,1.501,1.501,1.501,1.501,1.4941,1.4941,1.4873,1.4873,1.4805,1.4805,1.4805,1.4805,1.4805,1.4746,1.4746,1.4746,0,0,0,0,0,0,0,0,0,0,0,0,0,0,0,0,0,0,0,0,0,0,0,0,0,0,0,0
1.1289,1.1328,1.1367,1.1367,1.1367,1.1367,1.1367,1.1406,1.1406,1.1406,1.1406,1.1445,1.1445,1.1523,1.1562,1.1523,1.1562,1.1562,1.1562,1.1562,1.1602,1.1602,1.1641,1.168,1.1729,1.1729,1.1729,1.1768,1.1768,1.1768,1.1768,1.1807,1.1807,1.1807,1.1846,1.1895,1.1895,1.1934,1.1934,1.1934,1.1934,1.1973,1.1934,1.1973,1.2021,1.2021,1.2061,1.2061,1.2061,1.2061,1.2109,1.2109,1.2109,1.2109,1.2148,1.2148,1.2197,1.2236,1.2236,1.2285,1.2285,1.2285,1.2285,1.2334,1.2334,1.2334,1.2373,1.2373,1.2422,1.2422,1.2422,1.2422,1.2471,1.2471,1.2471,1.2471,1.2471,1.252,1.252,1.252,1.2568,1.2568,1.2568,1.2607,1.2607,1.2656,1.2656,1.2656,1.2705,1.2705,1.2754,1.2754,1.2754,1.2803,1.2852,1.2852,1.29,1.29,1.29,1.2949,1.2949,1.29,1.2949,1.3008,1.3057,1.3008,1.3057,1.3057,1.3057,1.3105,1.3057,1.3105,1.3105,1.3154,1.3154,1.3213,1.3262,1.3262,1.3262,1.332,1.332,1.332,1.332,1.332,1.3369,1.3428,1.3369,1.3369,1.3428,1.3477,1.3477,1.3535,1.3584,1.3643,1.3643,1.3584,1.3643,1.3643,1.3643,1.3701,1.3701,1.3701,1.3701,1.375,1.375,1.375,1.375,1.3809,1.3867,1.3809,1.3867,1.3867,1.3867,1.3867,1.3867,1.3926,1.3984,1.3926,1.3984,1.4043,1.4043,1.4043,1.4102,1.4102,1.416,1.416,1.4219,1.4219,1.4219,1.4229,1.4287,1.4287,1.4287,1.4346,1.4346,1.4404,1.4404,1.4473,1.4404,1.4473,1.4473,1.4531,1.4531,1.4531,1.4531,1.4531,1.4531,1.46,1.46,1.4727,1.4658,1.4727,1.4727,1.4795,1.4795,1.4795,1.4795,1.4795,1.4795,1.4795,1.4795,1.4795,1.4854,1.4854,1.4922,1.4922,1.499,1.3701,1.3701,1.3701,1.376,1.3701,1.3701,1.3652,1.3652,1.3652,1.3652,1.3652,1.3652,1.3652,1.3652,1.3652,1.3652,1.3652,1.3652,1.3652,1.3652,1.3701,1.3701,1.3701,1.3701,1.3652,1.3652,1.3652,1.3652,1.3701,1.3701,1.3701,1.3701,1.3701,1.3652,1.3652,1.3594,1.3594,1.3594,1.3594,1.3594,1.3594,1.3594,1.3594,1.3594,1.3594,1.3535,1.3535,1.3594,1.3545,1.3486,1.3545,1.3545,1.3486,1.3486,1.3428,1.3486,1.3486,1.3545,1.3545,1.3545,1.3594,1.3594,1.3545,1.3594,1.3545,1.3545,0,1.6309,1.6309,1.6309,1.6309,1.6309,1.6309,1.6309,1.6387,1.6465,1.6475,1.6475,1.6387,1.6387,1.6387,1.6475,0,0,0,0,1.3271,1.3271,1.333,1.333,1.333,1.3271,1.333,1.333,1.333,1.333,1.3271,1.3271,1.3223,1.3223,1.3223,1.3223,1.3223,1.3223,1.3223,1.3174,1.3174,1.3223,1.3223,1.3223,1.3174,1.3174,1.3174,1.3174,1.3174,1.3174,1.3174,1.3174,1.3125,1.3125,1.3125,1.3125,1.3174,1.3125,1.3066,1.3066,1.3066,1.3066,1.3066,1.3066,1.3066,1.3018,1.3018,1.3018,1.3018,1.3018,1.3018,1.3018,1.3018,1.2969,1.3018,1.3018,1.3018,1.3018,1.3018,1.3018,1.2969,1.2969,1.2969,1.2969,1.292,1.292,1.2871,0,1.3945,1.3945,1.3945,1.4004,1.4004,1.3945,1.3945,1.3945,1.3945,1.3828,1.377,1.3887,1.3887,1.3887,1.3828,1.3828,1.377,1.3828,1.377,1.377,1.377,1.377,1.377,1.377,1.3711,1.3711,1.3711,1.3711,1.3711,1.3711,1.3711,1.3711,1.3662,1.3662,1.3711,1.3711,1.3711,1.3711,1.3711,1.3662,1.3662,1.3662,1.3662,1.3662,1.3604,1.3555,1.3555,0,1.5283,1.5283,1.5283,1.5283,1.5283,1.5283,1.5283,1.5283,1.5283,1.5283,1.5283,1.5283,1.5205,1.5205,1.5215,1.5215,1.5215,1.5215,1.5215,1.5146,1.5146,1.5146,1.5078,1.5078,1.5078,1.5078,1.501,1.501,1.501,1.501,1.501,1.4941,1.4941,1.4941,1.4873,1.4873,1.4873,1.4805,1.4805,1.4805,1.4805,1.4746,1.4746,1.4746,0,0,0,0,0,0,0,0,0,0,0,0,0,0,0,0,0,0,0,0,0,0,0,0,0,0,0,0
1.1289,1.1367,1.1367,1.1367,1.1367,1.1367,1.1367,1.1406,1.1406,1.1406,1.1406,1.1406,1.1445,1.1523,1.1523,1.1523,1.1562,1.1562,1.1562,1.1562,1.1562,1.1602,1.1641,1.168,1.1729,1.1729,1.1729,1.1768,1.1768,1.1768,1.1768,1.1807,1.1807,1.1807,1.1846,1.1895,1.1895,1.1934,1.1934,1.1934,1.1934,1.1982,1.1982,1.1982,1.2021,1.2061,1.2061,1.2061,1.2061,1.2061,1.2061,1.2109,1.2109,1.2109,1.2148,1.2197,1.2236,1.2236,1.2246,1.2285,1.2285,1.2285,1.2285,1.2285,1.2334,1.2373,1.2373,1.2422,1.2422,1.2422,1.2422,1.2422,1.2471,1.2471,1.2471,1.252,1.252,1.252,1.252,1.252,1.2568,1.2568,1.2568,1.2607,1.2607,1.2656,1.2656,1.2656,1.2656,1.2705,1.2754,1.2754,1.2803,1.2803,1.2852,1.2852,1.2852,1.29,1.29,1.2959,1.2959,1.2959,1.2959,1.3008,1.3057,1.3057,1.3057,1.3057,1.3057,1.3105,1.3057,1.3105,1.3154,1.3154,1.3262,1.3262,1.3262,1.3262,1.3262,1.3262,1.332,1.332,1.332,1.332,1.3369,1.3428,1.3369,1.3428,1.3428,1.3477,1.3477,1.3535,1.3584,1.3643,1.3643,1.3643,1.3643,1.3701,1.3701,1.3701,1.3701,1.3701,1.3701,1.376,1.376,1.3809,1.3809,1.3809,1.3867,1.3867,1.3867,1.3867,1.3867,1.3926,1.3926,1.3984,1.3984,1.3984,1.3984,1.4043,1.4043,1.4102,1.416,1.416,1.4229,1.4229,1.4229,1.4229,1.4229,1.4229,1.4346,1.4287,1.4287,1.4346,1.4404,1.4473,1.4473,1.4473,1.4404,1.4473,1.4531,1.4531,1.4531,1.4531,1.46,1.4531,1.4531,1.46,1.4658,1.4727,1.4727,1.4727,1.4727,1.4795,1.4795,1.4795,1.4795,1.4795,1.4795,1.4854,1.4854,1.4922,1.4922,1.4922,1.4922,1.4922,1.4922,1.376,1.376,1.376,1.376,1.3701,1.3701,1.3652,1.3652,1.3652,1.3652,1.3652,1.3652,1.3652,1.3652,1.3652,1.3652,1.3652,1.3701,1.3652,1.3652,1.3701,1.3701,1.3701,1.3701,1.3652,1.3652,1.3652,1.3701,1.3701,1.376,1.376,1.3701,1.3701,1.3652,1.3652,1.3652,1.3652,1.3594,1.3594,1.3594,1.3594,1.3594,1.3594,1.3594,1.3594,1.3545,1.3545,1.3594,1.3545,1.3545,1.3545,1.3545,1.3545,1.3486,1.3486,1.3486,1.3545,1.3545,1.3545,1.3545,1.3594,1.3594,1.3545,1.3545,1.3545,1.3545,0,1.6309,1.6309,1.6387,1.6387,1.6387,1.6387,1.6387,1.6387,1.6553,1.6475,1.6475,1.6387,1.6387,1.6553,1.6553,0,0,0,1.3438,1.3271,1.3271,1.3379,1.3379,1.333,1.333,1.333,1.333,1.333,1.3271,1.333,1.3271,1.3271,1.3223,1.3223,1.3223,1.3223,1.3223,1.3223,1.3223,1.3174,1.3223,1.3174,1.3223,1.3174,1.3174,1.3174,1.3174,1.3125,1.3125,1.3174,1.3174,1.3174,1.3223,1.3125,1.3174,1.3223,1.3223,1.3125,1.3125,1.3066,1.3125,1.3125,1.3066,1.3066,1.3066,1.3076,1.3018,1.3018,1.3018,1.3018,1.3018,1.3018,1.2969,1.3018,1.3018,1.3018,1.3018,1.3018,1.3018,1.2969,1.2969,1.2969,1.2969,1.292,1.2871,1.2822,0,1.3945,1.3887,1.3945,1.3945,1.3945,1.3945,1.3945,1.3887,1.3945,1.3945,1.3887,1.3887,1.3828,1.3828,1.3828,1.377,1.377,1.3828,1.377,1.377,1.377,1.377,1.377,1.377,1.3711,1.3711,1.3711,1.3711,1.3711,1.3711,1.3711,1.3711,1.3721,1.3721,1.3721,1.3721,1.3721,1.3721,1.3721,1.3721,1.3662,1.3662,1.3662,1.3662,1.3604,1.3604,0,1.542,1.5283,1.5283,1.5283,1.5352,1.5283,1.5283,1.5283,1.5283,1.5283,1.5283,1.5283,1.5283,1.5215,1.5215,1.5215,1.5215,1.5215,1.5215,1.5215,1.5146,1.5215,1.5146,1.5146,1.5078,1.5078,1.5078,1.501,1.501,1.501,1.4941,1.4941,1.4941,1.4941,1.4873,1.4873,1.4873,1.4805,1.4814,1.4814,1.4814,1.4746,1.4746,1.4746,1.4746,0,0,0,0,0,0,0,0,0,0,0,0,0,0,0,0,0,0,0,0,0,0,0,0,0,0,0,0
1.1328,1.1367,1.1367,1.1367,1.1367,1.1367,1.1406,1.1406,1.1406,1.1406,1.1445,1.1445,1.1484,1.1523,1.1523,1.1523,1.1562,1.1562,1.1562,1.1602,1.1602,1.1602,1.1641,1.1729,1.1729,1.1768,1.1768,1.1768,1.1768,1.1768,1.1807,1.1846,1.1807,1.1855,1.1895,1.1895,1.1934,1.1934,1.1934,1.1934,1.1934,1.1982,1.1982,1.2021,1.2021,1.2061,1.2061,1.2061,1.2061,1.2109,1.2109,1.2109,1.2109,1.2109,1.2148,1.2246,1.2246,1.2246,1.2246,1.2246,1.2285,1.2285,1.2334,1.2334,1.2334,1.2373,1.2422,1.2422,1.2422,1.2422,1.2471,1.2471,1.2471,1.2471,1.2471,1.2471,1.252,1.2568,1.2568,1.2568,1.2568,1.2607,1.2607,1.2607,1.2617,1.2656,1.2656,1.2656,1.2705,1.2705,1.2754,1.2754,1.2803,1.2852,1.2852,1.2852,1.29,1.29,1.29,1.2959,1.2959,1.2959,1.3008,1.3057,1.3057,1.3057,1.3057,1.3057,1.3057,1.3105,1.3105,1.3164,1.3164,1.3164,1.3262,1.3262,1.3262,1.3262,1.3262,1.3262,1.332,1.3262,1.332,1.3369,1.3369,1.3428,1.3428,1.3428,1.3428,1.3477,1.3477,1.3535,1.3584,1.3643,1.3643,1.3643,1.3643,1.3701,1.3701,1.3643,1.3701,1.3701,1.3701,1.376,1.376,1.3809,1.3867,1.3867,1.3867,1.3867,1.3867,1.3867,1.3926,1.3926,1.3926,1.3984,1.3984,1.3984,1.3984,1.4102,1.4102,1.4102,1.416,1.4229,1.4229,1.4229,1.4229,1.4287,1.4287,1.4287,1.4346,1.4287,1.4346,1.4404,1.4404,1.4404,1.4404,1.4473,1.4404,1.4473,1.4531,1.4531,1.46,1.46,1.46,1.46,1.46,1.46,1.4658,1.4727,1.4727,1.4727,1.4795,1.4795,1.4795,1.4795,1.4795,1.4795,1.4795,1.4854,1.4854,1.4854,1.4922,1.4922,1.4922,1.4922,1.4922,1.376,1.376,1.376,1.376,1.376,1.3701,1.3701,1.3701,1.3652,1.3652,1.3652,1.3594,1.3652,1.3652,1.3701,1.3701,1.3652,1.3701,1.3701,1.3701,1.3701,1.3701,1.3701,1.3701,1.3701,1.3701,1.3701,1.3701,1.3701,1.3701,1.3701,1.3701,1.3652,1.3652,1.3652,1.3652,1.3652,1.3652,1.3594,1.3594,1.3652,1.3594,1.3594,1.3594,1.3594,1.3545,1.3545,1.3594,1.3545,1.3545,1.3545,1.3545,1.3545,1.3545,1.3486,1.3545,1.3545,1.3545,1.3545,1.3545,1.3545,1.3545,1.3545,1.3545,1.3545,1.3545,0,0,1.6475,1.6387,1.6387,1.6387,1.6387,1.6309,1.6309,1.6387,1.6309,1.6309,1.6309,1.6309,1.6387,1.6553,0,0,0,1.3438,1.333,1.333,1.3438,1.3438,1.3379,1.3379,1.333,1.333,1.3271,1.3271,1.3271,1.3271,1.3223,1.3223,1.3223,1.3223,1.3223,1.3223,1.3223,1.3223,1.3223,1.3223,1.3223,1.3174,1.3174,1.3174,1.3125,1.3174,1.3223,1.3174,1.3223,1.3174,1.3174,1.3223,1.3223,1.3223,1.3223,1.3223,1.3125,1.3076,1.3076,1.3125,1.3125,1.3125,1.3076,1.3076,1.3076,1.3018,1.3076,1.3018,1.3018,1.3018,1.3018,1.3018,1.3018,1.3018,1.3018,1.3018,1.3018,1.3018,1.3018,1.3018,1.2969,1.2969,1.292,1.2822,0,1.3945,1.3945,1.3945,1.3945,1.3945,1.3945,1.3945,1.3887,1.3887,1.3945,1.3945,1.3887,1.3887,1.3887,1.3887,1.3887,1.3828,1.3828,1.3828,1.3828,1.377,1.377,1.377,1.377,1.377,1.3721,1.3721,1.3721,1.3721,1.3721,1.3721,1.3721,1.3721,1.3721,1.3721,1.3721,1.3721,1.3721,1.3721,1.3721,1.3721,1.3662,1.3662,1.3662,1.3662,1.3662,1.3721,0,1.5488,1.5283,1.5283,1.5283,1.5283,1.5283,1.5283,1.5283,1.5283,1.5283,1.5283,1.5283,1.5283,1.5215,1.5215,1.5215,1.5215,1.5215,1.5146,1.5146,1.5146,1.5146,1.5146,1.5078,1.5078,1.5078,1.5078,1.501,1.501,1.501,1.4941,1.4941,1.4941,1.4941,1.4873,1.4873,1.4873,1.4873,1.4814,1.4814,1.4814,1.4814,1.4746,1.4814,1.4746,0,0,0,0,0,0,0,0,0,0,0,0,0,0,0,0,0,0,0,0,0,0,0,0,0,0,0,0
1.1328,1.1367,1.1367,1.1367,1.1367,1.1406,1.1406,1.1406,1.1445,1.1445,1.1445,1.1445,1.1484,1.1523,1.1523,1.1523,1.1562,1.1562,1.1562,1.1562,1.1562,1.1602,1.1641,1.1729,1.1729,1.1768,1.1768,1.1768,1.1807,1.1807,1.1855,1.1855,1.1855,1.1895,1.1895,1.1895,1.1934,1.1934,1.1934,1.1934,1.1934,1.1982,1.1982,1.2021,1.2021,1.2061,1.207,1.2109,1.207,1.2109,1.2109,1.2109,1.2158,1.2158,1.2197,1.2246,1.2246,1.2246,1.2246,1.2246,1.2285,1.2334,1.2334,1.2383,1.2334,1.2383,1.2422,1.2422,1.2471,1.2422,1.2471,1.2471,1.2471,1.2471,1.252,1.252,1.252,1.2568,1.2568,1.2568,1.2568,1.2617,1.2617,1.2617,1.2617,1.2656,1.2656,1.2656,1.2705,1.2705,1.2754,1.2803,1.2803,1.2852,1.2852,1.2852,1.29,1.291,1.291,1.2959,1.2959,1.2959,1.3008,1.3057,1.3057,1.3057,1.3105,1.3105,1.3105,1.3105,1.3105,1.3164,1.3164,1.3213,1.3262,1.3262,1.3262,1.3262,1.3262,1.3262,1.332,1.332,1.332,1.332,1.3369,1.3428,1.3428,1.3428,1.3477,1.3477,1.3477,1.3535,1.3584,1.3643,1.3643,1.3643,1.3643,1.3701,1.3701,1.3701,1.3701,1.3701,1.3701,1.376,1.3809,1.3818,1.3867,1.3867,1.3867,1.3867,1.3926,1.3926,1.3926,1.3926,1.3926,1.3984,1.3984,1.3984,1.3984,1.4102,1.4102,1.4102,1.4229,1.4229,1.4229,1.4229,1.4229,1.4287,1.4287,1.4287,1.4346,1.4346,1.4346,1.4346,1.4414,1.4414,1.4414,1.4414,1.4414,1.4414,1.4473,1.4531,1.46,1.46,1.46,1.46,1.46,1.4658,1.4727,1.4727,1.4727,1.4795,1.4795,1.4795,1.4795,1.4863,1.4863,1.4863,1.4863,1.4863,1.4922,1.4922,1.4922,1.4922,1.4922,1.4922,1.3818,1.3818,1.376,1.376,1.376,1.376,1.376,1.3701,1.3701,1.3701,1.3652,1.3652,1.3594,1.3652,1.3652,1.3701,1.3701,1.3652,1.3711,1.3711,1.3652,1.3711,1.3711,1.3652,1.3711,1.3711,1.3652,1.3652,1.3652,1.3652,1.3652,1.3652,1.3652,1.3652,1.3652,1.3652,1.3652,1.3652,1.3652,1.3594,1.3594,1.3594,1.3594,1.3594,1.3594,1.3594,1.3545,1.3594,1.3594,1.3594,1.3545,1.3545,1.3545,1.3545,1.3545,1.3545,1.3545,1.3594,1.3594,1.3545,1.3594,1.3545,1.3545,1.3545,1.3545,1.3545,0,1.6309,0,1.6475,1.6387,1.6387,1.6309,1.6309,1.6309,1.6309,1.6309,1.623,1.6309,1.6309,1.6309,1.6309,1.6309,0,0,0,1.3379,1.333,1.3379,1.3438,1.3438,1.3379,1.3379,1.333,1.333,1.333,1.3281,1.3281,1.3281,1.3223,1.3223,1.3223,1.3223,1.3223,1.3223,1.3174,1.3174,1.3174,1.3174,1.3174,1.3174,1.3174,1.3174,1.3125,1.3174,1.3174,1.3174,1.3174,1.3223,1.3223,1.3223,1.3223,1.3223,1.3281,1.3223,1.3125,1.3076,1.3125,1.3076,1.3125,1.3125,1.3076,1.3125,1.3076,1.3018,1.3076,1.3076,1.3018,1.3018,1.3018,1.3018,1.3018,1.3018,1.3018,1.3027,1.3027,1.3027,1.3018,1.3018,1.3018,1.3018,1.292,1.2822,0,1.3945,1.3945,1.3945,1.3945,1.3945,1.3945,1.3945,1.3828,1.3945,1.3945,1.3887,1.3887,1.3945,1.3945,1.3945,1.3887,1.3887,1.3887,1.3887,1.3828,1.3828,1.377,1.377,1.377,1.377,1.377,1.3721,1.3721,1.3721,1.377,1.377,1.3721,1.3721,1.3721,1.3721,1.3721,1.3721,1.3721,1.3721,1.3721,1.3721,1.3721,1.3721,1.3721,1.3662,1.3662,1.3721,0,1.5283,1.5283,1.5283,1.5283,1.5283,1.5283,1.5283,1.5283,1.5283,1.5283,1.5283,1.5283,1.5283,1.5215,1.5215,1.5146,1.5146,1.5146,1.5146,1.5146,1.5146,1.5146,1.5146,1.5146,1.5078,1.5078,1.5078,1.501,1.501,1.501,1.4941,1.4873,1.4941,1.4941,1.4873,1.4873,1.4873,1.4873,1.4873,1.4814,1.4814,1.4814,1.4746,1.4814,1.4746,0,0,0,0,0,0,0,0,0,0,0,0,0,0,0,0,0,0,0,0,0,0,0,0,0,0,0,0
1.1328,1.1367,1.1367,1.1367,1.1367,1.1406,1.1406,1.1406,1.1445,1.1445,1.1445,1.1484,1.1523,1.1523,1.1562,1.1523,1.1562,1.1562,1.1562,1.1562,1.1562,1.1602,1.1641,1.1729,1.1729,1.1768,1.1768,1.1768,1.1768,1.1807,1.1807,1.1855,1.1855,1.1895,1.1895,1.1934,1.1934,1.1934,1.1934,1.1934,1.1934,1.1982,1.1982,1.2021,1.207,1.207,1.2109,1.2109,1.2109,1.2109,1.2109,1.2109,1.2158,1.2197,1.2197,1.2246,1.2246,1.2246,1.2246,1.2246,1.2285,1.2334,1.2334,1.2383,1.2383,1.2383,1.2422,1.2471,1.2471,1.2471,1.2471,1.2471,1.2471,1.2471,1.252,1.252,1.252,1.2568,1.2568,1.2568,1.2617,1.2617,1.2656,1.2656,1.2656,1.2656,1.2705,1.2666,1.2705,1.2705,1.2754,1.2803,1.2852,1.2852,1.2852,1.291,1.291,1.291,1.291,1.2959,1.2959,1.2959,1.3008,1.3057,1.3057,1.3105,1.3105,1.3105,1.3105,1.3105,1.3164,1.3164,1.3164,1.3213,1.3262,1.3262,1.3262,1.3262,1.3262,1.332,1.332,1.332,1.332,1.3369,1.3369,1.3428,1.3428,1.3428,1.3477,1.3477,1.3477,1.3535,1.3594,1.3643,1.3643,1.3643,1.3643,1.3701,1.3701,1.3701,1.3701,1.3701,1.376,1.376,1.3818,1.3818,1.3867,1.3867,1.3867,1.3926,1.3926,1.3926,1.3926,1.3926,1.3926,1.3984,1.3984,1.3984,1.4043,1.4102,1.4102,1.417,1.4229,1.4229,1.4229,1.4229,1.4229,1.4287,1.4287,1.4287,1.4346,1.4346,1.4346,1.4346,1.4414,1.4414,1.4414,1.4473,1.4414,1.4473,1.4473,1.4531,1.4531,1.46,1.46,1.46,1.4668,1.4668,1.4727,1.4727,1.4795,1.4795,1.4795,1.4795,1.4863,1.4863,1.4863,1.4863,1.4863,1.4863,1.4922,1.4922,1.4922,1.4922,1.4922,1.4922,1.3818,1.3818,1.3818,1.3818,1.3818,1.376,1.376,1.3701,1.3701,1.3701,1.3701,1.3652,1.3652,1.3652,1.3711,1.376,1.3711,1.3711,1.3711,1.3711,1.3711,1.3711,1.3711,1.3652,1.3711,1.3652,1.3652,1.3652,1.3652,1.3652,1.3652,1.3711,1.3711,1.3711,1.3711,1.3711,1.3652,1.3652,1.3652,1.3594,1.3594,1.3594,1.3594,1.3594,1.3594,1.3594,1.3545,1.3545,1.3594,1.3594,1.3594,1.3594,1.3545,1.3545,1.3594,1.3545,1.3545,1.3594,1.3594,1.3594,1.3594,1.3545,1.3545,1.3545,1.3486,1.3486,0,1.6309,1.6396,1.6475,1.6396,1.6396,1.6309,1.6309,1.6309,1.6309,1.6309,1.623,1.623,1.623,1.6309,1.6309,0,0,0,1.3486,1.3486,1.333,1.333,1.3438,1.3379,1.333,1.3379,1.333,1.333,1.333,1.333,1.3281,1.3281,1.3281,1.3281,1.3223,1.3223,1.3223,1.3223,1.3223,1.3223,1.3174,1.3174,1.3223,1.3223,1.3174,1.3174,1.3125,1.3125,1.3125,1.3174,1.3174,1.3174,1.3223,1.3174,1.3223,1.3174,1.3223,1.3223,1.3174,1.3125,1.3125,1.3125,1.3125,1.3125,1.3076,1.3076,1.3076,1.3076,1.3076,1.3076,1.3076,1.3027,1.3027,1.3027,1.3076,1.3076,1.3076,1.3027,1.3027,1.3027,1.3076,1.3076,1.3027,1.3027,1.2969,1.2822,0,1.3945,1.3945,1.3945,1.3945,1.3945,1.3887,1.3887,1.3887,1.3887,1.3945,1.3887,1.3887,1.3945,1.3945,1.3945,1.3945,1.3887,1.3887,1.3887,1.3828,1.3828,1.377,1.377,1.377,1.377,1.377,1.3721,1.3721,1.377,1.3721,1.3721,1.3721,1.3721,1.377,1.377,1.377,1.3721,1.3721,1.3721,1.3721,1.3721,1.3721,1.3721,1.3721,1.3721,1.3662,0,1.5352,1.542,1.5283,1.5283,1.5283,1.5283,1.5283,1.5283,1.5283,1.5283,1.5283,1.5283,1.5283,1.5283,1.5215,1.5215,1.5215,1.5146,1.5146,1.5146,1.5146,1.5078,1.5078,1.5078,1.5146,1.5078,1.5078,1.501,1.501,1.501,1.4941,1.4941,1.4873,1.4873,1.4941,1.4941,1.4873,1.4873,1.4873,1.4873,1.4814,1.4814,1.4814,1.4814,1.4814,1.4746,0,0,0,0,0,0,0,0,0,0,0,0,0,0,0,0,0,0,0,0,0,0,0,0,0,0,0,0
1.1328,1.1367,1.1367,1.1367,1.1406,1.1406,1.1406,1.1406,1.1445,1.1484,1.1484,1.1523,1.1523,1.1523,1.1562,1.1523,1.1562,1.1562,1.1562,1.1562,1.1602,1.1602,1.1641,1.1729,1.1729,1.1729,1.1768,1.1768,1.1807,1.1807,1.1807,1.1855,1.1855,1.1895,1.1895,1.1934,1.1934,1.1934,1.1934,1.1934,1.1982,1.1982,1.2021,1.2021,1.207,1.2109,1.2109,1.2109,1.2109,1.2109,1.2109,1.2158,1.2158,1.2197,1.2197,1.2246,1.2246,1.2246,1.2246,1.2246,1.2285,1.2334,1.2334,1.2334,1.2383,1.2383,1.2422,1.2471,1.2471,1.2471,1.2471,1.2471,1.252,1.252,1.252,1.252,1.252,1.2617,1.2568,1.2568,1.2617,1.2666,1.2666,1.2666,1.2666,1.2666,1.2705,1.2666,1.2705,1.2705,1.2803,1.2803,1.2861,1.2861,1.2861,1.291,1.291,1.291,1.291,1.2959,1.2959,1.2959,1.3008,1.3057,1.3057,1.3105,1.3105,1.3105,1.3105,1.3105,1.3164,1.3164,1.3213,1.3213,1.3262,1.3262,1.3262,1.3262,1.332,1.332,1.332,1.332,1.332,1.3369,1.3369,1.3428,1.3428,1.3428,1.3477,1.3477,1.3535,1.3535,1.3594,1.3643,1.3643,1.3643,1.3701,1.3701,1.3701,1.3701,1.3701,1.3701,1.376,1.376,1.3818,1.3818,1.3867,1.3867,1.3877,1.3926,1.3926,1.3926,1.3926,1.3926,1.3926,1.3984,1.3984,1.4043,1.4111,1.417,1.417,1.4229,1.4229,1.4229,1.4229,1.4287,1.4287,1.4287,1.4287,1.4287,1.4346,1.4346,1.4346,1.4346,1.4414,1.4414,1.4414,1.4473,1.4473,1.4473,1.4531,1.4541,1.46,1.46,1.4668,1.46,1.4668,1.4727,1.4727,1.4727,1.4727,1.4795,1.4795,1.4795,1.4795,1.4863,1.4863,1.4863,1.4863,1.4922,1.4922,1.4922,1.499,1.499,1.4922,1.4922,1.3877,1.3877,1.3877,1.3877,1.3818,1.376,1.376,1.376,1.3711,1.3711,1.3711,1.3711,1.3652,1.3711,1.376,1.376,1.376,1.3711,1.376,1.3711,1.3711,1.376,1.3711,1.3711,1.3711,1.3711,1.3652,1.3652,1.3652,1.3652,1.3652,1.3652,1.3711,1.3711,1.3711,1.3711,1.3711,1.3711,1.3652,1.3594,1.3594,1.3594,1.3594,1.3594,1.3594,1.3594,1.3545,1.3594,1.3594,1.3594,1.3594,1.3594,1.3545,1.3545,1.3545,1.3545,1.3545,1.3594,1.3594,1.3594,1.3604,1.3604,1.3545,1.3545,1.3545,1.3545,0,0,1.6396,1.6396,1.6396,1.6396,1.6396,1.6309,1.6309,1.6309,1.6309,1.6309,1.623,1.623,1.6318,0,0,0,0,1.3486,1.3379,1.333,1.333,1.3379,1.3389,1.3389,1.3389,1.333,1.333,1.333,1.3281,1.333,1.3281,1.3281,1.3281,1.3281,1.3281,1.3223,1.3223,1.3223,1.3174,1.3174,1.3174,1.3223,1.3223,1.3174,1.3174,1.3174,1.3174,1.3174,1.3174,1.3223,1.3223,1.3223,1.3223,1.3223,1.3223,1.3223,1.3223,1.3174,1.3125,1.3125,1.3076,1.3076,1.3076,1.3076,1.3076,1.3076,1.3076,1.3076,1.3076,1.3076,1.3027,1.3076,1.3076,1.3076,1.3076,1.3076,1.3027,1.3027,1.3027,1.3076,1.3076,1.3027,1.3027,1.2979,1.2871,0,1.4004,1.3945,1.3945,1.3945,1.3945,1.3945,1.3887,1.3887,1.3887,1.3887,1.3887,1.3945,1.3945,1.3945,1.3945,1.3887,1.3887,1.3887,1.3887,1.3887,1.3828,1.377,1.377,1.377,1.377,1.377,1.3721,1.3721,1.3779,1.3779,1.3721,1.3721,1.3721,1.3779,1.3779,1.3779,1.3779,1.3779,1.3721,1.3721,1.3721,1.3721,1.3721,1.3721,1.3721,1.3662,0,1.5352,1.542,1.5352,1.5352,1.5283,1.5283,1.5283,1.5283,1.5283,1.5283,1.5283,1.5283,1.5283,1.5283,1.5215,1.5215,1.5146,1.5146,1.5146,1.5146,1.5146,1.5146,1.5078,1.5078,1.5078,1.5078,1.5078,1.5078,1.501,1.501,1.4941,1.4941,1.4873,1.4941,1.4941,1.4941,1.4941,1.4873,1.4873,1.4873,1.4873,1.4814,1.4814,1.4814,1.4746,1.4746,0,0,0,0,0,0,0,0,0,0,0,0,0,0,0,0,0,0,0,0,0,0,0,0,0,0,0,0
1.1328,1.1367,1.1367,1.1367,1.1406,1.1406,1.1406,1.1406,1.1445,1.1484,1.1484,1.1523,1.1523,1.1523,1.1562,1.1562,1.1562,1.1562,1.1562,1.1602,1.1602,1.165,1.1689,1.1729,1.1729,1.1768,1.1768,1.1768,1.1807,1.1807,1.1807,1.1855,1.1895,1.1895,1.1895,1.1934,1.1934,1.1934,1.1934,1.1934,1.1982,1.2021,1.2021,1.207,1.207,1.2109,1.2109,1.2109,1.2109,1.2109,1.2158,1.2158,1.2158,1.2197,1.2197,1.2197,1.2246,1.2246,1.2246,1.2246,1.2285,1.2334,1.2334,1.2334,1.2383,1.2383,1.2422,1.2471,1.2471,1.2471,1.2471,1.2471,1.252,1.252,1.252,1.252,1.252,1.2568,1.2568,1.2617,1.2617,1.2666,1.2666,1.2666,1.2666,1.2715,1.2715,1.2715,1.2715,1.2715,1.2812,1.2812,1.2861,1.2861,1.2861,1.291,1.291,1.291,1.291,1.291,1.2959,1.3008,1.3008,1.3057,1.3057,1.3105,1.3105,1.3105,1.3105,1.3105,1.3164,1.3164,1.3213,1.3262,1.3262,1.332,1.3262,1.332,1.332,1.332,1.3369,1.3369,1.3369,1.3369,1.3369,1.3428,1.3428,1.3428,1.3477,1.3477,1.3535,1.3535,1.3594,1.3643,1.3643,1.3643,1.3701,1.3701,1.3701,1.3701,1.376,1.376,1.376,1.376,1.3818,1.3818,1.3877,1.3877,1.3926,1.3926,1.3926,1.3926,1.3984,1.3984,1.3984,1.3984,1.4043,1.4053,1.4111,1.417,1.4229,1.4229,1.4287,1.4229,1.4287,1.4287,1.4287,1.4346,1.4346,1.4346,1.4346,1.4346,1.4346,1.4414,1.4414,1.4414,1.4473,1.4473,1.4473,1.4541,1.4541,1.4541,1.46,1.4668,1.4668,1.4727,1.4668,1.4727,1.4795,1.4795,1.4795,1.4795,1.4795,1.4795,1.4795,1.4863,1.4863,1.4863,1.4863,1.4932,1.4932,1.499,1.499,1.499,1.4932,1.4932,1.4932,1.3877,1.3877,1.3877,1.3818,1.3818,1.376,1.376,1.3711,1.3711,1.3711,1.3711,1.3711,1.3711,1.3711,1.3711,1.3711,1.3711,1.3711,1.3711,1.3711,1.3711,1.376,1.3711,1.3711,1.3711,1.3711,1.3711,1.3652,1.3652,1.3652,1.3711,1.3652,1.3711,1.3711,1.3711,1.3711,1.3711,1.3711,1.3652,1.3652,1.3652,1.3652,1.3652,1.3594,1.3594,1.3594,1.3594,1.3594,1.3594,1.3594,1.3594,1.3604,1.3604,1.3604,1.3604,1.3545,1.3604,1.3604,1.3604,1.3604,1.3604,1.3545,1.3545,1.3545,1.3545,0,0,1.6396,1.6475,1.6475,1.6396,1.6396,1.6396,1.6318,1.6318,1.6318,1.6318,1.6318,1.623,1.6318,0,0,0,0,1.3438,1.3438,1.3389,1.3389,1.3389,1.3389,1.333,1.333,1.3281,1.333,1.3281,1.3281,1.3281,1.3281,1.3281,1.3281,1.3281,1.3281,1.3223,1.3223,1.3223,1.3223,1.3223,1.3223,1.3223,1.3223,1.3223,1.3223,1.3174,1.3174,1.3174,1.3174,1.3174,1.3232,1.3232,1.3232,1.3232,1.3232,1.3232,1.3232,1.3232,1.3125,1.3076,1.3076,1.3076,1.3076,1.3076,1.3076,1.3076,1.3076,1.3076,1.3076,1.3076,1.3027,1.3076,1.3076,1.3027,1.3027,1.3076,1.3027,1.3027,1.3027,1.3027,1.3027,1.3027,1.2979,1.2871,0,0,1.4062,1.4004,1.3945,1.4004,1.4004,1.4004,1.3887,1.3887,1.3828,1.3945,1.3945,1.3945,1.3945,1.3945,1.3945,1.3945,1.3887,1.3887,1.3887,1.3828,1.3828,1.3828,1.3779,1.3779,1.3779,1.3779,1.3779,1.3721,1.3779,1.3721,1.3721,1.3721,1.3721,1.3779,1.3779,1.3779,1.3721,1.3721,1.3721,1.3721,1.3721,1.3721,1.3721,1.3721,1.3662,1.3721,0,1.5352,1.5352,1.5352,1.5352,1.5283,1.5352,1.5352,1.5283,1.5283,1.5283,1.5283,1.5283,1.5283,1.5283,1.5215,1.5215,1.5215,1.5146,1.5146,1.5146,1.5146,1.5146,1.5078,1.5078,1.5078,1.5078,1.5078,1.501,1.501,1.4941,1.4941,1.4941,1.4873,1.4873,1.4941,1.4941,1.4941,1.4883,1.4883,1.4883,1.4883,1.4814,1.4814,1.4814,1.4746,1.4746,0,0,0,0,0,0,0,0,0,0,0,0,0,0,0,0,0,0,0,0,0,0,0,0,0,0,0,0
1.1367,1.1367,1.1367,1.1367,1.1406,1.1406,1.1445,1.1406,1.1445,1.1484,1.1523,1.1523,1.1523,1.1523,1.1562,1.1562,1.1562,1.1562,1.1562,1.1602,1.1602,1.165,1.1729,1.1729,1.1729,1.1729,1.1768,1.1807,1.1807,1.1807,1.1855,1.1895,1.1895,1.1895,1.1934,1.1934,1.1934,1.1934,1.1934,1.1982,1.1982,1.2021,1.2021,1.207,1.207,1.2109,1.2109,1.2109,1.2109,1.2109,1.2158,1.2158,1.2158,1.2197,1.2197,1.2197,1.2246,1.2246,1.2246,1.2246,1.2285,1.2334,1.2334,1.2383,1.2383,1.2383,1.2471,1.2471,1.2471,1.2471,1.2471,1.2471,1.252,1.252,1.252,1.252,1.252,1.2568,1.2568,1.2617,1.2666,1.2715,1.2715,1.2715,1.2764,1.2764,1.2764,1.2764,1.2764,1.2764,1.2812,1.2861,1.2861,1.2861,1.291,1.291,1.291,1.291,1.291,1.2959,1.2959,1.3008,1.3008,1.3057,1.3057,1.3105,1.3105,1.3105,1.3105,1.3105,1.3164,1.3164,1.3213,1.3262,1.3262,1.332,1.332,1.332,1.332,1.332,1.332,1.3369,1.3369,1.3428,1.3428,1.3477,1.3477,1.3477,1.3477,1.3535,1.3535,1.3535,1.3594,1.3643,1.3594,1.3643,1.3643,1.3701,1.3701,1.3701,1.376,1.376,1.376,1.3818,1.3818,1.3877,1.3936,1.3936,1.3936,1.3936,1.3936,1.3936,1.3994,1.3994,1.3994,1.3994,1.4053,1.4111,1.417,1.4229,1.4229,1.4229,1.4287,1.4287,1.4287,1.4287,1.4346,1.4346,1.4346,1.4414,1.4414,1.4414,1.4414,1.4414,1.4473,1.4414,1.4414,1.4473,1.4473,1.4541,1.4541,1.4541,1.46,1.46,1.4668,1.4727,1.4727,1.4727,1.4795,1.4795,1.4795,1.4795,1.4795,1.4795,1.4795,1.4863,1.4863,1.4932,1.4932,1.4932,1.499,1.499,1.499,1.499,1.4932,1.4932,1.3877,1.3936,1.3936,1.3877,1.3818,1.3818,1.376,1.376,1.376,1.3711,1.3711,1.3711,1.3711,1.3711,1.3711,1.3711,1.3711,1.3711,1.3711,1.3711,1.3711,1.377,1.377,1.3711,1.3711,1.3711,1.3711,1.3711,1.3652,1.3652,1.3652,1.3711,1.3652,1.3711,1.3711,1.3711,1.3711,1.3711,1.3711,1.3652,1.3652,1.3652,1.3652,1.3652,1.3604,1.3604,1.3604,1.3604,1.3652,1.3604,1.3604,1.3604,1.3545,1.3545,1.3604,1.3545,1.3545,1.3545,1.3604,1.3545,1.3604,1.3545,1.3545,1.3545,1.3545,1.3545,0,0,1.6396,1.6475,1.6475,1.6475,1.6396,1.6396,1.6318,1.6318,1.6318,1.6318,1.6318,1.6318,0,0,0,0,0,1.3438,1.3389,1.3389,1.333,1.3389,1.3389,1.333,1.333,1.333,1.333,1.3281,1.3281,1.3281,1.3281,1.3281,1.3281,1.3281,1.3281,1.3223,1.3232,1.3232,1.3232,1.3232,1.3232,1.3232,1.3232,1.3232,1.3174,1.3174,1.3174,1.3174,1.3174,1.3174,1.3232,1.3232,1.3232,1.3232,1.3232,1.3232,1.3174,1.3174,1.3125,1.3125,1.3076,1.3076,1.3076,1.3076,1.3076,1.3076,1.3076,1.3076,1.3076,1.3076,1.3027,1.3027,1.3076,1.3027,1.3027,1.3076,1.3027,1.3076,1.3027,1.3027,1.3076,1.3027,1.3027,1.2979,1.292,1.4121,1.4062,1.4004,1.4004,1.4004,1.4004,1.4004,1.3945,1.3945,1.3945,1.3945,1.3945,1.3945,1.3945,1.3945,1.3945,1.3945,1.3887,1.3887,1.3887,1.3887,1.3828,1.3828,1.3828,1.3779,1.3779,1.3779,1.3779,1.3779,1.3779,1.3779,1.3779,1.3721,1.3721,1.3779,1.3779,1.3779,1.3721,1.3721,1.3721,1.3721,1.3721,1.3721,1.3721,1.3721,1.3662,1.3721,0,1.5283,1.5352,1.5352,1.5283,1.5283,1.5283,1.5283,1.5283,1.5283,1.5283,1.5283,1.5283,1.5283,1.5215,1.5215,1.5215,1.5215,1.5146,1.5146,1.5146,1.5146,1.5078,1.5078,1.5078,1.5078,1.5078,1.5078,1.501,1.501,1.501,1.4941,1.4883,1.4883,1.4883,1.4941,1.4883,1.4941,1.4883,1.4883,1.4883,1.4814,1.4814,1.4814,1.4814,1.4814,1.4746,0,0,0,0,0,0,0,0,0,0,0,0,0,0,0,0,0,0,0,0,0,0,0,0,0,0,0,0
1.1367,1.1367,1.1367,1.1367,1.1406,1.1406,1.1406,1.1406,1.1445,1.1484,1.1523,1.1523,1.1523,1.1523,1.1562,1.1562,1.1562,1.1562,1.1562,1.1602,1.1602,1.165,1.1729,1.1729,1.1729,1.1768,1.1768,1.1807,1.1807,1.1816,1.1855,1.1895,1.1895,1.1934,1.1934,1.1934,1.1934,1.1934,1.1982,1.1982,1.2021,1.2021,1.207,1.207,1.2109,1.2109,1.2109,1.2109,1.2109,1.2158,1.2158,1.2197,1.2197,1.2197,1.2197,1.2197,1.2246,1.2246,1.2295,1.2295,1.2295,1.2334,1.2383,1.2383,1.2383,1.2432,1.2471,1.2471,1.2471,1.2471,1.2471,1.2471,1.2471,1.2471,1.2471,1.252,1.2568,1.2568,1.2568,1.2666,1.2666,1.2715,1.2715,1.2764,1.2764,1.2764,1.2764,1.2764,1.2812,1.2812,1.2861,1.2861,1.291,1.291,1.291,1.291,1.291,1.291,1.291,1.2959,1.3008,1.3008,1.3057,1.3057,1.3115,1.3115,1.3115,1.3115,1.3164,1.3164,1.3164,1.3164,1.3213,1.3213,1.3271,1.332,1.332,1.332,1.332,1.3369,1.3369,1.3369,1.3369,1.3428,1.3477,1.3477,1.3477,1.3535,1.3535,1.3535,1.3535,1.3594,1.3594,1.3594,1.3643,1.3643,1.3643,1.3701,1.3643,1.3643,1.376,1.376,1.376,1.3818,1.3877,1.3936,1.3936,1.3936,1.3936,1.3936,1.3936,1.3936,1.3936,1.3994,1.3994,1.3994,1.4053,1.4111,1.417,1.4229,1.4229,1.4229,1.4287,1.4287,1.4287,1.4287,1.4287,1.4355,1.4355,1.4355,1.4355,1.4414,1.4414,1.4414,1.4473,1.4473,1.4473,1.4473,1.4473,1.4541,1.4541,1.4541,1.4668,1.4668,1.4668,1.4668,1.4727,1.4727,1.4795,1.4795,1.4795,1.4795,1.4795,1.4863,1.4795,1.4863,1.4863,1.4932,1.4932,1.499,1.499,1.499,1.499,1.499,1.5,1.5,1.3936,1.3936,1.3936,1.3877,1.3818,1.3818,1.3818,1.376,1.376,1.3711,1.376,1.3711,1.3711,1.3711,1.3711,1.3711,1.3711,1.3711,1.3711,1.3711,1.3711,1.377,1.377,1.3711,1.3711,1.3711,1.3711,1.3711,1.3711,1.3652,1.3652,1.3652,1.3652,1.3652,1.3652,1.3711,1.3652,1.3652,1.3711,1.3652,1.3652,1.3652,1.3652,1.3652,1.3604,1.3604,1.3604,1.3604,1.3604,1.3604,1.3652,1.3604,1.3604,1.3604,1.3604,1.3545,1.3545,1.3545,1.3545,1.3545,1.3545,1.3604,1.3545,1.3545,1.3545,1.3604,0,0,1.6396,1.6475,1.6396,1.6475,1.6475,1.6396,1.6396,1.6318,1.6318,1.624,1.6318,0,0,0,0,0,0,1.3389,1.3389,1.3389,1.333,1.3389,1.3389,1.333,1.333,1.333,1.333,1.3281,1.3281,1.3281,1.3281,1.3281,1.3281,1.3281,1.3232,1.3232,1.3232,1.3232,1.3232,1.3232,1.3232,1.3232,1.3232,1.3232,1.3232,1.3232,1.3232,1.3232,1.3232,1.3232,1.3232,1.3232,1.3232,1.3232,1.3232,1.3232,1.3232,1.3174,1.3174,1.3125,1.3125,1.3076,1.3125,1.3076,1.3076,1.3076,1.3076,1.3125,1.3076,1.3076,1.3027,1.3076,1.3076,1.3076,1.3027,1.3076,1.3027,1.3076,1.3027,1.3076,1.3027,1.3027,1.3027,1.3027,0,1.4121,1.4004,1.4004,1.4004,1.4062,1.4004,1.4004,1.3945,1.3945,1.3945,1.4004,1.3945,1.3945,1.3945,1.3945,1.3945,1.3945,1.3887,1.3945,1.3887,1.3887,1.3887,1.3828,1.3828,1.3779,1.3779,1.3779,1.3779,1.3779,1.3779,1.3779,1.3779,1.3779,1.3721,1.3779,1.3779,1.3779,1.3721,1.3721,1.3721,1.3721,1.3721,1.3721,1.3721,1.3721,1.3721,1.3721,0,1.5352,1.5352,1.5352,1.5283,1.5283,1.5283,1.5283,1.5283,1.5283,1.5283,1.5283,1.5283,1.5283,1.5215,1.5215,1.5215,1.5215,1.5146,1.5146,1.5146,1.5146,1.5078,1.5078,1.501,1.5078,1.5078,1.5078,1.5078,1.501,1.501,1.4941,1.501,1.4941,1.4941,1.4941,1.4883,1.4883,1.4883,1.4883,1.4814,1.4814,1.4814,1.4814,1.4814,1.4814,1.4746,0,0,0,0,0,0,0,0,0,0,0,0,0,0,0,0,0,0,0,0,0,0,0,0,0,0,0,0
1.1367,1.1367,1.1367,1.1406,1.1406,1.1406,1.1406,1.1445,1.1484,1.1484,1.1523,1.1523,1.1523,1.1562,1.1562,1.1562,1.1562,1.1562,1.1611,1.1611,1.1611,1.165,1.1729,1.1729,1.1729,1.1768,1.1768,1.1816,1.1855,1.1855,1.1855,1.1895,1.1895,1.1943,1.1943,1.1943,1.1982,1.1982,1.1982,1.1982,1.2021,1.2021,1.207,1.207,1.2109,1.2109,1.2109,1.2158,1.2158,1.2158,1.2158,1.2197,1.2197,1.2197,1.2246,1.2246,1.2246,1.2246,1.2295,1.2295,1.2334,1.2383,1.2383,1.2383,1.2432,1.2432,1.2471,1.2471,1.2471,1.2471,1.2471,1.2471,1.2471,1.2471,1.2471,1.2471,1.252,1.2568,1.2617,1.2666,1.2715,1.2715,1.2715,1.2715,1.2764,1.2764,1.2764,1.2812,1.2812,1.2812,1.291,1.291,1.291,1.291,1.291,1.2959,1.2959,1.2959,1.2959,1.3008,1.3008,1.3008,1.3057,1.3057,1.3115,1.3115,1.3115,1.3115,1.3164,1.3164,1.3164,1.3164,1.3213,1.3271,1.3271,1.332,1.332,1.332,1.3369,1.3369,1.3428,1.3486,1.3486,1.3486,1.3486,1.3486,1.3486,1.3535,1.3535,1.3535,1.3535,1.3535,1.3594,1.3643,1.3594,1.3643,1.3643,1.3701,1.3701,1.3701,1.376,1.376,1.376,1.376,1.3877,1.3936,1.3936,1.3936,1.3936,1.3936,1.3936,1.3994,1.3994,1.3994,1.3994,1.4053,1.4111,1.4111,1.417,1.4229,1.4229,1.4229,1.4287,1.4287,1.4287,1.4287,1.4287,1.4355,1.4355,1.4355,1.4355,1.4355,1.4414,1.4414,1.4414,1.4473,1.4473,1.4541,1.4541,1.4541,1.4541,1.46,1.46,1.46,1.4668,1.4668,1.4727,1.4727,1.4727,1.4727,1.4795,1.4795,1.4795,1.4863,1.4863,1.4863,1.4863,1.4932,1.4932,1.5,1.5,1.5,1.5059,1.5059,1.5,1.5,1.3877,1.3936,1.3936,1.3877,1.3818,1.3818,1.3818,1.377,1.377,1.377,1.377,1.3711,1.3711,1.3711,1.3711,1.3711,1.3711,1.3711,1.3711,1.3711,1.3711,1.377,1.3711,1.3711,1.3711,1.3711,1.3711,1.3711,1.3711,1.3652,1.3652,1.3652,1.3711,1.3711,1.3652,1.3652,1.3652,1.3652,1.3711,1.3652,1.3652,1.3652,1.3652,1.3652,1.3652,1.3652,1.3604,1.3652,1.3604,1.3604,1.3604,1.3604,1.3604,1.3604,1.3604,1.3604,1.3604,1.3604,1.3604,1.3604,1.3604,1.3604,1.3545,1.3604,1.3604,0,1.6318,0,1.6396,1.6475,1.6475,1.6553,1.6475,1.6475,1.6396,1.6396,1.6318,1.6318,1.6396,1.6318,0,0,0,0,0,1.3438,1.3389,1.333,1.333,1.3389,1.3389,1.3389,1.333,1.333,1.333,1.333,1.3281,1.3281,1.3281,1.3281,1.3281,1.3232,1.3232,1.3232,1.3232,1.3232,1.3232,1.3232,1.3232,1.3281,1.3281,1.3232,1.3232,1.3232,1.3232,1.3174,1.3174,1.3174,1.3174,1.3125,1.3232,1.3232,1.3232,1.3232,1.3232,1.3174,1.3174,1.3125,1.3125,1.3076,1.3076,1.3076,1.3076,1.3076,1.3027,1.3076,1.3076,1.3076,1.3027,1.3076,1.3076,1.3076,1.3027,1.3027,1.3027,1.3076,1.3076,1.3076,1.3027,1.3027,1.2979,1.2979,1.3027,1.4004,1.4004,1.3945,1.3945,1.4004,1.4004,1.4004,1.4004,1.4004,1.4004,1.4004,1.3945,1.3945,1.3945,1.3945,1.3887,1.3887,1.3887,1.3887,1.3828,1.3828,1.3828,1.3838,1.3838,1.3779,1.3779,1.3779,1.3779,1.3779,1.3779,1.3779,1.3779,1.3779,1.3779,1.3779,1.3779,1.3779,1.3721,1.3721,1.3721,1.3779,1.3721,1.3721,1.3721,1.3721,1.3721,1.3779,0,1.542,1.5352,1.5352,1.5352,1.5283,1.5283,1.5283,1.5283,1.5283,1.5283,1.5283,1.5283,1.5283,1.5215,1.5215,1.5215,1.5215,1.5146,1.5146,1.5146,1.5078,1.5078,1.5078,1.501,1.5078,1.5078,1.5078,1.501,1.501,1.4941,1.4951,1.4951,1.4951,1.4951,1.4951,1.4951,1.4951,1.4951,1.4883,1.4883,1.4814,1.4814,1.4814,1.4814,1.4814,1.4746,0,0,0,0,0,0,0,0,0,0,0,0,0,0,0,0,0,0,0,0,0,0,0,0,0,0,0,0
1.1367,1.1367,1.1367,1.1406,1.1406,1.1406,1.1406,1.1445,1.1484,1.1523,1.1523,1.1523,1.1523,1.1562,1.1562,1.1562,1.1562,1.1611,1.1611,1.165,1.165,1.165,1.1729,1.1729,1.1729,1.1768,1.1816,1.1855,1.1816,1.1855,1.1855,1.1895,1.1895,1.1895,1.1943,1.1943,1.1943,1.1943,1.1982,1.1982,1.2021,1.2021,1.207,1.207,1.2109,1.2109,1.2109,1.2158,1.2158,1.2197,1.2158,1.2197,1.2197,1.2197,1.2197,1.2246,1.2246,1.2295,1.2295,1.2295,1.2334,1.2383,1.2383,1.2432,1.2432,1.2432,1.2471,1.2471,1.2471,1.2471,1.2471,1.2471,1.2471,1.2471,1.2471,1.2471,1.252,1.2568,1.2617,1.2666,1.2715,1.2715,1.2715,1.2715,1.2764,1.2764,1.2764,1.2812,1.2812,1.2812,1.291,1.291,1.291,1.291,1.2959,1.2959,1.3008,1.2959,1.2959,1.3008,1.3008,1.3008,1.3057,1.3057,1.3057,1.3115,1.3164,1.3164,1.3164,1.3164,1.3164,1.3213,1.3213,1.3271,1.332,1.332,1.332,1.332,1.3379,1.3379,1.3428,1.3486,1.3486,1.3486,1.3486,1.3535,1.3486,1.3535,1.3535,1.3535,1.3535,1.3594,1.3594,1.3652,1.3594,1.3701,1.3701,1.3701,1.3701,1.376,1.3818,1.3818,1.376,1.376,1.3877,1.3936,1.3936,1.3936,1.3936,1.3936,1.3936,1.3936,1.3936,1.3994,1.3994,1.3994,1.4111,1.417,1.417,1.4229,1.4229,1.4229,1.4287,1.4287,1.4287,1.4355,1.4287,1.4287,1.4355,1.4355,1.4355,1.4414,1.4473,1.4414,1.4473,1.4473,1.4473,1.4473,1.4541,1.46,1.4541,1.46,1.46,1.46,1.4668,1.4668,1.4727,1.4727,1.4736,1.4736,1.4795,1.4795,1.4795,1.4795,1.4863,1.4863,1.4863,1.4932,1.4932,1.5,1.5,1.5,1.5,1.5068,1.5068,1.5068,1.3936,1.3936,1.3936,1.3877,1.3818,1.3818,1.3818,1.377,1.377,1.377,1.377,1.377,1.377,1.377,1.3711,1.3711,1.3711,1.3711,1.3711,1.3711,1.3652,1.377,1.377,1.3711,1.3711,1.3711,1.3711,1.3711,1.3711,1.3711,1.3652,1.3711,1.3711,1.3711,1.3652,1.3711,1.3652,1.3652,1.3711,1.3652,1.3652,1.3652,1.3652,1.3652,1.3652,1.3652,1.3652,1.3652,1.3652,1.3652,1.3604,1.3604,1.3604,1.3604,1.3604,1.3545,1.3604,1.3604,1.3604,1.3604,1.3604,1.3604,1.3545,1.3604,1.3545,0,1.6318,0,1.6475,1.6562,1.6562,1.6562,1.6562,1.6562,1.6475,1.6475,1.6396,1.6396,1.6396,1.6318,0,0,0,0,0,1.3496,1.3389,1.333,1.333,1.3389,1.3389,1.3389,1.3389,1.3389,1.3389,1.333,1.333,1.3281,1.3281,1.3281,1.3281,1.3281,1.3281,1.3232,1.3232,1.3281,1.3232,1.3232,1.3232,1.3281,1.3281,1.3281,1.3232,1.3232,1.3232,1.3232,1.3232,1.3174,1.3174,1.3125,1.3174,1.3174,1.3232,1.3232,1.3232,1.3174,1.3174,1.3125,1.3125,1.3125,1.3125,1.3076,1.3076,1.3076,1.3076,1.3184,1.3076,1.3076,1.3076,1.3076,1.3076,1.3076,1.3076,1.3027,1.3027,1.3076,1.3076,1.3076,1.3076,1.3027,1.2979,1.2979,1.4062,1.4062,1.4004,1.3945,1.3945,1.4004,1.4004,1.4004,1.4004,1.4004,1.4062,1.4004,1.4004,1.4004,1.3945,1.3945,1.3945,1.3945,1.3887,1.3887,1.3887,1.3838,1.3838,1.3838,1.3838,1.3838,1.3779,1.3779,1.3779,1.3779,1.3779,1.3779,1.3779,1.3779,1.3779,1.3779,1.3779,1.3779,1.3779,1.3779,1.3779,1.3779,1.3779,1.3721,1.3721,1.3721,1.3721,0,1.5352,1.543,1.5352,1.5352,1.5352,1.5352,1.5283,1.5283,1.5283,1.5283,1.5283,1.5283,1.5283,1.5283,1.5283,1.5215,1.5215,1.5215,1.5215,1.5215,1.5146,1.5146,1.5146,1.5078,1.5078,1.5078,1.5078,1.5078,1.5078,1.5078,1.501,1.4951,1.501,1.501,1.4951,1.4951,1.4883,1.4951,1.4883,1.4883,1.4883,1.4814,1.4814,1.4814,1.4814,1.4814,1.4746,0,0,0,0,0,0,0,0,0,0,0,0,0,0,0,0,0,0,0,0,0,0,0,0,0,0,0,0
1.1406,1.1406,1.1406,1.1406,1.1406,1.1406,1.1445,1.1484,1.1484,1.1484,1.1523,1.1523,1.1523,1.1562,1.1562,1.1562,1.1572,1.1611,1.1611,1.165,1.1611,1.1689,1.1729,1.1729,1.1729,1.1768,1.1816,1.1816,1.1816,1.1855,1.1855,1.1855,1.1895,1.1895,1.1943,1.1943,1.1943,1.1982,1.1982,1.1982,1.207,1.207,1.207,1.2109,1.2109,1.2109,1.2109,1.2158,1.2158,1.2197,1.2158,1.2197,1.2197,1.2197,1.2197,1.2246,1.2246,1.2295,1.2295,1.2334,1.2334,1.2383,1.2383,1.2432,1.2432,1.2471,1.2471,1.2471,1.2471,1.2471,1.2471,1.252,1.248,1.252,1.252,1.252,1.2568,1.2568,1.2617,1.2666,1.2666,1.2666,1.2666,1.2715,1.2764,1.2764,1.2764,1.2812,1.2812,1.2812,1.291,1.291,1.291,1.291,1.2959,1.2959,1.3008,1.3008,1.3008,1.3008,1.3008,1.3057,1.3057,1.3057,1.3057,1.3115,1.3164,1.3164,1.3164,1.3164,1.3164,1.3213,1.3213,1.3271,1.332,1.332,1.332,1.332,1.3379,1.3428,1.3428,1.3486,1.3486,1.3486,1.3535,1.3535,1.3535,1.3535,1.3535,1.3535,1.3594,1.3594,1.3594,1.3652,1.3652,1.3701,1.3701,1.3701,1.376,1.376,1.3818,1.3818,1.376,1.376,1.3936,1.3877,1.3936,1.3936,1.3936,1.3936,1.3936,1.3936,1.3994,1.3994,1.3994,0,1.4111,1.4111,1.417,1.4229,1.4229,1.4287,1.4287,1.4287,1.4287,1.4287,1.4287,1.4287,1.4355,1.4355,1.4355,1.4355,1.4473,1.4473,1.4473,1.4473,1.4541,1.4541,1.4541,1.46,1.4541,1.46,1.46,1.4668,1.4668,1.4668,1.4736,1.4736,1.4736,1.4736,1.4795,1.4795,1.4795,1.4863,1.4863,1.4863,1.4932,1.4932,1.5,1.5,1.5,1.5,1.5,1.5068,1.5068,1.5068,1.5,1.3936,1.3936,1.3936,1.3818,1.3818,1.3818,1.377,1.377,1.377,1.377,1.377,1.377,1.377,1.377,1.377,1.377,1.3711,1.3711,1.3711,1.3652,1.3711,1.377,1.3711,1.3711,1.3711,1.3711,1.3711,1.377,1.3652,1.3711,1.3711,1.377,1.377,1.377,1.377,1.3711,1.3711,1.377,1.3711,1.3711,1.3711,1.3652,1.3652,1.3652,1.3652,1.3652,1.3652,1.3652,1.3604,1.3604,1.3604,1.3604,1.3604,1.3604,1.3604,1.3604,1.3604,1.3604,1.3604,1.3604,1.3604,1.3604,1.3604,1.3604,1.3604,0,0,1.6562,1.6641,1.6641,1.6641,1.6641,1.6641,1.6562,1.6562,1.6475,1.6475,1.6475,1.6475,1.6475,0,0,0,0,1.3496,1.3389,1.3281,1.333,1.333,1.333,1.333,1.333,1.333,1.333,1.3281,1.333,1.3281,1.3281,1.3281,1.3281,1.3281,1.3281,1.3281,1.3232,1.3281,1.3232,1.3232,1.3281,1.3281,1.3281,1.3281,1.3232,1.3232,1.3232,1.3232,1.3232,1.3232,1.3232,1.3232,1.3232,1.3232,1.3232,1.3232,1.3232,1.3184,1.3184,1.3125,1.3125,1.3125,1.3125,1.3076,1.3076,1.3076,1.3076,1.3076,1.3076,1.3076,1.3076,1.3076,1.3076,1.3076,1.3076,1.3027,1.3076,1.3076,1.3076,1.3076,1.3076,1.3027,1.3027,1.3027,1.4062,1.4004,1.4004,1.4004,1.3945,1.4004,1.4004,1.4004,1.4004,1.4004,1.4004,1.4004,1.4004,1.3945,1.3945,1.3945,1.3945,1.3945,1.3838,1.3838,1.3887,1.3838,1.3838,1.3779,1.3838,1.3838,1.3838,1.3779,1.3779,1.3779,1.3779,1.3779,1.3779,1.3779,1.3779,1.3779,1.3779,1.3779,1.3779,1.3721,1.3779,1.3721,1.3721,1.3721,1.3721,1.3721,1.3662,0,1.543,1.5352,1.5352,1.5283,1.5283,1.5352,1.5352,1.5283,1.5283,1.5283,1.5283,1.5283,1.5283,1.5283,1.5283,1.5215,1.5215,1.5215,1.5215,1.5146,1.5146,1.5146,1.5146,1.5078,1.5078,1.5078,1.5078,1.5078,1.5078,1.5078,1.501,1.501,1.501,1.501,1.502,1.4951,1.4951,1.4951,1.4883,1.4951,1.4883,1.4814,1.4814,1.4814,1.4814,1.4814,1.4756,0,0,0,0,0,0,0,0,0,0,0,0,0,0,0,0,0,0,0,0,0,0,0,0,0,0,0,0
1.1406,1.1406,1.1406,1.1406,1.1445,1.1445,1.1484,1.1484,1.1484,1.1484,1.1523,1.1523,1.1523,1.1572,1.1572,1.1572,1.1572,1.1611,1.165,1.165,1.165,1.1689,1.1729,1.1729,1.1768,1.1768,1.1816,1.1855,1.1855,1.1855,1.1855,1.1895,1.1895,1.1895,1.1943,1.1943,1.1982,1.1982,1.1982,1.2021,1.207,1.207,1.207,1.207,1.2109,1.2109,1.2109,1.2158,1.2158,1.2158,1.2158,1.2158,1.2207,1.2207,1.2207,1.2207,1.2246,1.2295,1.2295,1.2334,1.2334,1.2383,1.2383,1.2432,1.2432,1.248,1.248,1.248,1.248,1.248,1.248,1.252,1.252,1.252,1.252,1.252,1.252,1.2568,1.2617,1.2666,1.2666,1.2666,1.2715,1.2715,1.2764,1.2764,1.2812,1.2812,1.2812,1.2861,1.291,1.291,1.291,1.291,1.2959,1.2959,1.3008,1.3008,1.3008,1.3066,1.3066,1.3066,1.3066,1.3115,1.3115,1.3164,1.3164,1.3164,1.3164,1.3213,1.3164,1.3271,1.3213,1.3213,1.3271,1.332,1.332,1.332,1.3379,1.3379,1.3428,1.3428,1.3428,1.3486,1.3535,1.3535,1.3535,1.3535,1.3535,1.3535,1.3594,1.3652,1.3652,1.3652,1.3652,1.3701,1.3701,1.3701,1.3701,1.376,1.376,1.376,1.376,1.376,1.3818,1.3877,1.3936,1.3936,1.3936,1.3936,1.3936,1.3994,1.3994,1.3994,1.3994,1.4053,1.4111,1.4111,1.4111,1.4229,1.4287,1.4287,1.4287,1.4287,1.4287,1.4287,1.4355,1.4414,1.4355,1.4355,1.4355,1.4473,1.4473,1.4473,1.4473,1.4541,1.4541,1.4541,1.4541,1.4541,1.4541,1.46,1.4541,1.4668,1.4668,1.4736,1.4736,1.4795,1.4795,1.4795,1.4795,1.4795,1.4863,1.4863,1.4932,1.4932,1.4863,1.4863,1.4932,1.5,1.5,1.5,1.5,1.5068,1.5068,1.5068,1.5,1.3936,1.3936,1.3877,1.3818,1.3818,1.3828,1.377,1.377,1.377,1.377,1.377,1.377,1.377,1.377,1.377,1.377,1.3711,1.3711,1.3711,1.3711,1.377,1.377,1.377,1.3711,1.3711,1.3711,1.3711,1.377,1.3711,1.3711,1.3711,1.3711,1.3711,1.3711,1.3711,1.3711,1.3711,1.377,1.3711,1.3711,1.3711,1.3652,1.3652,1.3662,1.3662,1.3604,1.3662,1.3604,1.3604,1.3604,1.3604,1.3604,1.3604,1.3604,1.3604,1.3604,1.3604,1.3604,1.3604,1.3604,1.3604,1.3604,1.3662,1.3604,1.3662,0,0,1.6562,1.6562,1.6641,1.6641,1.6641,1.6641,1.6562,1.6641,1.6562,1.6562,1.6562,1.6396,1.6396,0,0,0,0,1.3438,1.333,1.3281,1.3281,1.333,1.333,1.333,1.3281,1.3281,1.3281,1.3281,1.333,1.3281,1.3281,1.3281,1.3281,1.3281,1.3281,1.3232,1.3232,1.3281,1.3232,1.3281,1.3281,1.3281,1.3281,1.3281,1.3232,1.3232,1.3232,1.3232,1.3232,1.3184,1.3184,1.3184,1.3184,1.3184,1.3232,1.3232,1.3232,1.3232,1.3232,1.3184,1.3232,1.3125,1.3184,1.3125,1.3076,1.3076,1.3076,1.3076,1.3076,1.3125,1.3076,1.3076,1.3125,1.3076,1.3076,1.3076,1.3076,1.3076,1.3076,1.3076,1.3076,1.3076,1.3027,1.3027,1.4062,1.4004,1.3945,1.3945,1.3945,1.4004,1.4004,1.4004,1.4004,1.4004,1.4004,1.4004,1.4004,1.3945,1.3945,1.3945,1.3896,1.3945,1.3896,1.3896,1.3896,1.3896,1.3896,1.3838,1.3896,1.3896,1.3838,1.3779,1.3779,1.3779,1.3779,1.3779,1.3779,1.3779,1.3779,1.3779,1.3779,1.3779,1.3779,1.3721,1.3721,1.3721,1.3721,1.3721,1.3721,1.3721,1.3672,0,1.543,1.5361,1.5361,1.5283,1.5283,1.5361,1.5283,1.5283,1.5283,1.5283,1.5283,1.5283,1.5283,1.5283,1.5283,1.5215,1.5215,1.5215,1.5215,1.5146,1.5215,1.5146,1.5146,1.5078,1.5078,1.5146,1.5078,1.5078,1.502,1.502,1.502,1.502,1.502,1.502,1.502,1.502,1.4951,1.4951,1.4951,1.4951,1.4883,1.4814,1.4814,1.4814,1.4814,1.4814,1.4756,0,0,0,0,0,0,0,0,0,0,0,0,0,0,0,0,0,0,0,0,0,0,0,0,0,0,0,0
1.1406,1.1406,1.1406,1.1445,1.1445,1.1445,1.1484,1.1484,1.1484,1.1484,1.1533,1.1533,1.1533,1.1572,1.1572,1.1572,1.1611,1.1611,1.165,1.1689,1.165,1.1689,1.1729,1.1777,1.1777,1.1777,1.1816,1.1855,1.1855,1.1855,1.1855,1.1895,1.1895,1.1943,1.1943,1.1982,1.1982,1.1982,1.2031,1.2031,1.2031,1.2031,1.207,1.207,1.2109,1.2109,1.2109,1.2158,1.2158,1.2207,1.2207,1.2207,1.2207,1.2207,1.2207,1.2246,1.2246,1.2295,1.2295,1.2334,1.2334,1.2383,1.2383,1.2432,1.2432,1.2432,1.248,1.248,1.248,1.248,1.252,1.252,1.252,1.252,1.252,1.252,1.2568,1.2617,1.2617,1.2666,1.2666,1.2715,1.2715,1.2715,1.2764,1.2764,1.2812,1.2812,1.2812,1.2812,1.291,1.291,1.291,1.291,1.2959,1.3008,1.3008,1.3008,1.3066,1.3066,1.3066,1.3066,1.3066,1.3066,1.3115,1.3164,1.3164,1.3164,1.3213,1.3213,1.3213,1.3213,1.3213,1.3271,1.3271,1.332,1.332,1.332,1.3379,1.3428,1.3428,1.3486,1.3486,1.3486,1.3535,1.3535,1.3535,1.3535,1.3535,1.3535,1.3594,1.3652,1.3652,1.3701,1.3701,1.3701,1.376,1.376,1.376,1.3818,1.3818,1.3818,1.3818,1.3818,1.3936,1.3877,1.3936,1.3936,1.3936,1.3936,1.3994,1.3994,1.3994,1.3994,1.4053,1.4053,1.4111,1.4111,1.417,1.4229,1.4287,1.4287,1.4287,1.4297,1.4297,1.4355,1.4355,1.4355,1.4355,1.4355,1.4355,1.4482,1.4482,1.4482,1.4482,1.4482,1.4541,1.4541,1.4541,1.4541,1.4609,1.4668,1.4668,1.4668,1.4736,1.4736,1.4795,1.4795,1.4863,1.4863,1.4863,1.4863,1.4932,1.4932,1.4932,1.4932,1.4932,1.5,1.5,1.5,1.5,1.5,1.5,1.5,1.5068,1.5068,1.5068,1.3936,1.3936,1.3877,1.3877,1.3828,1.3828,1.3828,1.377,1.377,1.377,1.377,1.377,1.377,1.377,1.377,1.377,1.3711,1.3711,1.3711,1.3711,1.377,1.377,1.377,1.377,1.3711,1.377,1.377,1.377,1.377,1.3711,1.3711,1.3711,1.3711,1.3711,1.3652,1.3711,1.3711,1.3711,1.3711,1.3711,1.3711,1.3662,1.3662,1.3662,1.3662,1.3604,1.3662,1.3662,1.3604,1.3604,1.3604,1.3604,1.3604,1.3604,1.3604,1.3604,1.3662,1.3604,1.3604,1.3604,1.3604,1.3662,1.3662,1.3662,1.3662,0,0,1.6562,1.6562,1.6641,1.6641,1.6562,1.6562,1.6562,1.6562,1.6562,1.6475,1.6475,1.6396,1.6396,0,0,0,0,1.3496,1.333,1.3281,1.3232,1.3281,1.3281,1.3281,1.3281,1.3281,1.3281,1.334,1.3281,1.3281,1.3281,1.3281,1.3281,1.3281,1.3281,1.3232,1.3232,1.3281,1.3232,1.3281,1.3281,1.3281,1.3281,1.3281,1.3232,1.3232,1.3232,1.3232,1.3232,1.3232,1.3232,1.3184,1.3232,1.3184,1.3232,1.3232,1.3184,1.3232,1.3232,1.3184,1.3232,1.3184,1.3184,1.3184,1.3184,1.3184,1.3184,1.3184,1.3076,1.3076,1.3076,1.3076,1.3125,1.3125,1.3076,1.3076,1.3076,1.3125,1.3076,1.3076,1.3076,1.3076,1.3027,1.3027,1.4004,1.4004,1.3945,1.3945,1.3945,1.4004,1.4004,1.4004,1.4004,1.4004,1.4004,1.4004,1.4004,1.3945,1.3955,1.3955,1.3955,1.3955,1.3896,1.3896,1.3896,1.3896,1.3896,1.3838,1.3896,1.3896,1.3838,1.3838,1.3779,1.3779,1.3779,1.3779,1.3779,1.3779,1.3779,1.3779,1.3779,1.3779,1.3779,1.3779,1.3779,1.3721,1.3721,1.3721,1.3721,1.3721,1.3721,0,1.543,1.5361,1.5361,1.5361,1.5283,1.5361,1.5361,1.5361,1.5283,1.5283,1.5215,1.5283,1.5283,1.5283,1.5283,1.5215,1.5215,1.5215,1.5215,1.5215,1.5215,1.5146,1.5215,1.5078,1.5078,1.5146,1.5078,1.5078,1.5078,1.502,1.5088,1.502,1.502,1.502,1.502,1.502,1.4951,1.4951,1.4951,1.4951,1.4883,1.4814,1.4814,1.4814,1.4814,1.4814,1.4756,0,0,0,0,0,0,0,0,0,0,0,0,0,0,0,0,0,0,0,0,0,0,0,0,0,0,0,0
1.1406,1.1406,1.1406,1.1445,1.1445,1.1494,1.1494,1.1494,1.1533,1.1533,1.1533,1.1533,1.1572,1.1572,1.1572,1.1611,1.1611,1.165,1.1689,1.1689,1.1689,1.1689,1.1777,1.1777,1.1777,1.1816,1.1816,1.1855,1.1855,1.1855,1.1895,1.1895,1.1943,1.1943,1.1982,1.1982,1.2031,1.2031,1.2031,1.2031,1.2031,1.2031,1.207,1.207,1.2119,1.2119,1.2119,1.2158,1.2158,1.2158,1.2207,1.2207,1.2207,1.2246,1.2246,1.2246,1.2295,1.2295,1.2334,1.2334,1.2334,1.2383,1.2432,1.2432,1.2432,1.2432,1.248,1.248,1.248,1.248,1.252,1.2568,1.252,1.2568,1.2568,1.2568,1.2568,1.2617,1.2666,1.2666,1.2666,1.2715,1.2764,1.2764,1.2764,1.2764,1.2812,1.2812,1.2812,1.2861,1.291,1.291,1.291,1.2959,1.2959,1.3008,1.3008,1.3008,1.3066,1.3066,1.3066,1.3066,1.3066,1.3066,1.3115,1.3164,1.3164,1.3223,1.3223,1.3223,1.3271,1.3271,1.3271,1.3271,1.3271,1.332,1.332,1.332,1.3379,1.3428,1.3428,1.3486,1.3486,1.3486,1.3535,1.3535,1.3535,1.3535,1.3535,1.3535,1.3594,1.3652,1.3652,1.3701,1.3701,1.3701,1.376,1.376,1.3818,1.3877,1.3877,1.3877,1.3877,1.3877,1.3877,1.3877,1.3936,1.3936,1.3936,1.3936,1.3994,1.3994,1.3994,1.3994,1.4053,1.4053,1.4111,1.4111,1.417,1.4297,1.4297,1.4297,1.4297,1.4297,1.4355,1.4355,1.4414,1.4355,1.4355,1.4355,1.4355,1.4482,1.4482,1.4482,1.4482,1.4482,1.4541,1.4609,1.4609,1.4609,1.4609,1.4668,1.4609,1.4668,1.4736,1.4736,1.4795,1.4795,1.4863,1.4863,1.4863,1.4863,1.4932,1.4932,1.4932,1.4932,1.4932,1.5,1.5,1.5,1.5,1.5,1.5,1.5,1.5068,1.5068,1.3994,1.3994,1.3936,1.3887,1.3877,1.3828,1.3828,1.3828,1.377,1.377,1.377,1.377,1.377,1.377,1.377,1.377,1.377,1.377,1.3711,1.3711,1.3652,1.377,1.3711,1.377,1.3711,1.3711,1.377,1.3711,1.377,1.3711,1.377,1.3711,1.377,1.377,1.377,1.3711,1.3711,1.3711,1.377,1.3711,1.3711,1.3662,1.3662,1.3662,1.3662,1.3662,1.3662,1.3662,1.3662,1.3662,1.3604,1.3604,1.3604,1.3604,1.3604,1.3604,1.3604,1.3662,1.3662,1.3604,1.3604,1.3662,1.3662,1.3662,1.3662,1.3662,0,0,1.6641,1.6562,1.6641,1.6641,1.6641,1.6641,1.6562,1.6562,1.6484,1.6484,1.6484,1.6318,1.6396,0,0,0,0,1.3281,1.334,1.3281,1.3281,1.3281,1.3281,1.3281,1.3281,1.3281,1.3281,1.334,1.334,1.3281,1.3281,1.3281,1.3281,1.3281,1.3281,1.3281,1.3281,1.3281,1.3281,1.3281,1.3281,1.3232,1.3281,1.3281,1.3232,1.3232,1.3281,1.3281,1.3232,1.3232,1.3232,1.3184,1.3184,1.3232,1.3232,1.3232,1.3232,1.3232,1.3232,1.3232,1.3232,1.3232,1.3184,1.3184,1.3184,1.3184,1.3184,1.3232,1.3135,1.3135,1.3076,1.3125,1.3184,1.3184,1.3135,1.3135,1.3135,1.3135,1.3076,1.3135,1.3076,1.3076,1.3076,1.3076,1.4004,1.4004,1.3945,1.3945,1.3945,1.4004,1.4004,1.4004,1.4004,1.4004,1.4004,1.4004,1.3955,1.3955,1.3955,1.3955,1.3955,1.3955,1.3896,1.3838,1.3838,1.3896,1.3896,1.3838,1.3896,1.3838,1.3896,1.3779,1.3779,1.3779,1.3779,1.3779,1.3779,1.3779,1.3779,1.3779,1.3779,1.3779,1.3779,1.3779,1.3779,1.3721,1.3721,1.3721,1.3721,1.3721,1.3721,0,1.5361,1.5361,1.5361,1.5361,1.5361,1.5361,1.5361,1.5361,1.5293,1.5293,1.5293,1.5293,1.5293,1.5293,1.5293,1.5215,1.5215,1.5215,1.5215,1.5146,1.5215,1.5146,1.5146,1.5088,1.5088,1.5146,1.5088,1.5088,1.5088,1.5088,1.5088,1.5088,1.502,1.502,1.502,1.502,1.4951,1.4951,1.4951,1.4951,1.4883,1.4814,1.4883,1.4814,1.4814,1.4814,1.4756,0,0,0,0,0,0,0,0,0,0,0,0,0,0,0,0,0,0,0,0,0,0,0,0,0,0,0,0
1.1416,1.1455,1.1455,1.1455,1.1494,1.1494,1.1494,1.1494,1.1533,1.1533,1.1533,1.1533,1.1572,1.1572,1.1572,1.1611,1.1611,1.165,1.165,1.1689,1.1689,1.1689,1.1777,1.1777,1.1777,1.1816,1.1855,1.1855,1.1855,1.1895,1.1895,1.1904,1.1943,1.1943,1.1943,1.1943,1.1982,1.2031,1.2031,1.2031,1.207,1.207,1.207,1.207,1.207,1.2119,1.2119,1.2158,1.2158,1.2207,1.2207,1.2207,1.2207,1.2246,1.2246,1.2246,1.2295,1.2334,1.2344,1.2383,1.2383,1.2383,1.2432,1.2432,1.2432,1.2432,1.248,1.248,1.248,1.252,1.252,1.252,1.252,1.2568,1.2568,1.2568,1.2568,1.2617,1.2666,1.2666,1.2666,1.2715,1.2715,1.2764,1.2764,1.2764,1.2812,1.2812,1.2812,1.2812,1.291,1.291,1.291,1.2959,1.2959,1.3008,1.3008,1.3066,1.3066,1.3066,1.3066,1.3066,1.3066,1.3066,1.3115,1.3164,1.3164,1.3223,1.3271,1.3271,1.3271,1.3271,1.3271,1.332,1.332,1.332,1.3379,1.332,1.3428,1.3428,1.3428,1.3486,1.3486,1.3486,1.3486,1.3545,1.3545,1.3545,1.3545,1.3545,1.3594,1.3652,1.3652,1.3711,1.376,1.376,1.376,1.3818,1.3818,1.3877,1.3936,1.3936,1.3877,1.3877,1.3877,1.3877,1.3936,1.3936,1.3936,1.3936,1.3994,1.3994,1.3994,1.3994,1.4053,1.4111,1.4111,1.417,1.417,1.4229,1.4297,1.4297,1.4297,1.4355,1.4355,1.4355,1.4297,1.4355,1.4297,1.4355,1.4355,1.4414,1.4482,1.4482,1.4482,1.4541,1.4541,1.4541,1.4609,1.4609,1.4609,1.4668,1.4668,1.4668,1.4736,1.4805,1.4805,1.4805,1.4863,1.4863,1.4863,1.4863,1.4932,1.4932,1.4932,1.5,1.4932,1.5,1.5068,1.5068,1.5,1.5,1.5,1.5,1.5068,1.5068,1.3994,1.3936,1.3936,1.3887,1.3828,1.3828,1.3828,1.3828,1.377,1.377,1.377,1.377,1.377,1.377,1.377,1.377,1.377,1.3711,1.3711,1.3711,1.3711,1.377,1.3711,1.377,1.3711,1.3711,1.377,1.3711,1.377,1.377,1.377,1.3828,1.3828,1.377,1.377,1.377,1.3711,1.3711,1.377,1.3711,1.3711,1.3711,1.3711,1.3662,1.3662,1.3662,1.3662,1.3662,1.3662,1.3662,1.3604,1.3604,1.3604,1.3604,1.3604,1.3604,1.3604,1.3662,1.3604,1.3604,1.3604,1.3662,1.3662,1.3662,1.3662,1.3662,0,1.6562,1.6641,1.6641,1.6641,1.6641,1.6562,1.6562,1.6562,1.6562,1.6562,1.6562,1.6484,1.6396,1.6396,0,0,0,1.3389,1.3389,1.3389,1.3281,1.3281,1.334,1.334,1.334,1.334,1.334,1.334,1.334,1.334,1.3281,1.3281,1.3281,1.3281,1.3281,1.3281,1.3281,1.3281,1.3281,1.3281,1.3281,1.3281,1.3281,1.3281,1.3281,1.3232,1.3232,1.3281,1.3232,1.3232,1.3232,1.3232,1.3232,1.3232,1.3232,1.3232,1.3232,1.3232,1.3232,1.3232,1.3232,1.3232,1.3232,1.3232,1.3232,1.3184,1.3184,1.3232,1.3232,1.3232,1.3135,1.3135,1.3135,1.3232,1.3184,1.3184,1.3135,1.3135,1.3135,1.3135,1.3135,1.3076,1.3076,1.3076,1.4062,1.4004,1.4004,1.3955,1.3955,1.3955,1.4014,1.4014,1.4014,1.4014,1.4014,1.4014,1.4014,1.3955,1.3955,1.3955,1.3955,1.3955,1.3955,1.3896,1.3838,1.3896,1.3896,1.3896,1.3838,1.3838,1.3838,1.3838,1.3779,1.3838,1.3779,1.3779,1.3779,1.3779,1.3779,1.3779,1.3779,1.3779,1.3779,1.3779,1.3721,1.3779,1.3721,1.3721,1.3721,1.3721,1.3721,1.3721,0,1.5361,1.5361,1.5361,1.5361,1.5361,1.5361,1.5361,1.5361,1.5293,1.5361,1.5293,1.5293,1.5293,1.5293,1.5293,1.5225,1.5225,1.5225,1.5225,1.5156,1.5156,1.5156,1.5156,1.5088,1.5088,1.5156,1.5156,1.5088,1.5088,1.5156,1.5088,1.5088,1.5088,1.502,1.502,1.502,1.4951,1.4951,1.4951,1.4951,1.4951,1.4883,1.4883,1.4814,1.4814,1.4814,1.4756,0,0,0,0,0,0,0,0,0,0,0,0,0,0,0,0,0,0,0,0,0,0,0,0,0,0,0,0
1.1416,1.1455,1.1455,1.1455,1.1455,1.1494,1.1494,1.1494,1.1533,1.1533,1.1533,1.1572,1.1572,1.1572,1.1572,1.1611,1.1611,1.165,1.1689,1.1689,1.1689,1.1689,1.1777,1.1777,1.1777,1.1816,1.1855,1.1855,1.1855,1.1904,1.1904,1.1943,1.1943,1.1943,1.1943,1.1943,1.1982,1.2031,1.2031,1.2031,1.207,1.207,1.207,1.207,1.2119,1.2119,1.2119,1.2158,1.2158,1.2207,1.2207,1.2207,1.2207,1.2246,1.2246,1.2246,1.2295,1.2295,1.2295,1.2383,1.2344,1.2383,1.2432,1.2432,1.2432,1.2432,1.248,1.248,1.2529,1.2529,1.2529,1.2568,1.2568,1.2568,1.2568,1.2568,1.2617,1.2617,1.2666,1.2666,1.2666,1.2715,1.2715,1.2764,1.2764,1.2764,1.2812,1.2812,1.2812,1.2812,1.291,1.291,1.291,1.2959,1.2959,1.3018,1.3066,1.3066,1.3066,1.3066,1.3066,1.3066,1.3066,1.3115,1.3115,1.3164,1.3223,1.3223,1.3271,1.3271,1.3271,1.3271,1.332,1.3271,1.332,1.332,1.3379,1.3379,1.3379,1.3428,1.3428,1.3486,1.3486,1.3545,1.3545,1.3545,1.3545,1.3545,1.3594,1.3594,1.3594,1.3711,1.3711,1.3711,1.3711,1.376,1.376,1.3818,1.3818,1.3818,1.3877,1.3936,1.3877,1.3936,1.3877,1.3877,1.3936,1.3936,1.3936,1.3994,1.3994,1.3994,1.3994,1.4053,1.4053,1.4111,1.4111,1.417,1.417,1.4297,1.4297,1.4297,1.4355,1.4355,1.4355,1.4355,1.4355,1.4355,1.4355,1.4355,1.4355,1.4414,1.4482,1.4482,1.4482,1.4541,1.4541,1.4541,1.4541,1.4609,1.4609,1.4609,1.4668,1.4668,1.4736,1.4805,1.4805,1.4805,1.4863,1.4863,1.4863,1.4863,1.4932,1.5,1.5,1.5,1.5,1.5,1.5068,1.5068,1.5,1.5,1.5,1.5,1.5,1.3945,1.3945,1.3945,1.3887,1.3828,1.3828,1.3828,1.3828,1.3828,1.377,1.377,1.377,1.377,1.377,1.377,1.377,1.377,1.377,1.3711,1.3711,1.3711,1.3711,1.377,1.377,1.3828,1.377,1.377,1.377,1.377,1.377,1.377,1.3828,1.3828,1.3828,1.377,1.377,1.377,1.377,1.377,1.3711,1.3711,1.3711,1.3711,1.3711,1.3711,1.3711,1.3662,1.3662,1.3662,1.3662,1.3662,1.3662,1.3662,1.3662,1.3604,1.3604,1.3604,1.3604,1.3604,1.3604,1.3604,1.3604,1.3662,1.3662,1.3662,1.3662,1.3662,0,1.6562,1.6641,1.6562,1.6562,1.6562,1.6562,1.6562,1.6562,1.6562,1.6562,1.6562,1.6484,1.6396,1.6396,0,0,0,1.3447,1.3447,1.3447,1.3389,1.334,1.3389,1.334,1.3281,1.334,1.334,1.334,1.334,1.3281,1.3281,1.3281,1.3281,1.3281,1.3281,1.3281,1.3281,1.3281,1.3281,1.3281,1.3281,1.3281,1.3281,1.3281,1.3281,1.3232,1.3232,1.3232,1.3232,1.3232,1.3232,1.3232,1.3232,1.3232,1.3232,1.3232,1.3232,1.3232,1.3232,1.3232,1.3232,1.3232,1.3232,1.3232,1.3232,1.3232,1.3232,1.3184,1.3232,1.3184,1.3184,1.3135,1.3135,1.3232,1.3232,1.3184,1.3184,1.3135,1.3135,1.3135,1.3135,1.3076,1.3076,1.3076,1.4072,1.4014,1.4014,1.3955,1.3955,1.3955,1.4014,1.4014,1.4014,1.4014,1.4014,1.4014,1.4014,1.4014,1.3955,1.3955,1.3955,1.3955,1.3955,1.3896,1.3896,1.3955,1.3955,1.3896,1.3896,1.3896,1.3896,1.3896,1.3838,1.3838,1.3838,1.3838,1.3779,1.3779,1.3779,1.3779,1.3779,1.3779,1.3779,1.3779,1.3779,1.3779,1.3721,1.3721,1.3721,1.3721,1.3721,1.373,0,1.5293,1.5361,1.5361,1.5361,1.5361,1.5361,1.5361,1.5361,1.5361,1.5361,1.5361,1.5361,1.5293,1.5293,1.5293,1.5293,1.5293,1.5225,1.5225,1.5156,1.5156,1.5156,1.5156,1.5088,1.5088,1.5156,1.5088,1.5156,1.5088,1.5088,1.5088,1.5088,1.5088,1.5088,1.502,1.502,1.4951,1.4951,1.4951,1.4951,1.4951,1.4883,1.4883,1.4824,1.4824,1.4756,1.4756,0,0,0,0,0,0,0,0,0,0,0,0,0,0,0,0,0,0,0,0,0,0,0,0,0,0,0,0
1.1416,1.1416,1.1455,1.1455,1.1494,1.1494,1.1494,1.1533,1.1533,1.1572,1.1572,1.1572,1.1572,1.1572,1.1572,1.1611,1.1611,1.165,1.1689,1.1689,1.1689,1.1689,1.1777,1.1777,1.1777,1.1816,1.1855,1.1904,1.1855,1.1904,1.1943,1.1943,1.1943,1.1943,1.1943,1.1943,1.1982,1.2031,1.2031,1.2031,1.207,1.207,1.207,1.207,1.2119,1.2158,1.2158,1.2158,1.2158,1.2207,1.2207,1.2246,1.2246,1.2246,1.2246,1.2246,1.2295,1.2295,1.2344,1.2383,1.2344,1.2383,1.2432,1.2432,1.248,1.2432,1.248,1.248,1.2568,1.2568,1.2568,1.2568,1.2568,1.2617,1.2568,1.2568,1.2617,1.2666,1.2666,1.2666,1.2666,1.2715,1.2715,1.2764,1.2764,1.2764,1.2764,1.2812,1.2812,1.2812,1.2861,1.291,1.291,1.2959,1.3066,1.3018,1.3018,1.3066,1.3066,1.3066,1.3115,1.3115,1.3115,1.3115,1.3115,1.3164,1.3223,1.3271,1.3271,1.3271,1.3271,1.3271,1.332,1.332,1.332,1.333,1.3379,1.3379,1.3379,1.3379,1.3428,1.3486,1.3545,1.3545,1.3545,1.3545,1.3545,1.3545,1.3594,1.3652,1.3652,1.3711,1.3711,1.376,1.376,1.376,1.376,1.3818,1.3818,1.3818,1.3936,1.3936,1.3936,1.3936,1.3877,1.3877,1.3936,1.3936,1.3936,1.3994,1.3994,1.3994,1.3994,1.4053,1.4053,1.4111,1.417,1.417,1.4229,1.4297,1.4297,1.4297,1.4355,1.4355,1.4355,1.4355,1.4355,1.4355,1.4355,1.4355,1.4414,1.4482,1.4482,1.4482,1.4482,1.4541,1.4541,1.4609,1.4609,1.4609,1.4609,1.4668,1.4668,1.4668,1.4736,1.4805,1.4805,1.4805,1.4863,1.4863,1.4863,1.4932,1.4932,1.5,1.5,1.5,1.5,1.5,1.5,1.5,1.5,1.5,1.5,1.5,1.5,1.3945,1.3945,1.3945,1.3887,1.3828,1.3828,1.3828,1.3828,1.3828,1.3828,1.377,1.377,1.377,1.377,1.377,1.377,1.377,1.377,1.3711,1.3711,1.3711,1.3711,1.377,1.377,1.3828,1.3828,1.3828,1.377,1.3828,1.377,1.3828,1.3828,1.377,1.377,1.377,1.377,1.377,1.377,1.377,1.3711,1.3711,1.3711,1.3711,1.3711,1.3721,1.3721,1.3662,1.3662,1.3662,1.3662,1.3662,1.3662,1.3662,1.3662,1.3604,1.3604,1.3604,1.3604,1.3604,1.3662,1.3604,1.3604,1.3662,1.3662,1.3662,1.3662,1.3662,0,0,1.6641,1.6562,1.6562,1.6562,1.6562,1.6562,1.6562,1.6562,1.6562,1.6484,1.6484,1.6406,1.6318,1.6318,0,0,1.3496,1.3389,1.3389,1.3389,1.334,1.3389,1.3389,1.334,1.334,1.3389,1.334,1.3281,1.3281,1.3281,1.3281,1.3281,1.3281,1.3281,1.3281,1.334,1.3281,1.3281,1.3281,1.3281,1.3281,1.3281,1.3281,1.3281,1.3281,1.3232,1.3232,1.3232,1.3291,1.3291,1.3232,1.3291,1.3232,1.3232,1.3232,1.3232,1.3232,1.3232,1.3232,1.3232,1.3232,1.3232,1.3232,1.3232,1.3232,1.3184,1.3232,1.3232,1.3184,1.3184,1.3135,1.3135,1.3184,1.3232,1.3232,1.3184,1.3184,1.3184,1.3135,1.3135,1.3135,1.3076,1.3135,1.4072,1.4072,1.4014,1.3955,1.3955,1.3955,1.4014,1.4014,1.4014,1.4014,1.4014,1.4014,1.4014,1.3955,1.3955,1.3955,1.3955,1.3955,1.3955,1.3955,1.3896,1.3896,1.3896,1.3955,1.3896,1.3896,1.3896,1.3896,1.3896,1.3838,1.3838,1.3838,1.3779,1.3779,1.3779,1.3779,1.3779,1.3779,1.3779,1.3779,1.3779,1.3779,1.373,1.373,1.373,1.3672,1.3672,0,1.5361,1.5361,1.5361,1.5361,1.5361,1.5361,1.5293,1.5361,1.5361,1.5293,1.5361,1.5361,1.5293,1.5293,1.5293,1.5293,1.5225,1.5293,1.5225,1.5156,1.5156,1.5156,1.5156,1.5156,1.5088,1.5088,1.5156,1.5156,1.5156,1.5088,1.5088,1.5088,1.5088,1.5088,1.5088,1.502,1.502,1.4951,1.4951,1.4951,1.4951,1.4951,1.4883,1.4883,1.4824,1.4824,1.4824,1.4756,0,0,0,0,0,0,0,0,0,0,0,0,0,0,0,0,0,0,0,0,0,0,0,0,0,0,0,0
1.1416,1.1455,1.1494,1.1494,1.1494,1.1494,1.1533,1.1533,1.1572,1.1572,1.1572,1.1572,1.1572,1.1611,1.1572,1.1611,1.1611,1.1611,1.165,1.1689,1.1689,1.1689,1.1777,1.1777,1.1777,1.1816,1.1855,1.1855,1.1855,1.1904,1.1943,1.1943,1.1943,1.1943,1.1943,1.1982,1.2031,1.2031,1.2031,1.2031,1.207,1.207,1.2119,1.2119,1.2119,1.2158,1.2158,1.2158,1.2158,1.2207,1.2207,1.2246,1.2246,1.2246,1.2246,1.2295,1.2295,1.2295,1.2344,1.2383,1.2383,1.2383,1.2432,1.2432,1.248,1.248,1.248,1.2529,1.2568,1.2568,1.2568,1.2568,1.2568,1.2568,1.2568,1.2568,1.2617,1.2666,1.2666,1.2666,1.2715,1.2764,1.2764,1.2764,1.2764,1.2764,1.2812,1.2812,1.2812,1.2812,1.291,1.291,1.2959,1.2959,1.3018,1.3066,1.3066,1.3066,1.3066,1.3066,1.3066,1.3115,1.3115,1.3115,1.3115,1.3164,1.3271,1.3271,1.333,1.333,1.333,1.333,1.333,1.333,1.333,1.333,1.3379,1.3438,1.3438,1.3438,1.3438,1.3486,1.3545,1.3545,1.3545,1.3545,1.3545,1.3594,1.3594,1.3652,1.3652,1.3711,1.3711,1.377,1.377,1.377,1.3818,1.3818,1.3818,1.3818,1.3818,1.3818,1.3818,1.3877,1.3877,1.3877,1.3936,1.3936,1.3994,1.3994,1.3994,1.3994,1.4053,1.4053,1.4111,1.4111,1.417,1.417,1.4238,1.4297,1.4297,1.4355,1.4355,1.4355,1.4355,1.4414,1.4414,1.4414,1.4414,1.4414,1.4414,1.4482,1.4482,1.4482,1.4482,1.4541,1.4541,1.4609,1.4609,1.4609,1.4609,1.4668,1.4736,1.4736,1.4736,1.4805,1.4805,1.4863,1.4863,1.4863,1.4863,1.4863,1.4863,1.5,1.5,1.5,1.5,1.5,1.5068,1.5068,1.5,1.5,1.5,1.4932,1.4932,1.4062,1.4004,1.3887,1.3828,1.3828,1.3828,1.3828,1.3828,1.3828,1.3828,1.377,1.377,1.377,1.377,1.377,1.377,1.377,1.377,1.377,1.377,1.3711,1.3711,1.377,1.3828,1.3828,1.3828,1.3828,1.3828,1.3828,1.3828,1.3828,1.3828,1.377,1.377,1.377,1.377,1.377,1.377,1.377,1.3721,1.3721,1.3721,1.3721,1.3721,1.3721,1.3721,1.3662,1.3662,1.3662,1.3662,1.3662,1.3662,1.3662,1.3662,1.3604,1.3662,1.3662,1.3604,1.3662,1.3604,1.3662,1.3604,1.3662,1.3662,1.3662,1.3721,1.3662,0,1.6562,1.665,1.665,1.665,1.6562,1.6562,1.6562,1.6562,1.6562,1.6562,1.6484,1.6484,1.6406,0,0,0,0,1.3447,1.3389,1.3389,1.3389,1.3389,1.3389,1.3389,1.3389,1.3389,1.3389,1.334,1.334,1.3281,1.3281,1.334,1.334,1.334,1.334,1.334,1.334,1.3281,1.334,1.3281,1.3281,1.3291,1.3291,1.3291,1.3291,1.3291,1.3232,1.3291,1.3232,1.3291,1.3291,1.3291,1.3291,1.3232,1.3232,1.3232,1.3232,1.3232,1.3232,1.3232,1.3232,1.3232,1.3232,1.3232,1.3232,1.3232,1.3184,1.3232,1.3232,1.3184,1.3184,1.3184,1.3184,1.3184,1.3184,1.3184,1.3184,1.3184,1.3184,1.3135,1.3135,1.3135,1.3135,1.3135,1.4014,1.4014,1.3955,1.3955,1.3955,1.3955,1.4014,1.4014,1.4014,1.4014,1.4014,1.4014,1.4014,1.4014,1.3955,1.3955,1.3955,1.3955,1.3955,1.3955,1.3955,1.3955,1.3955,1.3955,1.3896,1.3896,1.3896,1.3896,1.3838,1.3896,1.3838,1.3838,1.3838,1.3779,1.3779,1.3779,1.3779,1.3779,1.3779,1.3779,1.3779,1.373,1.373,1.373,1.373,1.373,0,1.543,1.543,1.5361,1.5361,1.5361,1.5361,1.5361,1.5293,1.5293,1.5361,1.5293,1.5361,1.5293,1.5293,1.5293,1.5293,1.5293,1.5225,1.5225,1.5225,1.5156,1.5156,1.5156,1.5156,1.5156,1.5156,1.5156,1.5156,1.5156,1.5156,1.5156,1.5088,1.5088,1.5088,1.5088,1.5088,1.5088,1.502,1.502,1.502,1.4951,1.502,1.4951,1.4883,1.4883,1.4824,1.4824,1.4824,1.4756,0,0,0,0,0,0,0,0,0,0,0,0,0,0,0,0,0,0,0,0,0,0,0,0,0,0,0,0
1.1455,1.1455,1.1494,1.1494,1.1494,1.1533,1.1533,1.1533,1.1572,1.1572,1.1572,1.1572,1.1611,1.1572,1.1611,1.1611,1.1611,1.1611,1.165,1.1689,1.1689,1.1689,1.1777,1.1777,1.1816,1.1816,1.1816,1.1855,1.1904,1.1904,1.1943,1.1943,1.1943,1.1943,1.1982,1.1982,1.2031,1.2031,1.2031,1.207,1.207,1.207,1.2119,1.207,1.2119,1.2158,1.2158,1.2158,1.2207,1.2207,1.2246,1.2246,1.2246,1.2246,1.2246,1.2295,1.2295,1.2295,1.2344,1.2383,1.2383,1.2383,1.2432,1.2432,1.248,1.248,1.2529,1.2529,1.2568,1.2568,1.2568,1.2578,1.2578,1.2617,1.2578,1.2617,1.2666,1.2715,1.2666,1.2764,1.2764,1.2764,1.2764,1.2764,1.2764,1.2764,1.2812,1.2812,1.2812,1.2812,1.291,1.291,1.2959,1.3018,1.3018,1.3066,1.3066,1.3066,1.3066,1.3115,1.3066,1.3115,1.3115,1.3115,1.3164,1.3223,1.3271,1.333,1.333,1.333,1.333,1.333,1.333,1.333,1.333,1.333,1.3379,1.3438,1.3486,1.3486,1.3486,1.3486,1.3545,1.3545,1.3545,1.3545,1.3545,1.3594,1.3594,1.3652,1.3652,1.3711,1.3711,1.377,1.377,1.377,1.3818,1.3818,1.3818,1.3818,1.3818,1.3877,1.3877,1.3877,1.3936,1.3936,1.3994,1.3994,1.3994,1.3994,1.3994,1.3994,1.4053,1.4053,1.4111,1.4111,1.417,1.4238,1.4238,1.4297,1.4297,1.4355,1.4355,1.4355,1.4414,1.4414,1.4482,1.4482,1.4482,1.4424,1.4482,1.4482,1.4482,1.4541,1.4482,1.4541,1.4541,1.4609,1.4609,1.4609,1.4668,1.4668,1.4736,1.4736,1.4736,1.4805,1.4805,1.4805,1.4805,1.4873,1.4805,1.4873,1.4873,1.4932,1.4932,1.4932,1.5,1.5,1.5,1.5,1.5,1.5,1.5,1.5,1.4062,1.4062,1.4004,1.3945,1.3887,1.3887,1.3828,1.3828,1.3828,1.3828,1.3828,1.377,1.377,1.377,1.377,1.377,1.377,1.377,1.377,1.377,1.377,1.377,1.3711,1.377,1.3828,1.3828,1.3828,1.3828,1.377,1.3828,1.3828,1.3828,1.3828,1.377,1.377,1.377,1.377,1.377,1.377,1.377,1.3721,1.3721,1.3721,1.3721,1.3721,1.3721,1.3721,1.3662,1.3662,1.3662,1.3662,1.3662,1.3662,1.3662,1.3662,1.3662,1.3662,1.3662,1.3662,1.3662,1.3662,1.3721,1.3662,1.3662,1.3662,1.3604,1.3662,0,0,1.6562,1.665,1.665,1.665,1.6562,1.6562,1.6562,1.6562,1.6562,1.6562,1.6484,1.6484,0,0,0,0,1.3496,1.3555,1.3447,1.3447,1.3389,1.3389,1.3447,1.3447,1.3447,1.3389,1.3389,1.334,1.334,1.3291,1.3291,1.334,1.334,1.334,1.334,1.334,1.334,1.334,1.334,1.334,1.334,1.334,1.3291,1.3291,1.3291,1.3291,1.3291,1.3291,1.3232,1.3291,1.3291,1.3291,1.3232,1.3232,1.3232,1.3232,1.3232,1.3232,1.3232,1.3232,1.3232,1.3291,1.3232,1.3232,1.3232,1.3232,1.3184,1.3232,1.3232,1.3184,1.3184,1.3184,1.3232,1.3232,1.3232,1.3232,1.3184,1.3184,1.3184,1.3135,1.3135,1.3135,1.3135,0,1.4014,1.4014,1.3955,1.3955,1.3955,1.3955,1.4014,1.4014,1.4014,1.4014,1.4072,1.4014,1.4014,1.4014,1.3955,1.4014,1.4014,1.3955,1.3955,1.3955,1.3955,1.3955,1.3896,1.3955,1.3896,1.3896,1.3896,1.3838,1.3838,1.3896,1.3838,1.3838,1.3838,1.3838,1.3838,1.3838,1.3838,1.3838,1.3779,1.3779,1.3779,1.3779,1.373,1.373,1.373,1.373,0,1.543,1.543,1.5361,1.543,1.543,1.5361,1.5361,1.5293,1.5293,1.5293,1.5293,1.5361,1.5361,1.5293,1.5293,1.5293,1.5293,1.5293,1.5225,1.5156,1.5156,1.5156,1.5088,1.5088,1.5156,1.5156,1.5156,1.5225,1.5156,1.5156,1.5156,1.5088,1.5088,1.5088,1.5088,1.5088,1.5088,1.502,1.502,1.4951,1.4951,1.4951,1.4883,1.4883,1.4824,1.4824,1.4824,1.4824,1.4756,0,0,0,0,0,0,0,0,0,0,0,0,0,0,0,0,0,0,0,0,0,0,0,0,0,0,0,0
1.1455,1.1455,1.1494,1.1494,1.1533,1.1533,1.1533,1.1533,1.1572,1.1572,1.1572,1.1572,1.1611,1.1611,1.1611,1.165,1.165,1.165,1.1689,1.1689,1.1689,1.1738,1.1777,1.1816,1.1816,1.1816,1.1816,1.1904,1.1904,1.1904,1.1943,1.1943,1.1943,1.1943,1.1982,1.1982,1.2031,1.2031,1.2031,1.207,1.207,1.2119,1.207,1.2119,1.2119,1.2158,1.2158,1.2158,1.2158,1.2207,1.2207,1.2256,1.2256,1.2256,1.2256,1.2295,1.2295,1.2295,1.2344,1.2383,1.2383,1.2432,1.2432,1.248,1.248,1.248,1.2529,1.2529,1.2617,1.2578,1.2578,1.2617,1.2617,1.2617,1.2617,1.2617,1.2617,1.2666,1.2666,1.2715,1.2715,1.2764,1.2812,1.2812,1.2812,1.2812,1.2812,1.2812,1.2812,1.2812,1.291,1.291,1.3018,1.3018,1.3018,1.3066,1.3066,1.3066,1.3066,1.3066,1.3115,1.3115,1.3115,1.3115,1.3174,1.3223,1.3271,1.3271,1.333,1.333,1.333,1.333,1.3379,1.3379,1.3379,1.3379,1.3438,1.3438,1.3486,1.3486,1.3486,1.3486,1.3545,1.3545,1.3545,1.3545,1.3594,1.3594,1.3594,1.3652,1.3652,1.3711,1.3711,1.377,1.377,1.377,1.3818,1.3818,1.3818,1.3818,1.3828,1.3828,1.3877,1.3877,1.3936,1.3936,1.3994,1.3994,1.3994,1.3994,1.3994,1.4053,1.4053,1.4111,1.4111,1.417,1.417,1.4238,1.4297,1.4355,1.4297,1.4355,1.4355,1.4355,1.4424,1.4482,1.4482,1.4482,1.4482,1.4482,1.4482,1.4482,1.4541,1.4482,1.4482,1.4541,1.4541,1.4609,1.4609,1.4668,1.4668,1.4736,1.4736,1.4736,1.4736,1.4736,1.4736,1.4736,1.4805,1.4805,1.4736,1.4805,1.4805,1.4873,1.4873,1.4932,1.4932,1.5,1.5,1.5,1.5,1.3828,1.3945,1.4004,1.4062,1.4004,1.4004,1.4004,1.3945,1.3828,1.3828,1.3828,1.3828,1.3828,1.3828,1.377,1.377,1.377,1.3828,1.377,1.3828,1.377,1.377,1.377,1.377,1.377,1.377,1.3828,1.3828,1.3828,1.3828,1.3828,1.3828,1.3828,1.377,1.377,1.3828,1.377,1.3828,1.377,1.377,1.377,1.377,1.377,1.3721,1.3721,1.3721,1.3721,1.3721,1.3721,1.3721,1.3721,1.3721,1.3662,1.3721,1.3721,1.3662,1.3662,1.3662,1.3662,1.3662,1.3662,1.3662,1.3662,1.3662,1.3721,1.3662,1.3662,1.3662,1.3604,1.3662,0,0,1.665,1.6729,1.665,1.665,1.665,1.665,1.665,1.6562,1.6562,1.6562,1.6562,1.6562,0,0,0,0,0,1.3555,1.3447,1.3447,1.3389,1.3389,1.3447,1.3447,1.3447,1.3389,1.3389,1.334,1.334,1.334,1.3291,1.334,1.3389,1.3389,1.334,1.334,1.3389,1.3398,1.3398,1.334,1.334,1.334,1.334,1.334,1.3291,1.334,1.3291,1.3291,1.3232,1.3291,1.3291,1.3291,1.3291,1.3232,1.3291,1.3291,1.3291,1.3232,1.3232,1.3232,1.3232,1.3232,1.3232,1.3232,1.3232,1.3232,1.3232,1.3184,1.3184,1.3232,1.3184,1.3184,1.3232,1.3242,1.3242,1.3184,1.3184,1.3184,1.3184,1.3184,1.3135,1.3135,1.3135,0,1.4072,1.4072,1.4014,1.4014,1.3955,1.3955,1.4014,1.4014,1.4014,1.3955,1.3955,1.4014,1.4014,1.3955,1.3955,1.3955,1.4014,1.4014,1.4014,1.4014,1.3955,1.3955,1.3955,1.3955,1.3896,1.3896,1.3838,1.3838,1.3896,1.3896,1.3896,1.3896,1.3896,1.3838,1.3838,1.3838,1.3838,1.3838,1.3779,1.3789,1.3789,1.373,1.373,1.373,1.373,1.373,0,1.543,1.543,1.543,1.5361,1.5361,1.5361,1.5361,1.5293,1.5293,1.5293,1.5293,1.5293,1.5293,1.5293,1.5293,1.5293,1.5293,1.5293,1.5293,1.5225,1.5156,1.5156,1.5156,1.5156,1.5156,1.5156,1.5156,1.5156,1.5156,1.5156,1.5156,1.5088,1.5088,1.5088,1.5088,1.5088,1.502,1.502,1.502,1.4951,1.4951,1.4951,1.4883,1.4883,1.4883,1.4824,1.4824,1.4824,1.4824,0,0,0,0,0,0,0,0,0,0,0,0,0,0,0,0,0,0,0,0,0,0,0,0,0,0,0,0
