1.3164,0,0,0,0,0,0,0,0,0.90674,0.90674,0.9043,0.9043,0.9043,0.9043,0.9043,0.9043,0.9043,0.9043,0.9043,0.9043,0.9043,0.9043,0.90918,0.90918,0.91162,0.91406,0.91406,0.9165,0,0,0,0,0,0,0,0,0,0,0.91162,0.91455,0.91162,0.91162,0.91162,0.90918,0.90918,0.90723,0.90478,0.90478,0.90234,0.90234,0.90234,0.90234,0.90478,0.90234,0.90234,0.90234,0.90478,0.90234,0.90234,0.8999,0.8999,0.89746,0.89746,0.89746,0.8999,0.90234,0.90478,0.90478,0.90723,0.90723,0.90723,0.90723,0.91211,0.91211,0.91211,0.91455,0.91455,0.91455,0,0,1.1201,1.1201,1.1201,1.1201,1.1201,1.1201,1.1201,1.1201,1.1211,1.1211,1.124,1.124,1.124,1.124,1.124,1.1279,1.1279,1.1279,1.1279,1.124,1.124,1.124,1.124,1.124,1.1279,1.1279,1.1279,1.1279,1.1279,1.1279,1.1279,1.1279,1.1279,1.1279,1.1279,1.1279,1.1279,1.1279,1.125,0,0,0,0,1.5117,1.5186,1.5186,1.5117,1.5186,1.5186,1.5186,1.5322,1.5254,1.5254,1.5322,1.5322,1.5322,1.5254,1.5254,1.5254,1.5254,1.5186,1.5254,1.5254,1.5254,1.5322,1.5322,1.5322,1.5322,1.54,1.5322,1.5322,1.5322,1.5322,1.5322,1.54,1.54,1.54,1.5537,1.5537,1.5537,1.5537,1.5537,1.5537,1.5615,1.5615,1.5615,1.5684,1.5684,1.5684,1.5684,1.5684,0,0,0,0,0,1.1133,1.1025,1.1025,1.0996,1.0957,1.0957,1.0918,1.0889,1.0889,1.085,1.085,1.0889,1.085,1.085,1.085,1.085,1.0889,1.0889,1.0889,1.0889,1.0889,1.0889,1.0928,1.0928,1.0957,1.0957,1.0957,1.0957,1.0957,1.0957,1.0957,1.0957,1.0957,1.0957,1.0996,1.0996,1.0996,1.0996,1.0957,1.0957,1.0957,1.0928,1.0957,0,0,1.2881,1.293,1.2881,1.2881,1.2881,1.2881,1.2881,1.293,1.293,1.2881,1.2881,1.2881,1.2881,1.2881,1.2881,1.2881,1.2881,1.2881,1.2881,1.293,1.2881,1.293,1.293,1.293,1.293,1.2979,1.293,1.293,1.293,1.293,1.293,1.293,1.293,1.293,1.2979,1.293,1.293,1.293,1.293,1.293,1.2979,1.293,1.293,1.293,1.293,1.293,1.293,1.293,1.293,1.293,1.2881,1.293,1.293,1.293,1.2881,1.2881,1.2881,1.2881,1.2881,1.2881,1.2881,1.2881,1.2881,1.293,1.2979,1.2979,1.2979,1.2979,1.2979,1.2979,1.2979,1.2979,1.2979,1.293,1.293,1.293,1.293,1.2979,1.293,1.2979,1.2979,1.2979,1.2979,1.2979,1.2979,1.293,1.293,1.293,1.293,1.293,1.293,1.293,1.293,1.293,1.293,1.293,1.293,1.2988,1.2988,1.2988,1.2988,1.2939,1.2988,1.2988,1.2988,1.2939,1.2939,1.2939,1.2939,1.2939,1.2939,1.2939,1.2988,1.2939,1.2939,1.2939,1.2939,1.2939,1.2939,1.2939,1.2939,1.2939,1.2939,1.2939,1.2939,1.2939,1.2891,1.2891,1.2939,1.2988,1.2988,1.2988,1.2988,1.2939,1.2988,1.2988,1.2939,1.2988,1.2988,1.2988,1.2988,1.2988,1.2988,1.2988,1.3037,1.2988,1.2988,1.2939,1.2988,1.3037,0,0,0,0,0,0,0,0,0,0,0,0,0,0,0,0,0,0,0,0,0,1.5703,1.5625,1.5557,1.5557,1.5488,1.5488,1.5488,1.542,1.542,1.3398,1.335,1.335,1.3301,1.3301,1.3242,1.3193,1.3193,1.3193,1.3193,1.3145,1.3145,1.3193,1.3193,1.3145,1.3037,1.3096,1.3096,1.3037,1.3037,1.2988,1.2988,1.2939,1.2891,1.2891,1.2891,1.2891,1.2842,1.2842,1.2842,1.2842,1.2793,1.2793,1.2793,1.2793,1.2744,1.2744,1.2744,1.2695,1.2695,1.2695,1.2695,1.2656,1.2656,1.2656,1.2607,1.2607,0,0,0,0,0,0,0,0,0,0,0,0,0,0,0,0,0,0,0,0,0,0,0,0,0,0,0,0,0,0,0,0
0,0,0,0,0,0,0,0,0.90674,0.90674,0.90674,0.9043,0.9043,0.9043,0.9043,0.90185,0.90185,0.9043,0.9043,0.9043,0.9043,0.9043,0.9043,0.90918,0.90918,0.91162,0.91406,0.91406,0.91406,0.91699,0,0,0,0,0,0,0,0,0,0.91211,0.91211,0.91211,0.91211,0.90967,0.90967,0.90723,0.90723,0.90478,0.90478,0.90234,0.90234,0.90234,0.90234,0.90234,0.90234,0.90234,0.90234,0.90234,0.90234,0.8999,0.8999,0.89746,0.89746,0.89746,0.89746,0.8999,0.90234,0.90478,0.90478,0.90478,0.90723,0.90723,0.90723,0.90723,0.90967,0.91211,0.91211,0.91455,0.91455,0,0,0,1.1211,1.1211,1.1211,1.1211,1.1211,1.1211,1.1211,1.1211,1.1211,1.124,1.124,1.124,1.1279,1.1279,1.1279,1.1279,1.1279,1.1279,1.124,1.124,1.124,1.124,1.124,1.1279,1.1279,1.1279,1.1279,1.1279,1.1279,1.1318,1.1318,1.1318,1.1279,1.1279,1.1279,1.1279,1.1279,0,0,0,1.498,1.498,1.5049,1.5117,1.5117,1.5117,1.5117,1.5117,1.5117,1.5186,1.5186,1.5186,1.5186,1.5186,1.5186,1.5186,1.5254,1.5254,1.5186,1.5186,1.5186,1.5186,1.5186,1.5254,1.5254,1.5254,1.5254,1.5322,1.5322,1.5322,1.5322,1.5254,1.5254,1.5332,1.5332,1.54,1.5469,1.5469,1.5469,1.5469,1.5469,1.5469,1.5469,1.5469,1.5469,1.5537,1.5615,1.5615,1.5615,1.5684,0,0,0,0,0,1.1143,1.1025,1.1025,1.0918,1.0918,1.0918,1.0889,1.0889,1.085,1.085,1.082,1.082,1.0781,1.0781,1.0781,1.0781,1.082,1.082,1.085,1.085,1.085,1.085,1.0889,1.0889,1.0889,1.0928,1.0928,1.0928,1.0928,1.0928,1.0957,1.0928,1.0928,1.0928,1.0957,1.0957,1.0957,1.0957,1.0957,1.0928,1.0957,1.0928,1.0928,1.0928,0,0,1.2881,1.2881,1.2881,1.2881,1.293,1.2881,1.293,1.293,1.2881,1.2881,1.2881,1.2881,1.2881,1.2881,1.2881,1.2881,1.2881,1.2881,1.293,1.293,1.2881,1.2881,1.293,1.293,1.293,1.293,1.293,1.293,1.293,1.293,1.293,1.293,1.293,1.2979,1.293,1.293,1.293,1.293,1.293,1.293,1.293,1.293,1.293,1.293,1.293,1.293,1.293,1.293,1.293,1.2881,1.293,1.293,1.293,1.2881,1.2881,1.2881,1.2881,1.2881,1.2881,1.2881,1.2881,1.2881,1.293,1.2979,1.2979,1.2979,1.2979,1.2979,1.2979,1.2979,1.2979,1.2988,1.293,1.293,1.293,1.293,1.2988,1.2988,1.2988,1.293,1.2988,1.2988,1.2988,1.2988,1.293,1.293,1.293,1.293,1.293,1.293,1.2939,1.2939,1.2939,1.2988,1.2939,1.2939,1.2988,1.2988,1.2988,1.2988,1.2988,1.2988,1.2988,1.2988,1.2988,1.2988,1.2988,1.2988,1.2939,1.2939,1.2939,1.2988,1.2939,1.2939,1.2939,1.2939,1.2939,1.2939,1.2939,1.2939,1.2939,1.2939,1.2939,1.2939,1.2939,1.2939,1.2891,1.2939,1.2988,1.2988,1.2988,1.2988,1.2988,1.2988,1.2988,1.2988,1.2988,1.2988,1.2988,1.2988,1.2988,1.2988,1.2988,1.2988,1.2988,1.2988,1.2988,1.3037,0,0,0,0,0,0,0,0,0,0,0,0,0,0,0,0,0,0,0,0,0,0,1.5703,1.5625,1.5557,1.5557,1.5557,1.5557,1.5557,1.5488,1.3301,1.3301,1.3301,1.3301,1.3301,1.3242,1.3242,1.3193,1.3193,1.3193,1.3193,1.3193,1.3145,1.3193,1.3193,1.3145,1.3145,1.3096,1.3037,1.3037,1.3037,1.3037,1.3037,1.2988,1.2939,1.2939,1.2939,1.2891,1.2891,1.2891,1.2842,1.2842,1.2842,1.2793,1.2793,1.2793,1.2744,1.2744,1.2744,1.2744,1.2744,1.2705,1.2705,1.2705,1.2656,1.2656,1.2656,1.2607,0,0,0,0,0,0,0,0,0,0,0,0,0,0,0,0,0,0,0,0,0,0,0,0,0,0,0,0,0,0,0,0
0,0,0,0,0,0,0.90918,0.90918,0.90674,0.90674,0.90674,0.9043,0.9043,0.9043,0.9043,0.90185,0.90185,0.9043,0.9043,0.9043,0.9043,0.9043,0.9043,0.90674,0.90918,0.90918,0.91162,0.91162,0.91455,0.91699,0,0,0,0,0,0,0,0,0,0.90967,0.90967,0.90967,0.90723,0.90723,0.90723,0.90723,0.90478,0.90234,0.8999,0.8999,0.8999,0.8999,0.90234,0.90234,0.90234,0.90234,0.90234,0.90234,0.8999,0.8999,0.8999,0.89746,0.89746,0.89746,0.89746,0.8999,0.90234,0.90234,0.90478,0.90478,0.90478,0.90723,0.90478,0.90723,0.90723,0.90967,0.91211,0.91211,0.91211,0.91455,0,0,1.1211,1.1211,1.1211,1.1211,1.124,1.1211,1.1211,1.1211,1.1211,1.124,1.124,1.124,1.1279,1.1279,1.1279,1.1279,1.1279,1.1279,1.1279,1.1279,1.124,1.125,1.1279,1.1279,1.1279,1.1279,1.1279,1.1279,1.1318,1.1318,1.1318,1.1318,1.1318,1.1318,1.1279,1.1279,1.1279,0,0,0,1.4922,1.4922,1.5049,1.5049,1.5049,1.5049,1.5049,1.5049,1.5049,1.5049,1.5117,1.5117,1.5117,1.5117,1.5117,1.5186,1.5117,1.5186,1.5186,1.5186,1.5186,1.5186,1.5186,1.5186,1.5186,1.5186,1.5186,1.5186,1.5186,1.5186,1.5186,1.5186,1.5186,1.5254,1.5254,1.5332,1.54,1.54,1.54,1.54,1.54,1.54,1.54,1.54,1.54,1.54,1.54,1.5469,1.5469,1.5537,0,0,0,0,0,1.1064,1.1025,1.1025,1.0918,1.0918,1.0889,1.0889,1.085,1.085,1.082,1.082,1.0781,1.0752,1.0752,1.0752,1.0713,1.0752,1.0752,1.0781,1.0781,1.082,1.082,1.085,1.085,1.0889,1.0889,1.0889,1.0889,1.0889,1.0889,1.0889,1.0889,1.0889,1.0889,1.0889,1.0889,1.0889,1.0889,1.0889,1.0889,1.0889,1.0889,1.0928,1.0889,0,0,1.2881,1.2881,1.2881,1.2881,1.2881,1.293,1.293,1.293,1.2881,1.293,1.293,1.2881,1.293,1.2881,1.293,1.2881,1.2881,1.293,1.2881,1.293,1.2881,1.2881,1.2881,1.293,1.293,1.293,1.293,1.293,1.293,1.293,1.293,1.293,1.293,1.2979,1.293,1.293,1.293,1.293,1.293,1.293,1.293,1.293,1.293,1.2979,1.293,1.293,1.293,1.293,1.293,1.2881,1.293,1.2881,1.2881,1.2881,1.2881,1.2881,1.2881,1.2881,1.2881,1.2881,1.293,1.293,1.2979,1.2979,1.2988,1.2988,1.2988,1.2988,1.2988,1.2988,1.2988,1.2988,1.2988,1.293,1.2988,1.2988,1.2988,1.2988,1.2988,1.2988,1.2988,1.2939,1.2988,1.2988,1.2939,1.2939,1.2939,1.2939,1.2939,1.2939,1.2939,1.2939,1.2988,1.2939,1.2939,1.2988,1.2988,1.2988,1.2988,1.2988,1.2988,1.2988,1.2988,1.2988,1.2988,1.2988,1.2988,1.2988,1.2939,1.2939,1.2939,1.2939,1.2939,1.2939,1.2939,1.2939,1.2939,1.2939,1.2939,1.2939,1.2939,1.2939,1.2939,1.2891,1.2939,1.2891,1.2891,1.2988,1.2988,1.2988,1.2988,1.2988,1.2988,1.2988,1.2988,1.2988,1.2988,1.2988,1.2988,1.2988,1.2988,1.2988,1.2988,1.2988,1.2988,1.2988,1.2988,0,0,0,0,0,0,0,0,0,0,0,0,0,0,0,0,0,0,0,0,0,0,1.5703,1.5635,1.5557,1.5557,1.5557,1.5557,1.5557,1.5557,1.3398,1.335,1.3301,1.3242,1.3242,1.3242,1.3242,1.3242,1.3193,1.3193,1.3193,1.3193,1.3193,1.3145,1.3193,1.3193,1.3145,1.3145,1.3096,1.3047,1.3047,1.3047,1.3047,1.3047,1.2988,1.2939,1.2939,1.2891,1.2891,1.2891,1.2891,1.2842,1.2842,1.2842,1.2793,1.2793,1.2793,1.2744,1.2744,1.2744,1.2744,1.2705,1.2705,1.2705,1.2705,1.2705,1.2656,1.2656,1.2607,0,0,0,0,0,0,0,0,0,0,0,0,0,0,0,0,0,0,0,0,0,0,0,0,0,0,0,0,0,0,0,0
0,0,0,0,0,0,0,0.90674,0.90674,0.90674,0.9043,0.9043,0.9043,0.9043,0.90185,0.90234,0.90234,0.90234,0.90234,0.9043,0.9043,0.90478,0.90478,0.90674,0.90967,0.90967,0.91211,0.91211,0.91455,0.91455,0,0,0,0,0,0,0,0,0.90967,0.90967,0.90967,0.90723,0.90723,0.90723,0.90723,0.90478,0.90234,0.8999,0.8999,0.8999,0.8999,0.8999,0.8999,0.8999,0.90234,0.8999,0.90234,0.8999,0.8999,0.8999,0.8999,0.89746,0.89746,0.89746,0.89746,0.8999,0.8999,0.90234,0.90478,0.90478,0.90478,0.90478,0.90478,0.90478,0.90723,0.90967,0.91211,0.91211,0.91211,0.91455,0,0,0,1.1211,1.124,1.1211,1.124,1.124,1.124,1.1211,1.1211,1.124,1.124,1.124,1.1279,1.1279,1.1279,1.1279,1.1279,1.1279,1.1279,1.1279,1.1279,1.1279,1.1279,1.1279,1.1279,1.1279,1.1279,1.1279,1.1318,1.1318,1.1318,1.1318,1.1318,1.1318,1.1318,1.1279,1.1279,0,0,0,1.4922,1.4922,1.4854,1.4922,1.499,1.499,1.499,1.499,1.4922,1.499,1.499,1.499,1.499,1.499,1.499,1.5059,1.5059,1.5117,1.5117,1.5117,1.5117,1.5117,1.5117,1.5117,1.5117,1.5186,1.5117,1.5186,1.5186,1.5186,1.5186,1.5195,1.5127,1.5195,1.5195,1.5264,1.5332,1.5332,1.5332,1.5332,1.54,1.5332,1.5332,1.5332,1.5332,1.5332,1.5332,1.5264,1.5469,0,0,0,0,0,1.1172,1.1104,1.1064,1.1035,1.0928,1.0928,1.0889,1.0889,1.085,1.082,1.0781,1.0752,1.0752,1.0752,1.0713,1.0713,1.0713,1.0713,1.0713,1.0752,1.0713,1.0752,1.0781,1.0781,1.082,1.082,1.082,1.082,1.082,1.082,1.0859,1.082,1.0859,1.082,1.082,1.0859,1.0859,1.0859,1.0859,1.0859,1.0859,1.0859,1.0859,1.0889,1.0859,1.082,0,0,1.2832,1.2881,1.2881,1.2881,1.2881,1.293,1.293,1.293,1.2881,1.293,1.2881,1.293,1.293,1.293,1.2881,1.2881,1.2881,1.293,1.293,1.293,1.293,1.293,1.293,1.293,1.293,1.293,1.293,1.293,1.293,1.293,1.293,1.293,1.293,1.293,1.293,1.293,1.2979,1.293,1.293,1.293,1.293,1.293,1.293,1.293,1.293,1.293,1.293,1.293,1.2881,1.293,1.2881,1.2881,1.2881,1.2881,1.2881,1.2881,1.2881,1.293,1.2881,1.293,1.293,1.2988,1.2988,1.2988,1.2988,1.2988,1.2988,1.2988,1.2988,1.2988,1.2988,1.2988,1.2988,1.2988,1.2988,1.2988,1.2988,1.2988,1.2939,1.2988,1.2988,1.2939,1.2988,1.2939,1.2939,1.2939,1.2939,1.2939,1.2939,1.2939,1.2939,1.2988,1.2988,1.2988,1.2988,1.2988,1.2988,1.2988,1.2988,1.2988,1.2988,1.2988,1.2988,1.2988,1.2988,1.2988,1.2988,1.2939,1.2939,1.2939,1.2939,1.2939,1.2939,1.2939,1.2939,1.2939,1.2939,1.2939,1.2939,1.2939,1.2939,1.2939,1.2939,1.2939,1.2891,1.2891,1.2939,1.2988,1.2988,1.2988,1.2988,1.2988,1.2939,1.2939,1.2939,1.2988,1.2988,1.2988,1.2988,1.2988,1.2988,1.2988,1.2988,1.2988,1.2939,1.2988,1.2988,0,0,0,0,0,0,0,0,0,0,0,0,0,0,0,0,0,0,0,0,0,1.5703,1.5703,1.5635,1.5557,1.5635,1.5557,1.5557,1.3457,1.335,1.3301,1.3301,1.3301,1.3242,1.3242,1.3242,1.3242,1.3193,1.3193,1.3193,1.3193,1.3193,1.3145,1.3193,1.3193,1.3145,1.3145,1.3145,1.3096,1.3096,1.3047,1.3047,1.3047,1.2988,1.2988,1.2939,1.2939,1.2891,1.2891,1.2842,1.2842,1.2842,1.2842,1.2793,1.2793,1.2793,1.2754,1.2754,1.2754,1.2705,1.2705,1.2705,1.2705,1.2705,1.2656,1.2656,1.2656,1.2656,0,0,0,0,0,0,0,0,0,0,0,0,0,0,0,0,0,0,0,0,0,0,0,0,0,0,0,0,0,0,0,0
0,0,0,0,0,0,0.91162,0.90918,0.90674,0.90674,0.9043,0.9043,0.9043,0.9043,0.90234,0.90234,0.90234,0.90234,0.90234,0.90234,0.90234,0.90234,0.90478,0.90723,0.90967,0.90967,0.91211,0.91211,0.91455,0,0,0,0,0,0,0,0,0,0.90967,0.90967,0.90723,0.90723,0.90723,0.90478,0.90478,0.90234,0.90234,0.8999,0.8999,0.89746,0.89746,0.89746,0.8999,0.8999,0.8999,0.8999,0.8999,0.8999,0.89746,0.89746,0.89746,0.89746,0.89746,0.89746,0.89746,0.89746,0.8999,0.8999,0.90234,0.90478,0.90478,0.90478,0.90478,0.90478,0.90478,0.90723,0.90967,0.90967,0.90967,0.91211,0.91455,0,0,1.124,1.124,1.124,1.124,1.124,1.1211,1.1211,1.1211,1.125,1.125,1.125,1.125,1.125,1.1279,1.1279,1.1279,1.1279,1.1279,1.1279,1.1279,1.1279,1.1279,1.1279,1.1279,1.1279,1.1279,1.1279,1.1318,1.1318,1.1318,1.1318,1.1318,1.1318,1.1318,1.1289,1.1289,0,0,0,1.4854,1.4854,1.4854,1.4854,1.4854,1.4854,1.4854,1.4854,1.4854,1.4854,1.4854,1.4854,1.4922,1.4922,1.4922,1.499,1.499,1.499,1.499,1.499,1.5059,1.5059,1.5059,1.5059,1.5059,1.5059,1.5127,1.5127,1.5127,1.5127,1.5127,1.5127,1.5127,1.5127,1.5127,1.5195,1.5264,1.5264,1.5264,1.5264,1.5332,1.5332,1.5332,1.5264,1.5264,1.5195,1.5195,1.5195,1.5264,0,0,0,0,0,1.1172,1.1143,1.1064,1.1035,1.0928,1.0928,1.0889,1.085,1.085,1.082,1.0752,1.0752,1.0713,1.0654,1.0615,1.0615,1.0615,1.0654,1.0654,1.0713,1.0645,1.0713,1.0713,1.0752,1.0752,1.0752,1.0752,1.0752,1.0781,1.0752,1.0752,1.0752,1.0752,1.0752,1.0752,1.0752,1.082,1.0791,1.0791,1.082,1.0791,1.082,1.082,1.0859,1.082,1.082,1.0859,1.0889,0,0,1.2783,1.2881,1.2881,1.2881,1.2881,1.2881,1.2881,1.293,1.293,1.293,1.293,1.293,1.293,1.2881,1.293,1.293,1.293,1.293,1.293,1.293,1.293,1.293,1.293,1.293,1.293,1.293,1.293,1.293,1.293,1.293,1.293,1.293,1.293,1.293,1.2979,1.293,1.293,1.293,1.293,1.293,1.2979,1.293,1.293,1.293,1.293,1.293,1.293,1.293,1.293,1.293,1.293,1.2881,1.293,1.2881,1.2881,1.293,1.2881,1.2939,1.2939,1.2988,1.2988,1.2988,1.2988,1.2988,1.2988,1.2988,1.2988,1.2988,1.2988,1.2988,1.2988,1.2988,1.2988,1.2988,1.2988,1.2988,1.2939,1.2988,1.2988,1.2939,1.2988,1.2939,1.2939,1.2939,1.2939,1.2939,1.2939,1.2939,1.2939,1.2988,1.2988,1.2988,1.2988,1.2988,1.2988,1.2988,1.2988,1.2988,1.2988,1.2988,1.2988,1.2988,1.2988,1.2988,1.2988,1.2988,1.2988,1.2939,1.2939,1.2939,1.2939,1.2939,1.2939,1.2939,1.2939,1.2939,1.2939,1.2939,1.2939,1.2939,1.2939,1.2939,1.2939,1.2891,1.2939,1.3037,1.2988,1.2988,1.3037,1.3037,1.2988,1.2988,1.2988,1.2988,1.2988,1.2988,1.2988,1.2988,1.2988,1.2988,1.2988,1.2988,1.2988,1.2988,0,0,0,0,0,0,0,0,0,0,0,0,0,0,0,0,0,0,0,0,0,0,0,1.5703,1.5557,1.5557,1.5557,1.5557,1.5557,1.3457,1.335,1.3301,1.3301,1.3301,1.3301,1.3242,1.3242,1.3242,1.3193,1.3193,1.3193,1.3193,1.3145,1.3145,1.3193,1.3145,1.3145,1.3145,1.3096,1.3096,1.3096,1.3047,1.3047,1.3047,1.2998,1.2998,1.2939,1.2939,1.2891,1.2891,1.2891,1.2842,1.2842,1.2842,1.2842,1.2793,1.2803,1.2754,1.2754,1.2754,1.2705,1.2705,1.2705,1.2705,1.2705,1.2705,1.2656,1.2656,1.2656,0,0,0,0,0,0,0,0,0,0,0,0,0,0,0,0,0,0,0,0,0,0,0,0,0,0,0,0,0,0,0,0
0,0,0,0,0,0,0.90918,0.90674,0.90674,0.90674,0.90478,0.90478,0.90478,0.90478,0.90234,0.90234,0.90234,0.90234,0.90234,0.90478,0.90234,0.90234,0.90478,0.90723,0.90967,0.90967,0.91211,0.91211,0.91455,0,0,0,0,0,0,0,0,0,0.90478,0.90723,0.90723,0.90478,0.90478,0.90234,0.90234,0.90234,0.8999,0.89746,0.89746,0.89746,0.89746,0.89746,0.89746,0.89746,0.89746,0.89746,0.8999,0.8999,0.89746,0.89746,0.89746,0.89746,0.89746,0.89746,0.89746,0.89746,0.89746,0.8999,0.90234,0.90234,0.90478,0.90234,0.90234,0.90478,0.90234,0.90478,0.90723,0.90723,0.90723,0.90967,0.91211,0,0,0,1.125,1.125,1.125,1.125,1.125,1.125,1.1211,1.125,1.125,1.125,1.125,1.1279,1.1279,1.1279,1.1279,1.1279,1.1279,1.1279,1.1279,1.1279,1.1279,1.1279,1.1289,1.1289,1.1318,1.1318,1.1318,1.1318,1.1318,1.1318,1.1289,1.1289,1.1318,1.1289,1.1289,1.1289,0,0,0,1.4795,1.4795,1.4727,1.4795,1.4795,1.4795,1.4795,1.4795,1.4795,1.4795,1.4795,1.4795,1.4795,1.4854,1.4854,1.4854,1.4922,1.4922,1.4922,1.499,1.499,1.499,1.499,1.4922,1.4922,1.499,1.499,1.499,1.499,1.499,1.499,1.499,1.5059,1.5059,1.5127,1.5195,1.5195,1.5195,1.5195,1.5264,1.5264,1.5195,1.5195,1.5127,1.5127,1.5059,1.5059,1.5195,1.5195,0,0,0,0,1.1182,1.1104,1.1035,1.1035,1.0957,1.0928,1.0889,1.085,1.082,1.0781,1.0752,1.0713,1.0654,1.0615,1.0586,1.0586,1.0586,1.0586,1.0586,1.0615,1.0586,1.0615,1.0654,1.0615,1.0615,1.0615,1.0684,1.0684,1.0713,1.0684,1.0723,1.0723,1.0723,1.0723,1.0723,1.0723,1.0723,1.0723,1.0723,1.0723,1.0752,1.0791,1.0791,1.082,1.0791,1.0791,1.082,1.082,0,0,0,1.2881,1.2881,1.2881,1.2881,1.2881,1.2881,1.293,1.293,1.293,1.293,1.293,1.293,1.293,1.293,1.293,1.293,1.293,1.293,1.293,1.293,1.293,1.293,1.293,1.293,1.293,1.293,1.293,1.293,1.293,1.293,1.293,1.293,1.293,1.293,1.293,1.293,1.293,1.293,1.293,1.293,1.293,1.293,1.293,1.293,1.293,1.293,1.293,1.293,1.293,1.2939,1.2939,1.2939,1.2939,1.2881,1.2939,1.2939,1.2939,1.2939,1.2988,1.2988,1.2988,1.2988,1.2988,1.2988,1.2988,1.2988,1.2988,1.2988,1.2988,1.2988,1.2988,1.2988,1.2988,1.2988,1.2988,1.2939,1.2939,1.2988,1.2939,1.2988,1.2988,1.2939,1.2939,1.2939,1.2988,1.2939,1.2939,1.2988,1.2988,1.2988,1.2988,1.2988,1.2988,1.2988,1.2988,1.2988,1.2988,1.2988,1.2988,1.2988,1.2988,1.2988,1.2988,1.2988,1.2988,1.2988,1.2939,1.2939,1.2939,1.2939,1.2939,1.2939,1.2939,1.2939,1.2939,1.2939,1.2939,1.2939,1.2939,1.2939,1.2939,1.2891,1.2891,1.2939,1.2988,1.2988,1.3037,1.3037,1.3037,1.2988,1.2988,1.2988,1.2988,1.2988,1.2988,1.2988,1.2988,1.2988,1.2988,1.2988,1.2988,1.2939,1.2988,1.2988,0,0,0,0,0,0,0,0,0,0,0,0,0,0,0,0,0,0,0,0,0,0,1.5703,1.5635,1.5557,1.5557,1.5557,1.5557,1.3457,1.335,1.335,1.335,1.3301,1.3301,1.3242,1.3242,1.3242,1.3193,1.3193,1.3193,1.3193,1.3145,1.3145,1.3145,1.3145,1.3145,1.3145,1.3096,1.3096,1.3096,1.3047,1.3047,1.3047,1.2998,1.2998,1.2998,1.2949,1.2949,1.2891,1.2891,1.29,1.2852,1.2852,1.2852,1.2803,1.2803,1.2803,1.2754,1.2754,1.2705,1.2705,1.2705,1.2705,1.2705,1.2705,1.2656,1.2656,1.2656,0,0,0,0,0,0,0,0,0,0,0,0,0,0,0,0,0,0,0,0,0,0,0,0,0,0,0,0,0,0,0,0
0,0,0,0,0,0,0.90967,0.90967,0.90723,0.90723,0.90723,0.90478,0.90478,0.90478,0.90234,0.90234,0.90234,0.90234,0.90234,0.90234,0.90234,0.90234,0.90478,0.90723,0.90967,0.91211,0.91211,0.91455,0.91699,0,0,0,0,0,0,0,0,0,0.90234,0.90478,0.90478,0.90478,0.90234,0.8999,0.8999,0.8999,0.8999,0.89746,0.89746,0.89746,0.89746,0.89746,0.89746,0.89746,0.89746,0.89746,0.89746,0.89746,0.89746,0.89746,0.89746,0.89746,0.89746,0.89746,0.89746,0.89746,0.89746,0.8999,0.8999,0.8999,0.8999,0.8999,0.8999,0.90234,0.90234,0.90478,0.90478,0.90723,0.90723,0.90723,0.90723,0,0,0,1.1279,1.1279,1.125,1.125,1.125,1.125,1.1211,1.125,1.125,1.125,1.1289,1.1279,1.1279,1.1279,1.1289,1.1289,1.1289,1.1289,1.1289,1.1289,1.1289,1.1289,1.1289,1.1318,1.1318,1.1318,1.1318,1.1318,1.1318,1.1318,1.1289,1.1289,1.1289,1.1289,1.1289,1.1289,0,0,0,1.4727,1.4668,1.4668,1.4727,1.4668,1.4727,1.4668,1.4668,1.4727,1.4727,1.4727,1.4727,1.4795,1.4795,1.4795,1.4795,1.4854,1.4854,1.4854,1.4854,1.4922,1.4922,1.4922,1.4922,1.4863,1.4922,1.4922,1.4922,1.4922,1.4922,1.4922,1.4922,1.4922,1.4922,1.4922,1.499,1.499,1.499,1.5059,1.5195,1.5195,1.5127,1.5127,1.5059,1.5059,1.499,1.499,1.499,1.5127,0,0,0,0,1.1182,1.1064,1.1035,1.1035,1.0957,1.0928,1.0889,1.0859,1.082,1.0752,1.0713,1.0713,1.0654,1.0615,1.0586,1.0586,1.0586,1.0586,1.0615,1.0615,1.0547,1.0586,1.0615,1.0586,1.0586,1.0586,1.0586,1.0654,1.0615,1.0615,1.0615,1.0684,1.0684,1.0723,1.0684,1.0684,1.0684,1.0684,1.0684,1.0723,1.0723,1.0723,1.0723,1.0752,1.0752,1.0752,1.0791,1.0791,1.0752,1.0723,1.0723,0,0,0,1.2832,1.2881,1.2881,1.293,1.293,1.293,1.293,1.293,1.293,1.293,1.293,1.293,1.293,1.293,1.293,1.293,1.293,1.293,1.293,1.293,1.293,1.293,1.293,1.293,1.293,1.293,1.293,1.293,1.293,1.293,1.293,1.293,1.293,1.293,1.293,1.293,1.293,1.293,1.293,1.2939,1.2939,1.2939,1.2939,1.2939,1.2939,1.2939,1.2939,1.2939,1.2939,1.2939,1.2891,1.2939,1.2939,1.2939,1.2939,1.2988,1.2988,1.2988,1.2988,1.2988,1.2988,1.2988,1.2988,1.2988,1.2988,1.2988,1.2988,1.2988,1.2939,1.2988,1.2988,1.2939,1.2939,1.2939,1.2988,1.2988,1.2988,1.2988,1.2939,1.2988,1.2988,1.2988,1.2988,1.2988,1.2988,1.2988,1.2988,1.2988,1.2988,1.2988,1.2988,1.2988,1.2988,1.2988,1.2988,1.2988,1.2988,1.2988,1.2988,1.2988,1.2988,1.2988,1.2988,1.2939,1.2939,1.2939,1.2939,1.2939,1.2939,1.2939,1.2939,1.2939,1.2939,1.2939,1.2939,1.2939,1.2891,1.2939,1.2891,1.2891,1.2939,1.2988,1.2988,1.2988,1.3037,1.3037,1.2988,1.2988,1.2988,1.2988,1.2988,1.2988,1.2988,1.2988,1.2988,1.2988,1.2988,1.2988,1.2988,1.2939,1.2988,0,0,0,0,0,0,0,0,0,0,0,0,0,0,0,0,0,0,0,0,0,0,1.5557,1.5557,1.5557,1.5635,1.5635,1.3457,1.3457,1.3408,1.335,1.335,1.3301,1.3301,1.3252,1.3252,1.3252,1.3252,1.3193,1.3193,1.3193,1.3145,1.3145,1.3193,1.3145,1.3145,1.3145,1.3145,1.3096,1.3096,1.3047,1.3047,1.3047,1.3047,1.3047,1.2998,1.2998,1.2949,1.2949,1.29,1.29,1.2852,1.2852,1.2852,1.2803,1.2803,1.2754,1.2754,1.2705,1.2705,1.2705,1.2705,1.2705,1.2705,1.2705,1.2656,1.2656,1.2656,0,0,0,0,0,0,0,0,0,0,0,0,0,0,0,0,0,0,0,0,0,0,0,0,0,0,0,0,0,0,0,0
1.332,1.332,0,0,0,0,0.90967,0.90967,0.90967,0.90723,0.90723,0.90723,0.90478,0.90478,0.90478,0.90234,0.90234,0.90234,0.90234,0.90234,0.90234,0.90234,0.90478,0.90723,0.90967,0.91211,0.91211,0.91455,0.91699,0,0,0,0,0,0,0,0,0,0.90723,0.90234,0.90234,0.90234,0.90234,0.8999,0.8999,0.8999,0.89746,0.89746,0.89746,0.89746,0.89746,0.89746,0.89746,0.89746,0.89746,0.89746,0.89746,0.89746,0.89746,0.89746,0.89746,0.89746,0.89746,0.89746,0.89795,0.89795,0.8999,0.8999,0.8999,0.8999,0.8999,0.8999,0.8999,0.8999,0.8999,0.90234,0.90234,0.90478,0.90478,0.90478,0.90478,0,0,0,1.1289,1.1289,1.125,1.125,1.125,1.125,1.125,1.1289,1.1289,1.125,1.1289,1.1289,1.1289,1.1289,1.1289,1.1289,1.1289,1.1289,1.1289,1.1289,1.1289,1.1318,1.1318,1.1318,1.1318,1.1318,1.1318,1.1328,1.1328,1.1328,1.1289,1.1328,1.1289,1.1289,1.1289,1.1289,0,0,0,1.46,1.46,1.46,1.46,1.46,1.4668,1.46,1.4668,1.46,1.4668,1.4668,1.4668,1.4668,1.4668,1.4727,1.4727,1.4727,1.4727,1.4727,1.4795,1.4795,1.4795,1.4795,1.4863,1.4795,1.4863,1.4863,1.4863,1.4863,1.4863,1.4795,1.4795,1.4795,1.4795,1.4863,1.4922,1.4922,1.4922,1.4922,1.499,1.499,1.499,1.499,1.499,1.4922,1.4922,1.4922,1.4922,1.5059,0,0,0,0,1.1143,1.1035,1.1035,1.1035,1.0996,1.0928,1.0889,1.0859,1.082,1.0752,1.0723,1.0684,1.0615,1.0615,1.0586,1.0547,1.0518,1.0518,1.0488,1.0518,1.0518,1.0518,1.0586,1.0547,1.0547,1.0586,1.0586,1.0615,1.0586,1.0586,1.0586,1.0586,1.0615,1.0615,1.0586,1.0586,1.0615,1.0615,1.0654,1.0654,1.0654,1.0654,1.0684,1.0723,1.0723,1.0723,1.0752,1.0752,1.0723,1.0684,1.0723,1.0723,0,0,1.2881,1.2881,1.2881,1.293,1.293,1.293,1.293,1.293,1.293,1.293,1.293,1.293,1.293,1.293,1.293,1.293,1.293,1.293,1.293,1.293,1.293,1.293,1.293,1.293,1.293,1.2939,1.2939,1.2939,1.2939,1.2939,1.2939,1.2939,1.2939,1.2939,1.2939,1.2939,1.2939,1.2939,1.2939,1.2939,1.2939,1.2939,1.2939,1.2988,1.2939,1.2939,1.2939,1.2939,1.2939,1.2891,1.2891,1.2939,1.2939,1.2939,1.2939,1.2988,1.2988,1.2988,1.2988,1.2988,1.2988,1.2988,1.2988,1.2988,1.2988,1.2988,1.2988,1.2988,1.2939,1.2939,1.2988,1.2939,1.2939,1.2939,1.2939,1.2939,1.2988,1.2988,1.2939,1.2988,1.2988,1.2988,1.2988,1.2988,1.2988,1.2988,1.2988,1.2988,1.2988,1.2988,1.2939,1.2939,1.2988,1.2988,1.2988,1.2988,1.3037,1.3037,1.2988,1.2988,1.2988,1.2988,1.2939,1.2939,1.2939,1.2939,1.2939,1.2939,1.2988,1.2988,1.2939,1.2939,1.2939,1.2939,1.2939,1.2939,1.2939,1.2939,1.2939,1.2939,1.2939,1.2988,1.2988,1.2988,1.2988,1.2988,1.2988,1.2988,1.2988,1.3037,1.3037,1.2988,1.2988,1.2988,1.2988,1.2988,1.2988,1.2939,1.2988,1.2939,1.2988,0,0,0,0,0,0,0,0,0,0,0,0,0,0,0,0,0,0,0,0,0,0,1.5557,1.5635,1.5635,1.5635,1.5635,1.3457,1.3457,1.3408,1.335,1.335,1.3301,1.3301,1.3252,1.3252,1.3252,1.3252,1.3193,1.3193,1.3193,1.3145,1.3145,1.3145,1.3145,1.3145,1.3145,1.3096,1.3096,1.3096,1.3096,1.3047,1.3047,1.3047,1.3047,1.2998,1.2949,1.2949,1.2949,1.29,1.29,1.2852,1.2852,1.2852,1.2803,1.2803,1.2754,1.2754,1.2705,1.2705,1.2705,1.2705,1.2705,1.2705,1.2705,1.2656,1.2656,1.2607,0,0,0,0,0,0,0,0,0,0,0,0,0,0,0,0,0,0,0,0,0,0,0,0,0,0,0,0,0,0,0,0
1.333,1.3271,0,0,0,0,0,0,0.90967,0.90723,0.90478,0.90478,0.90478,0.90478,0.90234,0.90234,0.90234,0.90478,0.90478,0.90478,0.90234,0.90234,0.90478,0.87012,0.86084,0.86328,0.86523,0.86523,0.91699,0,0,0,0,0,0.87647,0,0,0,0.90478,0.8999,0.90234,0.8999,0.89746,0.89746,0.89746,0.89746,0.89746,0.89746,0.89746,0.89746,0.89746,0.89746,0.89746,0.89746,0.89746,0.89746,0.89746,0.89795,0.89795,0.89795,0.89795,0.89795,0.89795,0.89795,0.89795,0.89795,0.8999,0.8999,0.90039,0.90039,0.90039,0.90039,0.90039,0.90039,0.90039,0.90039,0.90039,0.90039,0.90039,0.90039,0.90283,0.90283,0,0,0,1.1289,1.125,1.125,1.1211,1.125,1.125,1.1289,1.1289,1.1289,1.1289,1.1289,1.1289,1.1289,1.1289,1.1289,1.1289,1.1289,1.1289,1.1328,1.1328,1.1328,1.1328,1.1328,1.1328,1.1328,1.1328,1.1328,1.1328,1.1328,1.1328,1.1328,1.1328,1.1289,1.125,1.125,0,0,0,1.4541,1.4541,1.4541,1.4541,1.46,1.46,1.46,1.46,1.46,1.46,1.46,1.46,1.46,1.46,1.4668,1.4668,1.4668,1.4668,1.4668,1.4727,1.4727,1.4727,1.4795,1.4795,1.4795,1.4795,1.4795,1.4795,1.4795,1.4795,1.4727,1.4795,1.4727,1.4795,1.4727,1.4863,1.4863,1.4863,1.4922,1.4922,1.4922,1.4922,1.4932,1.4932,1.4932,1.4932,1.4863,1.4863,1.4863,0,0,0,0,0,1.1064,1.1035,1.1035,1.0996,1.0957,1.0889,1.0859,1.082,1.0752,1.0723,1.0615,1.0615,1.0586,1.0586,1.0488,1.0488,1.0488,1.0449,1.0488,1.0488,1.0488,1.0488,1.0488,1.0518,1.0557,1.0557,1.0586,1.0586,1.0557,1.0586,1.0586,1.0586,1.0586,1.0586,1.0586,1.0586,1.0586,1.0615,1.0615,1.0615,1.0615,1.0615,1.0654,1.0684,1.0684,1.0654,1.0684,1.0684,1.0654,1.0684,1.0684,1.0654,0,0,1.2881,1.2881,1.293,1.293,1.293,1.293,1.293,1.293,1.293,1.293,1.293,1.293,1.293,1.293,1.293,1.293,1.293,1.2939,1.2939,1.2939,1.2939,1.2939,1.2939,1.2939,1.2939,1.2939,1.2939,1.2939,1.2939,1.2939,1.2939,1.2939,1.2939,1.2939,1.2939,1.2939,1.2939,1.2939,1.2939,1.2939,1.2939,1.2939,1.2939,1.2939,1.2939,1.2939,1.2939,1.2939,1.2891,1.2939,1.2939,1.2939,1.2939,1.2939,1.2988,1.2988,1.2988,1.2988,1.2988,1.2988,1.2988,1.2988,1.2988,1.2988,1.2988,1.2988,1.2988,1.2939,1.2939,1.2939,1.2939,1.2939,1.2939,1.2939,1.2939,1.2988,1.2988,1.2988,1.2988,1.2988,1.2988,1.2988,1.2988,1.2988,1.2988,1.2988,1.2988,1.2988,1.2988,1.2939,1.2939,1.2988,1.2988,1.2988,1.2988,1.2988,1.2988,1.2988,1.2988,1.2939,1.2988,1.2939,1.2939,1.2939,1.2939,1.2939,1.2939,1.2939,1.2939,1.2939,1.2939,1.2939,1.2939,1.2939,1.2939,1.2939,1.2939,1.2939,1.2939,1.2939,1.2988,1.2939,1.2988,1.2939,1.2939,1.2988,1.2988,1.2988,1.3037,1.2988,1.2988,1.2988,1.2988,1.2988,1.2988,1.2939,1.2939,1.2939,1.2939,1.2891,0,0,0,0,0,0,0,0,0,0,0,0,0,0,0,0,0,0,0,0,0,0,1.5703,1.5635,1.5703,1.5703,1.5635,1.3457,1.3457,1.3408,1.335,1.335,1.335,1.335,1.3301,1.3252,1.3252,1.3252,1.3252,1.3193,1.3193,1.3193,1.3145,1.3145,1.3145,1.3145,1.3096,1.3096,1.3096,1.3096,1.3047,1.3047,1.3047,1.3047,1.3047,1.2998,1.2949,1.2949,1.2949,1.29,1.29,1.2852,1.2852,1.2852,1.2852,1.2803,1.2803,1.2754,1.2754,1.2754,1.2705,1.2705,1.2705,1.2705,1.2656,1.2656,1.2656,1.2607,0,0,0,0,0,0,0,0,0,0,0,0,0,0,0,0,0,0,0,0,0,0,0,0,0,0,0,0,0,0,0,0
1.3271,0,0,0,0,0,0,0,0,0.90723,0.90478,0.90478,0.90234,0.90478,0.90234,0.90234,0.90234,0.87012,0.86768,0.86768,0.87012,0.86768,0.87012,0.86768,0.86768,0.86768,0.86768,0.86768,0.87012,0.87207,0.87451,0,0.87451,0,0.87695,0.87891,0.87891,0.88574,0.89307,0.89551,0.89551,0.89551,0.89551,0.89551,0.89551,0.89551,0.89746,0.89551,0.89746,0.89746,0.89795,0.89551,0.89795,0.89551,0.89551,0.89795,0.89795,0.89551,0.89795,0.89795,0.89795,0.89795,0.89795,0.89795,0.89795,0.89795,0.90039,0.90039,0.89795,0.90039,0.90039,0.90039,0.89795,0.90039,0.89795,0.90039,0.90039,0.90039,0.90039,0.90039,0.90039,0.90039,0,0,0,1.1289,1.125,1.125,1.1211,1.125,1.1211,1.125,1.1289,1.125,1.1289,1.1289,1.1289,1.1289,1.1289,1.1289,1.1289,1.1289,1.1289,1.1328,1.1328,1.1328,1.1328,1.1367,1.1328,1.1328,1.1328,1.1328,1.1328,1.1328,1.1328,1.1328,1.1328,1.1328,1.1289,0,0,0,1.4414,1.4473,1.4473,1.4541,1.4541,1.4541,1.4541,1.4541,1.4541,1.4541,1.4541,1.4541,1.4541,1.4541,1.4541,1.46,1.46,1.46,1.46,1.46,1.4668,1.4668,1.4668,1.4727,1.4727,1.4727,1.4727,1.4727,1.4727,1.4727,1.4727,1.4727,1.4727,1.4727,1.4736,1.4736,1.4795,1.4795,1.4795,1.4795,1.4863,1.4863,1.4863,1.4863,1.4863,1.4863,1.4863,1.4863,1.4863,1.4863,0,0,0,0,0,1.1035,1.1035,1.1035,1.0996,1.0957,1.0889,1.0859,1.082,1.0752,1.0723,1.0615,1.0586,1.0586,1.0586,1.0488,1.0488,1.0459,1.0459,1.0459,1.0488,1.0488,1.0488,1.0488,1.0518,1.0518,1.0557,1.0557,1.0557,1.0557,1.0557,1.0586,1.0586,1.0586,1.0586,1.0557,1.0586,1.0586,1.0586,1.0586,1.0586,1.0586,1.0615,1.0615,1.0615,1.0654,1.0625,1.0654,1.0654,1.0654,1.0654,1.0654,1.0654,1.0654,0,0,1.2881,1.293,1.293,1.293,1.293,1.293,1.293,1.293,1.2939,1.2939,1.2939,1.2939,1.2939,1.2939,1.2939,1.2988,1.2939,1.2939,1.2939,1.2939,1.2939,1.2939,1.2939,1.2939,1.2939,1.2891,1.2891,1.2891,1.2891,1.2891,1.2891,1.2891,1.2939,1.2939,1.2939,1.2939,1.2939,1.2939,1.2939,1.2988,1.2939,1.2939,1.2939,1.2939,1.2939,1.2939,1.2939,1.2891,1.2939,1.2939,1.2939,1.2939,1.2939,1.2988,1.2988,1.2988,1.2988,1.2988,1.2988,1.2988,1.2988,1.2988,1.2988,1.2988,1.2939,1.2988,1.2939,1.2939,1.2939,1.2939,1.2939,1.2939,1.2939,1.2939,1.2988,1.2988,1.2988,1.2988,1.2988,1.2988,1.2988,1.2988,1.2988,1.2988,1.2988,1.2988,1.2988,1.2988,1.2939,1.2939,1.2988,1.2988,1.2988,1.2988,1.2988,1.2988,1.2988,1.2988,1.2939,1.2988,1.2939,1.2939,1.2939,1.2939,1.2939,1.2939,1.2939,1.2939,1.2939,1.2939,1.2939,1.2939,1.2939,1.2939,1.2939,1.2939,1.2939,1.2939,1.2988,1.2988,1.2988,1.2988,1.2988,1.2988,1.2939,1.2988,1.2988,1.2988,1.2988,1.2988,1.2988,1.2988,1.2988,1.2988,1.2939,1.2939,1.2939,1.2939,0,0,0,0,0,0,0,0,0,0,0,0,0,0,0,0,0,0,0,0,0,0,0,0,1.5635,1.5635,1.5781,1.3516,1.3457,1.3457,1.3408,1.3408,1.335,1.335,1.335,1.3301,1.3301,1.3252,1.3252,1.3193,1.3193,1.3203,1.3193,1.3145,1.3193,1.3145,1.3145,1.3145,1.3096,1.3096,1.3096,1.3047,1.3047,1.3047,1.3047,1.3047,1.2998,1.2949,1.2949,1.29,1.29,1.29,1.2852,1.2852,1.2852,1.2852,1.2803,1.2803,1.2754,1.2754,1.2754,1.2705,1.2705,1.2705,1.2656,1.2656,1.2656,1.2656,1.2607,0,0,0,0,0,0,0,0,0,0,0,0,0,0,0,0,0,0,0,0,0,0,0,0,0,0,0,0,0,0,0,0
1.3271,0,0,0,0,0,0,0.86523,0.86523,0.86523,0,0.90478,0.86523,0.86523,0.86523,0.86523,0.86523,0.86768,0.86768,0.86768,0.87012,0.87012,0.87012,0.87012,0.87012,0.86768,0.86768,0.86768,0.87012,0.87207,0.87207,0.87207,0.87451,0.87695,0.87695,0.87695,0.87891,0.88379,0.88818,0.88818,0.89062,0.89062,0.89307,0.89307,0.89307,0.89551,0.89551,0.89551,0.89551,0.89551,0.89795,0.89551,0.89551,0.89551,0.89551,0.89551,0.89551,0.89551,0.89551,0.89551,0.89551,0.89551,0.89551,0.89795,0.89795,0.89795,0.89795,0.89795,0.89795,0.89795,0.89795,0.89795,0.89795,0.89795,0.89795,0.89795,0.89795,0.89795,0.89795,0.89795,0.89795,0,0,0,0,1.1289,1.125,1.125,1.1211,1.1211,1.1211,1.125,1.1289,1.1289,1.1289,1.1289,1.1289,1.1289,1.1289,1.1289,1.1289,1.1328,1.1328,1.1328,1.1328,1.1367,1.1367,1.1367,1.1328,1.1328,1.1367,1.1328,1.1328,1.1328,1.1328,1.1328,1.1328,1.1289,1.125,0,0,0,1.4355,1.4414,1.4414,1.4473,1.4473,1.4473,1.4473,1.4482,1.4482,1.4482,1.4482,1.4482,1.4482,1.4482,1.4482,1.4482,1.4482,1.4541,1.4541,1.4541,1.4541,1.46,1.46,1.4668,1.4668,1.4668,1.4668,1.4668,1.4668,1.4668,1.4609,1.4668,1.4668,1.4668,1.4668,1.4609,1.4668,1.4668,1.4736,1.4736,1.4736,1.4736,1.4795,1.4795,1.4795,1.4795,1.4795,1.4795,1.4795,1.4795,0,0,0,0,0,1.1035,1.1035,1.0996,1.0967,1.0928,1.0889,1.0859,1.082,1.0752,1.0723,1.0615,1.0586,1.0586,1.0557,1.0488,1.0459,1.0459,1.0459,1.0459,1.0459,1.0459,1.0459,1.0488,1.0488,1.0488,1.0518,1.0518,1.0518,1.0518,1.0518,1.0557,1.0557,1.0557,1.0557,1.0518,1.0557,1.0557,1.0557,1.0557,1.0586,1.0586,1.0625,1.0625,1.0625,1.0625,1.0625,1.0625,1.0654,1.0654,1.0654,1.0654,1.0654,1.0625,1.0654,0,0,1.2881,1.2881,1.2881,1.2881,1.2939,1.2939,1.2939,1.2939,1.2939,1.2939,1.2939,1.2939,1.2988,1.2939,1.2988,1.2939,1.2939,1.2939,1.2939,1.2939,1.2939,1.2939,1.2939,1.2939,1.2891,1.2891,1.2891,1.2891,1.2891,1.2891,1.2891,1.2939,1.2939,1.2939,1.2939,1.2939,1.2939,1.2988,1.2988,1.2939,1.2939,1.2939,1.2939,1.2939,1.2939,1.2939,1.2939,1.2939,1.2939,1.2939,1.2939,1.2939,1.2988,1.2988,1.2988,1.2988,1.2988,1.2988,1.2988,1.2988,1.2939,1.2939,1.2988,1.2939,1.2988,1.2939,1.2939,1.2939,1.2939,1.2939,1.2939,1.2939,1.2939,1.2988,1.2988,1.2988,1.2988,1.2988,1.2988,1.2988,1.2988,1.2988,1.2988,1.2988,1.2988,1.2939,1.2939,1.2939,1.2939,1.2988,1.2988,1.2988,1.2988,1.2988,1.2988,1.2988,1.2988,1.2939,1.2939,1.2939,1.2939,1.2939,1.2939,1.2939,1.2939,1.2939,1.2939,1.2939,1.2939,1.2939,1.2939,1.2939,1.2939,1.2939,1.2939,1.2939,1.2891,1.2988,1.2988,1.2939,1.2988,1.2939,1.2988,1.2939,1.2939,1.2988,1.2988,1.2988,1.2988,1.3047,1.3047,1.2988,1.2988,1.2988,1.2939,1.2939,1.2939,0,0,0,0,0,0,0,0,0,0,0,0,0,0,0,0,0,0,0,0,0,0,0,1.5713,1.5713,1.5713,1.5713,1.5713,1.3457,1.3457,1.3408,1.3408,1.3408,1.3408,1.335,1.3301,1.3301,1.3252,1.3252,1.3203,1.3203,1.3203,1.3203,1.3145,1.3203,1.3145,1.3145,1.3096,1.3096,1.3096,1.3047,1.3047,1.3047,1.2998,1.3047,1.2998,1.2949,1.2949,1.29,1.29,1.29,1.29,1.2852,1.2852,1.2852,1.2803,1.2803,1.2803,1.2754,1.2754,1.2754,1.2705,1.2705,1.2705,1.2705,1.2705,1.2656,1.2656,1.2656,0,0,0,0,0,0,0,0,0,0,0,0,0,0,0,0,0,0,0,0,0,0,0,0,0,0,0,0,0,0,0,0
0,0,0,0,0,0,0.86523,0.86523,0.86523,0.86523,0.86523,0.86523,0.86523,0.86572,0.86572,0.86572,0.86768,0.86768,0.86768,0.86768,0.86768,0.86768,0.87012,0.87012,0.87012,0.87012,0.87012,0.87012,0.87012,0.87012,0.87207,0.87207,0.87207,0.87451,0.87695,0.87695,0.87891,0.88135,0.88623,0.88623,0.88818,0.88818,0.88818,0.89062,0.89307,0.89307,0.89551,0.89551,0.89551,0.89551,0.89795,0.89551,0.89551,0.89307,0.89307,0.89551,0.89551,0.89551,0.89551,0.89551,0.89551,0.89551,0.89551,0.89795,0.89795,0.89795,0.89795,0.89795,0.89795,0.89795,0.89795,0.89795,0.89795,0.89795,0.89795,0.89795,0.89795,0.89795,0.89795,0.89795,0.89795,0,0,0,0,1.1289,1.125,1.125,1.1211,1.125,1.125,1.125,1.1289,1.1289,1.1289,1.1289,1.1289,1.1289,1.1289,1.1289,1.1289,1.1328,1.1328,1.1328,1.1367,1.1367,1.1367,1.1367,1.1367,1.1367,1.1367,1.1367,1.1367,1.1328,1.1328,1.1367,1.1328,1.1289,1.125,0,0,0,1.4297,1.4297,1.4355,1.4355,1.4414,1.4414,1.4414,1.4414,1.4414,1.4414,1.4414,1.4414,1.4414,1.4414,1.4414,1.4414,1.4414,1.4482,1.4482,1.4482,1.4482,1.4482,1.4541,1.4541,1.4541,1.4541,1.4609,1.4541,1.4609,1.4609,1.4609,1.4609,1.4609,1.4541,1.4609,1.4541,1.4609,1.4609,1.4668,1.4668,1.4668,1.4668,1.4668,1.4736,1.4736,1.4736,1.4736,1.4736,1.4736,1.4736,0,0,0,0,0,0,1.1035,1.0996,1.0967,1.0967,1.0889,1.0859,1.0791,1.0752,1.0723,1.0615,1.0586,1.0586,1.0557,1.0488,1.0459,1.0459,1.042,1.042,1.0459,1.0459,1.0459,1.0488,1.0488,1.0488,1.0488,1.0488,1.0488,1.0488,1.0488,1.0518,1.0518,1.0518,1.0518,1.0518,1.0557,1.0557,1.0557,1.0557,1.0557,1.0557,1.0586,1.0586,1.0586,1.0625,1.0625,1.0625,1.0625,1.0654,1.0654,1.0654,1.0654,1.0654,1.0654,0,0,1.2939,1.2891,1.2891,1.2939,1.2939,1.2939,1.2939,1.2939,1.2939,1.2939,1.2939,1.2939,1.2988,1.2939,1.2988,1.2939,1.2939,1.2939,1.2939,1.2939,1.2939,1.2939,1.2939,1.2939,1.2891,1.2939,1.2939,1.2939,1.2939,1.2891,1.2939,1.2939,1.2939,1.2939,1.2939,1.2939,1.2988,1.2939,1.2988,1.2939,1.2939,1.2939,1.2939,1.2939,1.2939,1.2939,1.2939,1.2939,1.2939,1.2939,1.2939,1.2939,1.2988,1.2988,1.2988,1.2988,1.2988,1.2988,1.2988,1.2988,1.2939,1.2939,1.2939,1.2939,1.2988,1.2939,1.2939,1.2939,1.2939,1.2939,1.2939,1.2939,1.2939,1.2939,1.2988,1.2988,1.2988,1.2988,1.2988,1.2988,1.2939,1.2939,1.2939,1.2939,1.2939,1.2939,1.2939,1.2939,1.2939,1.2939,1.2988,1.2939,1.2939,1.2939,1.2988,1.2939,1.2939,1.2939,1.2939,1.2939,1.2939,1.2939,1.2939,1.2939,1.2939,1.2939,1.2939,1.2939,1.2939,1.2939,1.2939,1.2939,1.2891,1.2891,1.2939,1.2939,1.2891,1.2988,1.2988,1.2988,1.2988,1.2939,1.2939,1.2939,1.2939,1.2988,1.2988,1.2988,1.2988,1.2988,1.3047,1.2998,1.2998,1.2998,1.2939,1.2939,1.2891,0,0,0,0,0,0,0,0,0,0,0,0,0,0,0,0,0,0,0,0,0,0,0,1.5635,1.5635,1.5566,1.5566,1.3623,1.3457,1.3457,1.3457,1.3408,1.3408,1.3408,1.3359,1.3301,1.3301,1.3252,1.3203,1.3203,1.3203,1.3203,1.3203,1.3145,1.3145,1.3145,1.3145,1.3145,1.3096,1.3047,1.3047,1.3047,1.2998,1.2998,1.2998,1.2998,1.2949,1.2949,1.2949,1.29,1.29,1.29,1.2852,1.2852,1.2852,1.2852,1.2803,1.2803,1.2803,1.2754,1.2754,1.2754,1.2754,1.2705,1.2705,1.2705,1.2656,1.2656,1.2656,0,0,0,0,0,0,0,0,0,0,0,0,0,0,0,0,0,0,0,0,0,0,0,0,0,0,0,0,0,0,0,0
0,0,0.86523,0.86523,0.86523,0.86084,0.86328,0.86572,0.86572,0.86328,0.86328,0.86572,0.86572,0.86572,0.86572,0.86572,0.86768,0.86768,0.86768,0.86768,0.86768,0.86768,0.87012,0.87012,0.87012,0.87012,0.87012,0.87012,0.87012,0.87012,0.87012,0.87207,0.87207,0.87207,0.87451,0.87451,0.87451,0.87891,0.88379,0.88623,0.88623,0.88623,0.88818,0.89062,0.89307,0.89307,0.89551,0.89551,0.89551,0.89551,0.89551,0.89551,0.89551,0.89551,0.89307,0.89307,0.89551,0.89307,0.89551,0.89551,0.89551,0.89551,0.89795,0.89795,0.89795,0.89795,0.89795,0.90039,0.89795,0.90039,0.90039,0.89795,0.89795,0.89795,0.89795,0.89795,0.89795,0.89795,0.89795,0.89795,0.89795,0.89795,0,0,0,0,1.125,1.125,1.125,1.125,1.125,1.1289,1.1289,1.1289,1.1289,1.1289,1.1289,1.1289,1.1328,1.1328,1.1328,1.1328,1.1328,1.1328,1.1367,1.1367,1.1367,1.1367,1.1367,1.1367,1.1367,1.1367,1.1367,1.1367,1.1367,1.1367,1.1367,1.1328,1.1289,0,0,0,1.4238,1.4238,1.4297,1.4355,1.4355,1.4355,1.4355,1.4355,1.4355,1.4355,1.4355,1.4355,1.4355,1.4355,1.4355,1.4355,1.4355,1.4414,1.4414,1.4414,1.4414,1.4482,1.4482,1.4482,1.4482,1.4482,1.4541,1.4482,1.4541,1.4541,1.4541,1.4541,1.4541,1.4541,1.4541,1.4541,1.4541,1.4609,1.4609,1.4609,1.4609,1.4609,1.4668,1.4668,1.4668,1.4668,1.4668,1.4609,1.4609,1.4609,1.4609,0,0,0,0,0,1.0996,1.0996,1.0967,1.0928,1.0889,1.0859,1.0791,1.0752,1.0723,1.0615,1.0586,1.0586,1.0557,1.0488,1.0488,1.0459,1.0459,1.0459,1.0459,1.0459,1.0459,1.0459,1.0488,1.0488,1.0488,1.0488,1.0488,1.0488,1.0488,1.0488,1.0488,1.0518,1.0518,1.0518,1.0518,1.0518,1.0518,1.0557,1.0557,1.0518,1.0586,1.0586,1.0586,1.0625,1.0625,1.0625,1.0625,1.0654,1.0654,1.0654,1.0654,1.0654,1.0654,0,0,1.2939,1.2891,1.2891,1.2939,1.2939,1.2939,1.2939,1.2939,1.2939,1.2939,1.2939,1.2939,1.2988,1.2939,1.2988,1.2939,1.2988,1.2988,1.2939,1.2939,1.2939,1.2939,1.2939,1.2939,1.2891,1.2939,1.2939,1.2939,1.2939,1.2939,1.2939,1.2939,1.2939,1.2939,1.2939,1.2939,1.2939,1.2939,1.2988,1.2939,1.2988,1.2939,1.2939,1.2939,1.2939,1.2939,1.2939,1.2939,1.2939,1.2939,1.2939,1.2939,1.2988,1.2988,1.2988,1.2988,1.2988,1.2988,1.2988,1.2988,1.2988,1.2988,1.2939,1.2939,1.2939,1.2939,1.2939,1.2939,1.2939,1.2939,1.2939,1.2939,1.2939,1.2939,1.2988,1.2939,1.2988,1.2988,1.2988,1.2988,1.2939,1.2939,1.2939,1.2939,1.2939,1.2939,1.2939,1.2939,1.2939,1.2939,1.2939,1.2939,1.2939,1.2939,1.2939,1.2939,1.2939,1.2939,1.2939,1.2939,1.2939,1.2939,1.2939,1.2939,1.2891,1.2939,1.2939,1.2939,1.2939,1.2939,1.2939,1.2939,1.2939,1.2939,1.2939,1.2939,1.2939,1.2998,1.2998,1.2998,1.2998,1.2998,1.2998,1.2998,1.2939,1.2998,1.2998,1.2998,1.2998,1.2998,1.2998,1.2998,1.2998,1.2998,1.2939,1.2949,1.2949,0,0,0,0,0,0,0,0,0,0,0,0,0,0,0,0,0,0,0,0,0,0,0,1.5635,1.5635,1.5635,1.5635,1.3564,1.3457,1.3457,1.3457,1.3408,1.3408,1.3359,1.3359,1.3301,1.3301,1.3252,1.3252,1.3203,1.3203,1.3203,1.3203,1.3145,1.3203,1.3145,1.3145,1.3096,1.3096,1.3047,1.3047,1.2998,1.2998,1.2998,1.2949,1.2949,1.2949,1.29,1.2949,1.29,1.29,1.29,1.2852,1.2852,1.2852,1.2852,1.2852,1.2852,1.2803,1.2754,1.2754,1.2754,1.2754,1.2754,1.2705,1.2705,1.2656,1.2656,1.2656,0,0,0,0,0,0,0,0,0,0,0,0,0,0,0,0,0,0,0,0,0,0,0,0,0,0,0,0,0,0,0,0
0.86133,0.86133,0.86133,0.86133,0.86133,0.86133,0.86328,0.86572,0.86572,0.86328,0.86328,0.86572,0.86572,0.86572,0.86572,0.86572,0.86572,0.86572,0.86768,0.86768,0.86768,0.86768,0.87012,0.87012,0.87012,0.87012,0.87012,0.87012,0.87012,0.87012,0.87012,0.87012,0.87012,0.87256,0.87256,0.87256,0.87451,0.87695,0.8794,0.88379,0.88379,0.88623,0.88818,0.89062,0.89062,0.89551,0.89551,0.89551,0.89551,0.89551,0.89551,0.89551,0.89551,0.89551,0.89307,0.89307,0.89307,0.89307,0.89551,0.89551,0.89551,0.89551,0.89551,0.89795,0.89795,0.89795,0.89795,0.90039,0.90039,0.90039,0.90039,0.89795,0.89795,0.89795,0.89795,0.89795,0.89795,0.89551,0.89551,0.89795,0.89795,0.89795,0,0,0,0,1.125,1.125,1.125,1.125,1.125,1.1289,1.1289,1.1289,1.1289,1.1289,1.1289,1.1289,1.1328,1.1328,1.1328,1.1328,1.1328,1.1367,1.1367,1.1367,1.1367,1.1367,1.1367,1.1367,1.1406,1.1406,1.1406,1.1367,1.1367,1.1367,1.1367,1.1367,1.1289,0,0,0,1.418,1.4238,1.4297,1.4297,1.4297,1.4297,1.4297,1.4297,1.4297,1.4297,1.4297,1.4297,1.4297,1.4297,1.4297,1.4355,1.4297,1.4355,1.4355,1.4297,1.4355,1.4355,1.4355,1.4355,1.4355,1.4424,1.4424,1.4424,1.4424,1.4482,1.4424,1.4482,1.4482,1.4482,1.4482,1.4482,1.4541,1.4541,1.4541,1.4609,1.4609,1.4541,1.4609,1.4609,1.4609,1.4609,1.4609,1.4541,1.4541,1.4482,1.4482,0,0,0,1.1182,1.1143,1.1035,1.0996,1.0967,1.0889,1.0889,1.0859,1.0791,1.0723,1.0684,1.0615,1.0586,1.0586,1.0557,1.0488,1.0488,1.0459,1.0459,1.0459,1.0459,1.0459,1.0459,1.0459,1.0488,1.0488,1.0488,1.0488,1.0488,1.0488,1.0488,1.0488,1.0488,1.0518,1.0518,1.0488,1.0518,1.0518,1.0518,1.0518,1.0518,1.0527,1.0586,1.0586,1.0586,1.0625,1.0625,1.0625,1.0625,1.0654,1.0654,1.0654,1.0625,1.0654,1.0654,1.0723,0,1.2939,1.2891,1.2939,1.2939,1.2939,1.2939,1.2939,1.2939,1.2939,1.2939,1.2939,1.2939,1.2988,1.2939,1.2988,1.2939,1.2988,1.2988,1.2939,1.2939,1.2939,1.2939,1.2939,1.2939,1.2939,1.2939,1.2939,1.2939,1.2939,1.2939,1.2939,1.2939,1.2939,1.2939,1.2939,1.2939,1.2939,1.2988,1.2939,1.2939,1.2939,1.2939,1.2939,1.2939,1.2939,1.2939,1.2939,1.2939,1.2939,1.2939,1.2939,1.2939,1.2988,1.2988,1.2988,1.2988,1.2988,1.2988,1.2988,1.2988,1.2988,1.2939,1.2939,1.2939,1.2939,1.2939,1.2939,1.2939,1.2939,1.2939,1.2939,1.2939,1.2939,1.2939,1.2939,1.2939,1.2988,1.2988,1.2988,1.2988,1.2939,1.2939,1.2939,1.2988,1.2939,1.2939,1.2939,1.2939,1.2939,1.2939,1.2939,1.2939,1.2939,1.2939,1.2939,1.2939,1.2939,1.2891,1.2939,1.2939,1.2939,1.2939,1.2939,1.2939,1.2939,1.2939,1.2939,1.2939,1.2939,1.2939,1.2939,1.2939,1.2939,1.2939,1.2939,1.2939,1.2939,1.2998,1.2998,1.2998,1.2998,1.2949,1.2949,1.2949,1.2998,1.2998,1.2998,1.2998,1.2998,1.2998,1.2998,1.2998,1.2949,1.2998,1.2949,1.2949,1.29,0,0,0,0,0,0,0,0,0,0,0,0,0,0,0,0,0,0,0,0,0,0,0,1.5713,1.5635,1.5635,1.3623,1.3574,1.3457,1.3457,1.3408,1.3408,1.3359,1.3359,1.3359,1.3301,1.3301,1.3252,1.3252,1.3203,1.3203,1.3203,1.3203,1.3145,1.3203,1.3154,1.3154,1.3096,1.3096,1.3047,1.3047,1.2998,1.2998,1.2998,1.2949,1.2949,1.2949,1.29,1.2949,1.29,1.29,1.29,1.29,1.29,1.29,1.2852,1.2852,1.2852,1.2803,1.2803,1.2754,1.2754,1.2754,1.2754,1.2705,1.2705,1.2656,1.2656,1.2656,0,0,0,0,0,0,0,0,0,0,0,0,0,0,0,0,0,0,0,0,0,0,0,0,0,0,0,0,0,0,0,0
0.86133,0.86133,0.86133,0.86133,0.86133,0.86133,0.86133,0.86328,0.86572,0.86328,0.86328,0.86572,0.86572,0.86328,0.86328,0.86328,0.86572,0.86572,0.86572,0.86572,0.86768,0.86768,0.87012,0.87012,0.87012,0.87012,0.86768,0.87012,0.87012,0.87012,0.87012,0.87012,0.87012,0.87012,0.87256,0.87256,0.87256,0,0.8794,0.88135,0.88379,0.88623,0.88867,0.88867,0.89062,0.89307,0.89307,0.89551,0.89551,0.89551,0.89551,0.89551,0.89551,0.89551,0.89307,0.89307,0.89307,0.89307,0.89551,0.89551,0.89551,0.89551,0.89551,0.89551,0.89795,0.89795,0.89795,0.90039,0.90039,0.90039,0.90039,0.90039,0.89795,0.89795,0.89795,0.89795,0.89795,0.89795,0.89551,0.89795,0.89795,0.89795,0,0,0,0,1.125,1.125,1.125,1.125,1.125,1.1289,1.1289,1.1289,1.1289,1.1289,1.1289,1.1289,1.1328,1.1328,1.1328,1.1328,1.1328,1.1367,1.1367,1.1367,1.1367,1.1406,1.1406,1.1406,1.1406,1.1406,1.1406,1.1406,1.1367,1.1367,1.1367,1.1328,0,0,0,1.4062,1.4121,1.4121,1.418,1.4238,1.4238,1.4238,1.4238,1.4238,1.4238,1.4238,1.4238,1.4238,1.4238,1.4297,1.4238,1.4297,1.4297,1.4297,1.4297,1.4297,1.4297,1.4355,1.4355,1.4355,1.4355,1.4355,1.4355,1.4355,1.4355,1.4355,1.4355,1.4424,1.4424,1.4424,1.4424,1.4424,1.4482,1.4541,1.4541,1.4541,1.4541,1.4541,1.4541,1.4541,1.4541,1.4541,1.4541,1.4482,1.4482,1.4482,1.4365,0,0,0,1.1182,1.1143,1.1035,1.0996,1.0967,1.0889,1.0859,1.082,1.0752,1.0723,1.0625,1.0625,1.0586,1.0557,1.0518,1.0488,1.0488,1.0459,1.0459,1.0459,1.0459,1.0459,1.0459,1.0459,1.0488,1.0488,1.0488,1.0488,1.0488,1.0488,1.0488,1.0488,1.0488,1.0518,1.0527,1.0488,1.0527,1.0527,1.0527,1.0527,1.0527,1.0527,1.0586,1.0586,1.0586,1.0625,1.0625,1.0625,1.0625,1.0654,1.0654,1.0654,1.0625,1.0654,1.0654,1.0723,0,0,1.2939,1.2939,1.2939,1.2939,1.2939,1.2939,1.2939,1.2939,1.2939,1.2939,1.2939,1.2939,1.2939,1.2988,1.2988,1.2988,1.2988,1.2939,1.2939,1.2939,1.2939,1.2939,1.2939,1.2939,1.2939,1.2939,1.2939,1.2939,1.2939,1.2939,1.2939,1.2939,1.2939,1.2988,1.2939,1.2939,1.2988,1.2939,1.2939,1.2939,1.2939,1.2939,1.2939,1.2939,1.2939,1.2939,1.2939,1.2939,1.2939,1.2939,1.2939,1.2988,1.2988,1.2988,1.2988,1.2988,1.2988,1.2988,1.2988,1.2939,1.2939,1.2939,1.2939,1.2939,1.2939,1.2939,1.2939,1.2939,1.2939,1.2939,1.2939,1.2939,1.2939,1.2939,1.2988,1.2988,1.2988,1.2988,1.2988,1.2939,1.2988,1.2988,1.2988,1.2939,1.2939,1.2939,1.2939,1.2939,1.2939,1.2939,1.2939,1.2939,1.2939,1.2939,1.2939,1.2939,1.2891,1.2939,1.2939,1.2939,1.2939,1.2939,1.2939,1.2939,1.2939,1.2939,1.2939,1.2939,1.2939,1.2939,1.2939,1.2939,1.2949,1.2949,1.2949,1.2949,1.2998,1.2998,1.2998,1.2998,1.2949,1.2949,1.2949,1.2998,1.2998,1.2998,1.2998,1.2998,1.2998,1.2998,1.2998,1.2949,1.2998,1.2949,1.2949,1.2949,0,0,0,0,0,0,0,0,0,0,0,0,0,0,0,0,0,0,0,0,0,0,0,1.5635,1.5635,1.5713,1.3623,1.3574,1.3516,1.3516,1.3467,1.3467,1.3408,1.3359,1.3359,1.3301,1.3301,1.3252,1.3252,1.3252,1.3203,1.3203,1.3203,1.3203,1.3203,1.3203,1.3154,1.3096,1.3096,1.3047,1.3047,1.3047,1.2998,1.2998,1.2949,1.2949,1.2949,1.2949,1.2949,1.29,1.2949,1.29,1.29,1.29,1.29,1.2852,1.2852,1.2803,1.2803,1.2754,1.2754,1.2754,1.2705,1.2705,1.2705,1.2705,1.2656,1.2656,1.2656,0,0,0,0,0,0,0,0,0,0,0,0,0,0,0,0,0,0,0,0,0,0,0,0,0,0,0,0,0,0,0,0
0.86133,0.86133,0.86133,0.86133,0.86133,0.86133,0.86133,0.86328,0.86328,0.86328,0.86328,0.86328,0.86328,0.86328,0.86133,0.86133,0.86328,0.86572,0.86572,0.86572,0.86572,0.86572,0.87012,0.86768,0.87012,0.86768,0.86768,0.86768,0.86768,0.86768,0.86816,0.87012,0.87012,0.87012,0.87012,0.87256,0.87256,0.87695,0.8794,0.88135,0,0.88623,0.88623,0.88867,0.88867,0.89062,0.89307,0.89551,0.89551,0.89551,0.89551,0.89551,0.89551,0.89551,0.89307,0.89307,0.89307,0.89307,0.89551,0.89551,0.89551,0.89551,0.89551,0.89551,0.89795,0.89795,0.89795,0.90039,0.90039,0.90039,0.90283,0.90039,0.89795,0.89795,0.89795,0.89795,0.89795,0.89795,0.89795,0.89795,0.90039,0.90039,0,0,0,0,1.125,1.125,1.125,1.125,1.125,1.1289,1.1289,1.1289,1.1289,1.1289,1.1289,1.1328,1.1328,1.1328,1.1328,1.1328,1.1328,1.1367,1.1367,1.1367,1.1406,1.1406,1.1406,1.1406,1.1406,1.1406,1.1406,1.1406,1.1367,1.1367,1.1367,1.1328,0,0,1.4004,1.4004,1.4004,1.4062,1.4062,1.4062,1.4062,1.4121,1.4121,1.4121,1.4121,1.4121,1.4121,1.4121,1.418,1.418,1.418,1.4238,1.418,1.418,1.4238,1.4238,1.4238,1.4297,1.4297,1.4297,1.4297,1.4297,1.4297,1.4297,1.4297,1.4297,1.4297,1.4297,1.4355,1.4297,1.4355,1.4355,1.4424,1.4424,1.4424,1.4482,1.4482,1.4424,1.4482,1.4482,1.4482,1.4482,1.4482,1.4424,1.4424,1.4365,1.4365,0,0,0,1.1182,1.1143,1.1074,1.0996,1.0967,1.0898,1.0859,1.082,1.0752,1.0723,1.0625,1.0625,1.0586,1.0557,1.0518,1.0488,1.0488,1.0459,1.0459,1.043,1.0459,1.0459,1.0459,1.0459,1.0488,1.0518,1.0488,1.0488,1.0488,1.0488,1.0488,1.0488,1.0488,1.0527,1.0527,1.0527,1.0557,1.0527,1.0527,1.0557,1.0527,1.0527,1.0586,1.0586,1.0586,1.0625,1.0625,1.0625,1.0654,1.0654,1.0654,1.0654,1.0654,1.0654,1.0693,1.0723,0,0,1.2939,1.2988,1.2939,1.2939,1.2939,1.2988,1.2939,1.2939,1.2939,1.2939,1.2939,1.2939,1.2939,1.2988,1.2988,1.2988,1.2939,1.2939,1.2939,1.2939,1.2939,1.2939,1.2939,1.2939,1.2939,1.2939,1.2939,1.2939,1.2939,1.2939,1.2939,1.2939,1.2939,1.2988,1.2988,1.2988,1.2988,1.2939,1.2939,1.2939,1.2939,1.2939,1.2939,1.2939,1.2939,1.2939,1.2939,1.2939,1.2939,1.2939,1.2939,1.2988,1.2988,1.2988,1.2988,1.2988,1.2988,1.2988,1.2988,1.2939,1.2939,1.2939,1.2939,1.2939,1.2939,1.2939,1.2939,1.2939,1.2939,1.2939,1.2939,1.2939,1.2939,1.2939,1.2988,1.2988,1.2988,1.2988,1.2988,1.2988,1.2988,1.2988,1.2988,1.2988,1.2939,1.2988,1.2988,1.2939,1.2939,1.2939,1.2939,1.2939,1.2939,1.2939,1.2939,1.2939,1.2939,1.2939,1.2939,1.2939,1.2939,1.2939,1.2939,1.2939,1.2939,1.2949,1.2949,1.2949,1.2949,1.2949,1.2949,1.2949,1.2949,1.2949,1.2949,1.2949,1.2998,1.2998,1.2998,1.2998,1.2949,1.2949,1.2949,1.2998,1.2998,1.2998,1.2998,1.2998,1.2998,1.2998,1.2998,1.2949,1.2998,1.2949,1.2949,1.2998,0,0,0,0,0,0,0,0,0,0,0,0,0,0,0,0,0,0,0,0,0,0,1.5713,1.5635,1.5635,1.3623,1.3623,1.3574,1.3516,1.3516,1.3467,1.3467,1.3408,1.3408,1.3359,1.3301,1.3301,1.3252,1.3252,1.3252,1.3203,1.3203,1.3203,1.3154,1.3203,1.3154,1.3154,1.3096,1.3096,1.3047,1.3047,1.3047,1.2998,1.2998,1.2949,1.2949,1.2949,1.29,1.2949,1.2949,1.2949,1.29,1.29,1.29,1.2852,1.2852,1.2852,1.2803,1.2803,1.2754,1.2754,1.2754,1.2705,1.2705,1.2705,1.2705,1.2666,1.2666,0,0,0,0,0,0,0,0,0,0,0,0,0,0,0,0,0,0,0,0,0,0,0,0,0,0,0,0,0,0,0,0,0
0.86133,0.86133,0.86133,0.86133,0.86133,0.86133,0.86133,0.86328,0.86328,0.86328,0.86133,0.86133,0.86328,0.86133,0.86133,0.86133,0.86133,0.86328,0.86328,0.86572,0.86572,0.86572,0.86816,0.86816,0.86816,0.86816,0.86816,0.86816,0.86816,0.86816,0.86816,0.86816,0.87012,0.87012,0.87012,0.87012,0.87256,0.87695,0.8794,0.88135,0,0.88623,0.88623,0.88623,0.88867,0.88867,0.88867,0.89307,0.89307,0.89307,0.89307,0.89307,0.89307,0.89307,0.89307,0.89307,0.89307,0.89307,0.89307,0.89551,0.89551,0.89551,0.89795,0.89795,0.89795,0.90039,0.90039,0.90283,0.90283,0.90283,0.90283,0.90283,0.90039,0.90039,0.89795,0.89795,0.89795,0.89795,0.89795,0.90039,0.89795,0.89795,0,0,0,0,1.125,1.125,1.125,1.125,1.125,1.1289,1.1289,1.1289,1.1289,1.1328,1.1328,1.1328,1.1328,1.1367,1.1367,1.1328,1.1367,1.1367,1.1367,1.1367,1.1406,1.1406,1.1406,1.1406,1.1406,1.1406,1.1406,1.1406,1.1367,1.1367,1.1367,1.1328,0,0,1.3945,1.3945,1.3945,1.4004,1.4004,1.4004,1.4004,1.4062,1.4062,1.4062,1.4062,1.4062,1.4121,1.4121,1.4062,1.4062,1.4062,1.4121,1.4062,1.4062,1.4121,1.4121,1.418,1.4238,1.4238,1.4238,1.418,1.4238,1.4238,1.418,1.418,1.418,1.418,1.4238,1.4238,1.4238,1.4297,1.4365,1.4365,1.4365,1.4365,1.4424,1.4424,1.4424,1.4424,1.4424,1.4424,1.4424,1.4424,1.4424,1.4365,1.4365,0,0,0,0,1.1182,1.1113,1.1074,1.0996,1.0967,1.0898,1.0859,1.082,1.0752,1.0723,1.0625,1.0586,1.0586,1.0557,1.0518,1.0488,1.0488,1.0459,1.0459,1.0459,1.0459,1.0459,1.0459,1.0459,1.0488,1.0527,1.0527,1.0488,1.0488,1.0488,1.0527,1.0527,1.0527,1.0527,1.0527,1.0557,1.0557,1.0557,1.0557,1.0557,1.0557,1.0557,1.0586,1.0586,1.0625,1.0625,1.0654,1.0654,1.0654,1.0654,1.0654,1.0654,1.0654,1.0693,1.0693,1.0762,0,0,1.2988,1.2988,1.2988,1.2988,1.2988,1.2988,1.2988,1.2939,1.2939,1.2939,1.2939,1.2939,1.2939,1.2939,1.2939,1.2988,1.2939,1.2939,1.2939,1.2939,1.2939,1.2939,1.2939,1.2939,1.2939,1.2939,1.2939,1.2939,1.2939,1.2939,1.2939,1.2939,1.2939,1.2988,1.2939,1.2988,1.2988,1.2939,1.2939,1.2939,1.2939,1.2939,1.2939,1.2939,1.2939,1.2939,1.2939,1.2939,1.2939,1.2939,1.2939,1.3037,1.2988,1.2988,1.2988,1.2988,1.2988,1.2988,1.2988,1.2939,1.2939,1.2939,1.2939,1.2939,1.2939,1.2939,1.2939,1.2939,1.2939,1.2939,1.2939,1.2939,1.2988,1.2939,1.2939,1.2988,1.2939,1.2988,1.2939,1.2939,1.2988,1.2939,1.2939,1.2939,1.2939,1.2988,1.2939,1.2939,1.2939,1.2939,1.2891,1.2891,1.2891,1.2939,1.2939,1.2939,1.2939,1.2949,1.2998,1.2949,1.2949,1.2949,1.2949,1.2949,1.2949,1.2949,1.2949,1.2949,1.2949,1.2949,1.2949,1.2949,1.2949,1.2949,1.2949,1.2949,1.2998,1.2998,1.2998,1.2998,1.2998,1.2998,1.2998,1.2998,1.2998,1.2998,1.2998,1.3047,1.2998,1.2998,1.2998,1.2949,1.2949,1.2949,1.2949,1.29,1.2949,0,0,0,0,0,0,0,0,0,0,0,0,0,0,0,0,0,0,0,0,1.5566,1.5635,1.5635,1.5635,1.5635,1.3623,1.3574,1.3516,1.3516,1.3467,1.3467,1.3408,1.3359,1.3359,1.3301,1.3301,1.3252,1.3252,1.3252,1.3203,1.3203,1.3203,1.3154,1.3154,1.3154,1.3154,1.3096,1.3096,1.3047,1.3047,1.3047,1.2998,1.2998,1.2949,1.2949,1.2949,1.2949,1.2949,1.2949,1.2949,1.29,1.29,1.29,1.2852,1.2852,1.2852,1.2803,1.2803,1.2754,1.2754,1.2754,1.2705,1.2705,1.2705,1.2705,1.2666,1.2666,0,0,0,0,0,0,0,0,0,0,0,0,0,0,0,0,0,0,0,0,0,0,0,0,0,0,0,0,0,0,0,0,0
0.86133,0.86133,0.86133,0.86133,0.86133,0.85889,0.85889,0.86133,0.86328,0.86133,0.86133,0.86133,0.86133,0.86133,0.86133,0.86133,0.86133,0.86328,0.86328,0.86328,0.86572,0.86572,0.86816,0.86816,0.86816,0.86816,0.86816,0.86816,0.86816,0.86816,0.86816,0.87012,0.87012,0.87256,0.87256,0.87256,0.875,0.87695,0.87695,0.8794,0.88379,0.88623,0.88623,0.88623,0.88867,0.88867,0.88867,0.89111,0.89307,0.89307,0.89307,0.89307,0.89307,0.89111,0.89111,0.89111,0.89111,0.89111,0.89355,0.89551,0.89355,0.89551,0.89551,0.89795,0.89795,0.90039,0.90283,0.90527,0.90527,0.90527,0.90527,0.90283,0.90039,0.90039,0.90039,0.89795,0.89795,0.89795,0.89795,0.93018,0.93018,0.93262,0.93262,0.93262,0.93018,0,1.1289,1.1289,1.125,1.125,1.1289,1.1289,1.1289,1.1289,1.1289,1.1328,1.1328,1.1328,1.1367,1.1367,1.1367,1.1367,1.1367,1.1367,1.1367,1.1367,1.1406,1.1406,1.1406,1.1406,1.1406,1.1406,1.1406,1.1406,1.1367,1.1367,1.1367,1.1367,0,0,1.3887,1.3887,1.3887,1.3887,1.3945,1.3887,1.3945,1.3945,1.4004,1.4004,1.4004,1.4004,1.4004,1.4004,1.4004,1.4004,1.4004,1.4062,1.4062,1.4062,1.4004,1.4062,1.4121,1.4121,1.4121,1.4062,1.4121,1.4062,1.4121,1.4062,1.4062,1.4121,1.4121,1.418,1.418,1.418,1.4238,1.4297,1.4297,1.4365,1.4365,1.4365,1.4365,1.4365,1.4365,1.4365,1.4424,1.4424,1.4424,1.4365,1.4365,1.4365,0,0,0,0,1.1113,1.1113,1.1074,1.1035,1.0967,1.0928,1.0859,1.0791,1.0752,1.0693,1.0625,1.0586,1.0586,1.0557,1.0527,1.0488,1.0488,1.0459,1.0459,1.0459,1.0459,1.0459,1.0459,1.0459,1.0488,1.0527,1.0488,1.0527,1.0527,1.0527,1.0527,1.0527,1.0527,1.0557,1.0557,1.0557,1.0557,1.0557,1.0557,1.0557,1.0557,1.0557,1.0586,1.0586,1.0625,1.0625,1.0654,1.0654,1.0654,1.0654,1.0654,1.0654,1.0654,1.0654,1.0693,0,0,1.3037,1.2988,1.2988,1.2988,1.2988,1.2988,1.2988,1.2988,1.2939,1.2939,1.2939,1.2939,1.2939,1.2939,1.2939,1.2939,1.2988,1.2939,1.2939,1.2939,1.2939,1.2939,1.2939,1.2939,1.2939,1.2939,1.2939,1.2939,1.2939,1.2939,1.2939,1.2939,1.2939,1.2939,1.2939,1.2939,1.2988,1.2988,1.2988,1.2939,1.2988,1.2939,1.2939,1.2939,1.2939,1.2939,1.2939,1.2939,1.2939,1.2939,1.2939,1.2939,1.2988,1.2988,1.2988,1.2988,1.2988,1.2988,1.2988,1.2988,1.2988,1.2939,1.2939,1.2988,1.2939,1.2988,1.2988,1.2939,1.2988,1.2939,1.2939,1.2939,1.2939,1.2998,1.2939,1.2998,1.2998,1.2998,1.2998,1.2998,1.2939,1.2939,1.2939,1.2939,1.2939,1.2939,1.2998,1.2939,1.2939,1.2939,1.2939,1.2891,1.2891,1.2891,1.2949,1.2891,1.2891,1.2949,1.2949,1.2949,1.2949,1.2949,1.2949,1.2949,1.2949,1.2949,1.2949,1.2949,1.2949,1.2949,1.2949,1.2949,1.2949,1.2949,1.2949,1.2949,1.2949,1.2998,1.2998,1.2998,1.2998,1.2998,1.2949,1.2949,1.2998,1.2998,1.2998,1.2998,1.3047,1.2998,1.2998,1.2998,1.2949,1.2949,1.2949,1.2998,1.29,0,0,0,0,0,0,0,0,0,0,0,0,0,0,0,0,0,0,0,0,0,0,1.5645,1.5645,1.5645,1.5645,1.3574,1.3516,1.3516,1.3516,1.3467,1.3467,1.3408,1.3359,1.3311,1.3311,1.3311,1.3252,1.3252,1.3252,1.3203,1.3203,1.3203,1.3154,1.3203,1.3203,1.3154,1.3154,1.3105,1.3105,1.3047,1.3047,1.3047,1.2998,1.2998,1.2998,1.2949,1.2949,1.2949,1.2949,1.2949,1.29,1.29,1.29,1.2852,1.2852,1.2852,1.2803,1.2803,1.2754,1.2754,1.2754,1.2705,1.2705,1.2705,1.2705,1.2666,1.2666,0,0,0,0,0,0,0,0,0,0,0,0,0,0,0,0,0,0,0,0,0,0,0,0,0,0,0,0,0,0,0,0,0
0.86133,0.86133,0.86133,0.86133,0.86133,0.86133,0.85889,0.86133,0.86133,0.86133,0.85889,0.85889,0.85889,0.85938,0.85938,0.86133,0.86133,0.86133,0.86377,0.86377,0.86572,0.86572,0.86816,0.86816,0.86816,0.86816,0.86816,0.86816,0.86816,0.87012,0.86816,0.87012,0.87256,0.87256,0.875,0.875,0.875,0.87695,0.8794,0.8794,0.88184,0.88379,0.88379,0.88379,0.88623,0.88867,0.88867,0.88867,0.88867,0.89111,0.89111,0.89111,0.89111,0.88867,0.88867,0.88867,0.89111,0.88867,0.89111,0.89355,0.89551,0.89551,0.896,0.89795,0.90039,0.90283,0.90283,0.90527,0.90527,0.90527,0.90772,0.90527,0.90283,0.90283,0.90039,0.90039,0.89844,0.89844,0.9331,0.93018,0.93018,0.9331,0.9331,0.9331,0.93018,0.93799,0.93799,0,1.125,1.125,1.1289,1.1289,1.1289,1.1328,1.1328,1.1328,1.1328,1.1328,1.1367,1.1367,1.1367,1.1367,1.1367,1.1367,1.1367,1.1367,1.1367,1.1406,1.1406,1.1406,1.1406,1.1406,1.1406,1.1406,1.1406,1.1406,1.1367,1.1367,0,0,1.3887,1.3887,1.3887,1.3887,1.3887,1.3828,1.3828,1.3887,1.3887,1.3945,1.3945,1.3887,1.3945,1.3945,1.3945,1.3945,1.3945,1.4004,1.4004,1.4004,1.4004,1.4004,1.4004,1.4004,1.4062,1.4004,1.4004,1.4004,1.4062,1.4004,1.4062,1.4062,1.4062,1.4062,1.4062,1.4062,1.4121,1.4238,1.4238,1.4238,1.4238,1.4238,1.4238,1.4297,1.4365,1.4297,1.4365,1.4297,1.4365,1.4365,1.4365,1.4307,0,0,0,0,1.1113,1.1074,1.1074,1.1006,1.0967,1.0928,1.0859,1.0791,1.0762,1.0723,1.0625,1.0625,1.0586,1.0557,1.0527,1.0488,1.0488,1.0459,1.0459,1.0459,1.0459,1.0459,1.0459,1.0459,1.0488,1.0527,1.0527,1.0527,1.0527,1.0527,1.0557,1.0557,1.0527,1.0557,1.0557,1.0557,1.0586,1.0586,1.0586,1.0586,1.0586,1.0557,1.0586,1.0625,1.0625,1.0625,1.0654,1.0654,1.0654,1.0654,1.0654,1.0654,1.0654,1.0654,1.0654,0,0,1.3037,1.3037,1.2988,1.2988,1.2988,1.2988,1.2988,1.2988,1.2939,1.2939,1.2939,1.2939,1.2939,1.2939,1.2939,1.2939,1.2939,1.2939,1.2939,1.2939,1.2939,1.2939,1.2939,1.2939,1.2939,1.2939,1.2939,1.2939,1.2939,1.2939,1.2939,1.2939,1.2939,1.2939,1.2939,1.2939,1.2988,1.2988,1.2988,1.2939,1.2988,1.2939,1.2939,1.2939,1.2939,1.2939,1.2939,1.2939,1.2939,1.2939,1.2939,1.2939,1.2988,1.2988,1.2988,1.2988,1.2988,1.2988,1.2988,1.2988,1.2988,1.2939,1.2988,1.2988,1.2988,1.2998,1.2998,1.2998,1.2998,1.2998,1.2998,1.2939,1.2998,1.2998,1.2998,1.2998,1.2998,1.2998,1.2998,1.2998,1.2949,1.2949,1.2949,1.2949,1.2949,1.2949,1.2949,1.2949,1.2949,1.2949,1.2949,1.29,1.29,1.2949,1.2949,1.2949,1.2949,1.2949,1.2949,1.2949,1.2949,1.2949,1.2949,1.2949,1.2949,1.2949,1.2949,1.2949,1.2949,1.2949,1.2949,1.2949,1.2949,1.2949,1.2949,1.2949,1.2949,1.2998,1.2998,1.2998,1.2998,1.2949,1.2949,1.2998,1.2998,1.2998,1.2998,1.2998,1.2998,1.2998,1.2998,1.2998,1.2998,1.2949,1.2949,1.29,1.29,0,0,0,0,0,0,0,0,0,0,0,0,0,0,0,0,0,0,0,0,0,1.5645,1.5645,1.5645,1.5645,1.3623,1.3682,1.3516,1.3516,1.3467,1.3467,1.3467,1.3408,1.3408,1.3359,1.3311,1.3311,1.3252,1.3252,1.3252,1.3252,1.3203,1.3203,1.3203,1.3203,1.3203,1.3203,1.3154,1.3105,1.3105,1.3105,1.3047,1.3047,1.3047,1.2998,1.2998,1.2998,1.2949,1.2949,1.2949,1.2949,1.29,1.29,1.29,1.2852,1.2852,1.2803,1.2754,1.2754,1.2754,1.2754,1.2705,1.2715,1.2715,1.2715,1.2715,1.2715,1.2666,0,0,0,0,0,0,0,0,0,0,0,0,0,0,0,0,0,0,0,0,0,0,0,0,0,0,0,0,0,0,0,0,0
0.86133,0.86133,0.86133,0.86133,0.86133,0.86133,0.86133,0.86133,0.86133,0.86133,0.85938,0.85938,0.85938,0.85938,0.85938,0.85938,0.85938,0.86133,0.86377,0.86377,0.86572,0.86572,0.86816,0.86816,0.86816,0.86816,0.86816,0.87012,0.86816,0.87012,0.87012,0.87256,0.87256,0.875,0.875,0.875,0.87695,0.87695,0.8794,0.8794,0.8794,0.88379,0.88184,0.88184,0.88379,0.88623,0.88623,0.88867,0.88623,0.88867,0.88867,0.88867,0.88867,0.88867,0.88867,0.88867,0.88867,0.88867,0.88867,0.89111,0.896,0.896,0.896,0.89795,0.90039,0.90283,0.90527,0.90527,0.90527,0.90772,0.90772,0.90527,0.90527,0.90527,0.90527,0.90039,0.90039,0.92773,0.93018,0.92773,0.93018,0.93018,0.93018,0.93018,0.93018,0.9331,0.93799,0.93799,0,0,1.1328,1.1328,1.1328,1.1328,1.1328,1.1328,1.1367,1.1367,1.1367,1.1367,1.1367,1.1367,1.1367,1.1406,1.1406,1.1406,1.1406,1.1406,1.1406,1.1406,1.1406,1.1406,1.1406,1.1406,1.1406,1.1367,1.1367,0,0,1.3779,1.3828,1.3828,1.3828,1.3828,1.3828,1.3828,1.3828,1.3828,1.3828,1.3828,1.3828,1.3828,1.3828,1.3887,1.3887,1.3887,1.3887,1.3945,1.3945,1.4004,1.3945,1.3945,1.3945,1.3945,1.3945,1.3945,1.3945,1.3945,1.3945,1.3945,1.4004,1.4004,1.4004,1.4062,1.4062,1.4062,1.4062,1.4121,1.4121,1.4121,1.4121,1.4121,1.4121,1.4121,1.4238,1.4238,1.4307,1.4238,1.4307,1.4238,1.4307,0,0,0,0,0,0,1.1074,1.1035,1.1006,1.0967,1.0928,1.0898,1.083,1.0762,1.0693,1.0625,1.0625,1.0586,1.0557,1.0527,1.0488,1.0488,1.0459,1.0459,1.0459,1.0459,1.0459,1.0488,1.0488,1.0527,1.0527,1.0557,1.0557,1.0527,1.0557,1.0557,1.0557,1.0557,1.0557,1.0557,1.0586,1.0586,1.0586,1.0586,1.0557,1.0596,1.0596,1.0625,1.0625,1.0625,1.0654,1.0654,1.0654,1.0693,1.0654,1.0693,1.0693,1.0693,1.0693,1.0654,0,0,1.3037,1.2988,1.2988,1.2988,1.2988,1.2988,1.2988,1.2988,1.2988,1.2939,1.2939,1.2939,1.2939,1.2939,1.2939,1.2939,1.2939,1.2939,1.2939,1.2939,1.2939,1.2939,1.2939,1.2939,1.2939,1.2939,1.2939,1.2939,1.2939,1.2939,1.2939,1.2939,1.2939,1.2939,1.2939,1.2939,1.2939,1.2988,1.2939,1.2988,1.2988,1.2939,1.2939,1.2939,1.2939,1.2939,1.2939,1.2939,1.2939,1.2939,1.2939,1.2939,1.2988,1.2988,1.2988,1.2988,1.2988,1.2988,1.2998,1.2998,1.2998,1.2939,1.2998,1.2998,1.2998,1.2998,1.2998,1.2998,1.2998,1.2998,1.2998,1.2998,1.2998,1.2998,1.2998,1.2998,1.2998,1.2998,1.2998,1.2949,1.2949,1.2949,1.2949,1.2949,1.2949,1.2949,1.2949,1.2949,1.2949,1.2949,1.2949,1.2949,1.29,1.2949,1.2949,1.2949,1.2949,1.2949,1.2949,1.2949,1.2949,1.2949,1.2949,1.2949,1.2949,1.2949,1.2949,1.2949,1.2949,1.2949,1.2949,1.2949,1.2949,1.2949,1.2949,1.2949,1.2949,1.2998,1.2998,1.2998,1.2998,1.2998,1.2998,1.2998,1.2998,1.2998,1.2998,1.2998,1.2998,1.2998,1.2998,1.2998,1.2998,1.2949,1.2998,1.29,1.29,0,0,0,0,0,0,0,0,0,0,0,0,0,0,0,0,0,0,0,0,0,0,0,0,1.5645,0,1.3623,1.3516,1.3516,1.3467,1.3467,1.3467,1.3408,1.3408,1.3359,1.3311,1.3311,1.3252,1.3252,1.3252,1.3252,1.3203,1.3203,1.3154,1.3252,1.3203,1.3203,1.3154,1.3105,1.3105,1.3105,1.3047,1.3057,1.3057,1.3057,1.2998,1.2949,1.2949,1.2949,1.29,1.29,1.29,1.29,1.2852,1.2852,1.2852,1.2803,1.2754,1.2754,1.2754,1.2715,1.2715,1.2715,1.2715,1.2715,1.2715,1.2617,1.2666,0,0,0,0,0,0,0,0,0,0,0,0,0,0,0,0,0,0,0,0,0,0,0,0,0,0,0,0,0,0,0,0,0
0.86133,0.86133,0.86133,0.86377,0.86377,0.86377,0.86133,0.86133,0.86133,0.86133,0.85938,0.85938,0.85938,0.86133,0.86133,0.86133,0.86133,0.86133,0.86377,0.86377,0.86572,0.86572,0.86816,0.86816,0.86816,0.86816,0.86816,0.87012,0.86816,0.87012,0.87012,0.87012,0.875,0.875,0.87695,0.875,0.87695,0.87695,0.8794,0.8794,0.8794,0.88184,0.88184,0.88184,0.88184,0.88428,0.88428,0.88428,0.88623,0.88623,0.88623,0.88623,0.88867,0.88623,0.88867,0.88867,0.88867,0.88867,0.88867,0.89111,0.896,0.89355,0.896,0.89844,0.90039,0.90283,0.90527,0.90527,0.90772,0.90772,0.90772,0.90772,0.90772,0.91016,0.92529,0.92529,0.92529,0.92773,0.93018,0.93018,0.93018,0.93018,0.93018,0.9331,0.9331,0.9331,0.9331,0.93799,0,0,0,1.1328,1.1328,1.1328,1.1328,1.1367,1.1367,1.1367,1.1367,1.1367,1.1367,1.1367,1.1406,1.1406,1.1406,1.1406,1.1406,1.1406,1.1406,1.1406,1.1406,1.1406,1.1406,1.1406,1.1406,1.1406,0,0,1.3721,1.3721,1.3779,1.3779,1.3779,1.3779,1.3828,1.3779,1.3779,1.3779,1.3779,1.3721,1.3779,1.3779,1.3779,1.3779,1.3828,1.3828,1.3828,1.3887,1.3887,1.3945,1.3887,1.3887,1.3945,1.3945,1.3887,1.3887,1.3887,1.3887,1.3887,1.3887,1.3887,1.3945,1.3945,1.4004,1.4004,1.4004,1.4004,1.4062,1.4062,1.4062,1.4062,1.4062,1.4062,1.4062,1.4121,1.4121,1.4121,1.4121,1.4121,1.4121,1.4238,1.4238,0,0,0,0,0,1.1074,1.1035,1.1006,1.0967,1.0928,1.0898,1.083,1.0762,1.0723,1.0625,1.0625,1.0586,1.0557,1.0527,1.0488,1.0488,1.0459,1.0488,1.0459,1.0459,1.0459,1.0488,1.0488,1.0488,1.0527,1.0557,1.0557,1.0557,1.0557,1.0557,1.0557,1.0557,1.0557,1.0557,1.0596,1.0596,1.0596,1.0596,1.0596,1.0596,1.0596,1.0625,1.0625,1.0625,1.0654,1.0654,1.0654,1.0654,1.0693,1.0693,1.0693,1.0654,1.0693,1.0693,0,0,1.2988,1.2988,1.2988,1.2988,1.2988,1.2988,1.2988,1.2988,1.2988,1.2939,1.2939,1.2939,1.2939,1.2939,1.2939,1.2939,1.2988,1.2939,1.2939,1.2939,1.2988,1.2939,1.2939,1.2939,1.2939,1.2939,1.2939,1.2939,1.2939,1.2939,1.2939,1.2939,1.2939,1.2939,1.2939,1.2939,1.2939,1.2939,1.2939,1.2939,1.2988,1.2939,1.2939,1.2939,1.2939,1.2939,1.2939,1.2939,1.2939,1.2939,1.2939,1.2939,1.2998,1.2998,1.2998,1.2998,1.2998,1.2998,1.2998,1.2998,1.2998,1.2998,1.2998,1.2998,1.2998,1.2998,1.2998,1.2998,1.2998,1.2998,1.2998,1.2998,1.2998,1.2998,1.2998,1.2998,1.2998,1.2998,1.2998,1.2998,1.2949,1.2949,1.2949,1.2949,1.2949,1.2949,1.2949,1.29,1.2949,1.2949,1.2949,1.2949,1.2949,1.2949,1.2949,1.2949,1.2949,1.2949,1.2949,1.2949,1.2949,1.2949,1.2949,1.2949,1.2949,1.2949,1.2949,1.2949,1.2949,1.2949,1.2949,1.2949,1.2949,1.2949,1.2949,1.2949,1.2949,1.2998,1.2998,1.3047,1.2998,1.2998,1.2998,1.2998,1.2998,1.2998,1.2998,1.2998,1.2998,1.2998,1.2998,1.2998,1.2998,1.2998,1.2998,1.2949,1.2949,0,0,0,0,0,0,0,0,0,0,0,0,0,0,0,0,0,0,0,0,0,0,0,0,0,0,1.3633,1.3574,1.3516,1.3467,1.3467,1.3467,1.3408,1.3408,1.3359,1.3311,1.3311,1.3252,1.3252,1.3252,1.3252,1.3203,1.3203,1.3154,1.3203,1.3203,1.3154,1.3105,1.3105,1.3105,1.3105,1.3057,1.3057,1.3057,1.3057,1.2998,1.2949,1.2949,1.2949,1.29,1.29,1.29,1.29,1.2852,1.2852,1.2852,1.2803,1.2754,1.2754,1.2754,1.2715,1.2715,1.2715,1.2715,1.2715,1.2666,1.2617,1.2666,0,0,0,0,0,0,0,0,0,0,0,0,0,0,0,0,0,0,0,0,0,0,0,0,0,0,0,0,0,0,0,0,0
0.86377,0.86133,0.86133,0.86377,0.86377,0.86377,0.86377,0.86133,0.86133,0.86133,0.86133,0.86133,0.86133,0.86133,0.86377,0.86377,0.86377,0.86377,0.86572,0.86572,0.86816,0.86816,0.8706,0.8706,0.87012,0.87012,0.87012,0.87012,0.87012,0.8706,0.87256,0.875,0.87695,0.87695,0.87695,0.87695,0.8794,0.8794,0.8794,0.8794,0.8794,0.88184,0.88184,0.88184,0.88184,0.88428,0.88428,0.88428,0.88428,0.88184,0.88184,0.88623,0.88623,0.88623,0.88623,0.88623,0.88867,0.88867,0.88867,0.89111,0.89111,0.89355,0.896,0.89844,0.90088,0.90283,0.90527,0.90527,0.90527,0.90772,0.91016,0.90772,0.91016,0.92529,0.92773,0.92773,0.92773,0.92773,0.92773,0.92773,0.92773,0.92773,0.93066,0.93066,0.9331,0.9331,0.9331,0.93555,0.94092,0,0,1.1367,1.1367,1.1367,1.1367,1.1367,1.1367,1.1406,1.1406,1.1367,1.1406,1.1406,1.1406,1.1406,1.1406,1.1406,1.1406,1.1406,1.1406,1.1406,1.1406,1.1406,1.1406,1.1406,1.1406,1.1367,0,0,1.3662,1.3662,1.3721,1.3721,1.3721,1.3721,1.3779,1.3779,1.3721,1.3721,1.3721,1.3721,1.3721,1.3721,1.3721,1.3721,1.3721,1.3721,1.3779,1.3779,1.3838,1.3838,1.3838,1.3887,1.3887,1.3887,1.3887,1.3838,1.3838,1.3838,1.3838,1.3838,1.3838,1.3887,1.3887,1.3945,1.4004,1.4004,1.4004,1.4062,1.4004,1.4004,1.4004,1.4004,1.4004,1.4004,1.4062,1.4062,1.4062,1.4004,1.4062,1.4062,1.4121,1.4062,0,0,0,0,0,1.1074,1.1035,1.1006,1.0967,1.0928,1.0898,1.0859,1.0762,1.0723,1.0654,1.0625,1.0586,1.0557,1.0557,1.0527,1.0488,1.0488,1.0488,1.0459,1.0459,1.0488,1.0488,1.0488,1.0488,1.0527,1.0557,1.0557,1.0557,1.0557,1.0557,1.0557,1.0557,1.0596,1.0557,1.0596,1.0596,1.0596,1.0596,1.0596,1.0596,1.0596,1.0625,1.0654,1.0654,1.0654,1.0654,1.0654,1.0654,1.0693,1.0693,1.0693,1.0654,1.0654,0,0,1.2891,1.2939,1.2939,1.2939,1.2939,1.2939,1.2988,1.3037,1.2988,1.2988,1.2939,1.2988,1.2939,1.2939,1.2939,1.2939,1.2988,1.2988,1.2988,1.2988,1.2988,1.2988,1.2939,1.2939,1.2939,1.2939,1.2939,1.2988,1.2988,1.2939,1.2939,1.2939,1.2939,1.2939,1.2939,1.2939,1.2939,1.2939,1.2988,1.2939,1.2939,1.2988,1.2939,1.2939,1.2939,1.2939,1.2939,1.2939,1.2939,1.2939,1.2939,1.2939,1.2939,1.2998,1.2998,1.2998,1.2998,1.2998,1.2998,1.2998,1.2998,1.2998,1.2998,1.2998,1.2998,1.2998,1.2998,1.2998,1.2998,1.2998,1.2998,1.2998,1.2998,1.2998,1.2998,1.2998,1.2998,1.2998,1.2998,1.2998,1.2998,1.2949,1.2949,1.2949,1.2949,1.2949,1.2949,1.2949,1.2949,1.2949,1.2949,1.2949,1.2949,1.2949,1.2949,1.2949,1.2949,1.2949,1.2949,1.2949,1.2949,1.2949,1.2949,1.2949,1.2949,1.2949,1.2949,1.2949,1.2949,1.2949,1.2949,1.2949,1.2949,1.2949,1.2949,1.2949,1.2949,1.2949,1.3047,1.2998,1.3047,1.2998,1.2998,1.2998,1.2998,1.2998,1.2998,1.2998,1.2998,1.2998,1.2998,1.2998,1.2998,1.2949,1.2998,1.2998,1.2949,1.2949,0,1.5156,0,0,0,0,0,0,0,0,0,0,0,0,0,0,0,0,0,0,0,0,0,0,1.3574,1.3633,1.3574,1.3574,1.3516,1.3467,1.3467,1.3467,1.3418,1.3418,1.3359,1.3311,1.3311,1.3252,1.3252,1.3252,1.3252,1.3203,1.3203,1.3154,1.3203,1.3203,1.3154,1.3105,1.3105,1.3105,1.3105,1.3057,1.3057,1.3057,1.3057,1.3057,1.3008,1.3008,1.2949,1.29,1.29,1.29,1.2852,1.2852,1.2852,1.2852,1.2803,1.2803,1.2764,1.2764,1.2715,1.2715,1.2715,1.2715,1.2715,1.2715,1.2666,1.2666,0,0,0,0,0,0,0,0,0,0,0,0,0,0,0,0,0,0,0,0,0,0,0,0,0,0,0,0,0,0,0,0,0
0.90527,0.86377,0.86377,0.86377,0.86377,0.86377,0.86377,0.86133,0.86377,0.86133,0.86133,0.86133,0.86133,0.86377,0.86377,0.86377,0.86377,0.86572,0.86572,0.86572,0.86816,0.86816,0.8706,0.8706,0.8706,0.87256,0.87256,0.875,0.87256,0.875,0.875,0.87744,0.87744,0.87744,0.87695,0.87695,0.8794,0.8794,0.8794,0.8794,0.8794,0.8794,0.88184,0.88184,0.88184,0.88184,0.88184,0.88184,0.8794,0.8794,0.88184,0.88184,0.88428,0.88623,0.88623,0.88672,0.88672,0.88867,0.88867,0.89111,0.89111,0.89355,0.896,0.89844,0.90088,0.90332,0.90527,0.90772,0.90772,0.91016,0.91016,0.91016,0.92285,0.92529,0.92773,0.92773,0.92773,0.92773,0.92773,0.92773,0.92773,0.92773,0.93066,0.93066,0.9331,0.9331,0.9331,0.9331,0.93848,0,0,1.1367,1.1367,1.1406,1.1406,1.1406,1.1406,1.1406,1.1406,1.1406,1.1406,1.1406,1.1406,1.1406,1.1406,1.1406,1.1406,1.1406,1.1406,1.1406,1.1406,1.1406,1.1406,1.1406,1.1406,0,0,1.3613,1.3613,1.3613,1.3613,1.3662,1.3662,1.3613,1.3662,1.3662,1.3662,1.3662,1.3613,1.3662,1.3662,1.3662,1.3662,1.3662,1.3662,1.3662,1.3721,1.3721,1.3721,1.3779,1.3779,1.3838,1.3838,1.3838,1.3838,1.3838,1.3838,1.3779,1.3779,1.3838,1.3838,1.3838,1.3896,1.3896,1.3945,1.4004,1.4004,1.4004,1.4004,1.3945,1.4004,1.3945,1.3945,1.3955,1.4004,1.3955,1.4004,1.3955,1.4004,1.4004,1.4062,1.4004,0,0,1.1182,1.1152,1.1074,1.1035,1.1006,1.1006,1.0928,1.0928,1.0898,1.0859,1.0762,1.0723,1.0654,1.0625,1.0596,1.0557,1.0557,1.0527,1.0488,1.0488,1.0488,1.0459,1.0488,1.0488,1.0488,1.0488,1.0488,1.0498,1.0596,1.0557,1.0557,1.0557,1.0557,1.0596,1.0596,1.0596,1.0596,1.0596,1.0596,1.0596,1.0596,1.0596,1.0625,1.0625,1.0664,1.0664,1.0654,1.0654,1.0654,1.0664,1.0664,1.0693,1.0693,1.0664,1.0693,1.0693,0,0,1.2891,1.2939,1.2939,1.2939,1.2939,1.2988,1.2988,1.3037,1.2988,1.2988,1.2939,1.2988,1.2939,1.2939,1.2939,1.2939,1.2988,1.2988,1.2988,1.2939,1.2988,1.2988,1.2939,1.2939,1.2988,1.2939,1.2939,1.2988,1.2939,1.2939,1.2939,1.2939,1.2939,1.2939,1.2939,1.2939,1.2939,1.2939,1.2998,1.2939,1.2998,1.2998,1.2998,1.2939,1.2939,1.2939,1.2939,1.2939,1.2939,1.2949,1.2949,1.2949,1.2949,1.2998,1.2998,1.2998,1.2998,1.2998,1.2998,1.2998,1.2998,1.2998,1.2998,1.2998,1.2998,1.2998,1.2998,1.2998,1.2998,1.2998,1.2998,1.2998,1.2998,1.2998,1.3047,1.3047,1.2998,1.2998,1.2998,1.2998,1.2998,1.2949,1.2949,1.2949,1.2949,1.2949,1.2949,1.2949,1.2949,1.2949,1.2949,1.2949,1.2949,1.2949,1.2949,1.2998,1.2949,1.2949,1.2949,1.2949,1.2949,1.2949,1.2949,1.2949,1.2949,1.2949,1.2949,1.2949,1.2949,1.2949,1.2949,1.2949,1.2949,1.2949,1.2949,1.2949,1.2949,1.2998,1.3047,1.2998,1.3047,1.2998,1.2998,1.2998,1.2998,1.2998,1.2998,1.2998,1.2998,1.2949,1.2998,1.2949,1.2949,1.2949,1.2998,1.2998,1.2949,0,0,1.5088,1.5156,1.5156,1.5156,0,0,0,0,0,0,0,0,0,0,0,0,0,1.5156,1.5156,1.5156,1.5156,0,0,1.3574,1.3574,1.3525,1.3525,1.3525,1.3467,1.3467,1.3418,1.3418,1.3418,1.3359,1.3311,1.3311,1.3262,1.3252,1.3252,1.3252,1.3203,1.3203,1.3154,1.3203,1.3203,1.3154,1.3105,1.3105,1.3105,1.3057,1.3057,1.3057,1.3057,1.3057,1.3008,1.2949,1.2949,1.2949,1.29,1.29,1.29,1.29,1.2852,1.2852,1.2852,1.2812,1.2812,1.2812,1.2812,1.2764,1.2764,1.2764,1.2764,1.2715,1.2715,1.2617,0,0,0,0,0,0,0,0,0,0,0,0,0,0,0,0,0,0,0,0,0,0,0,0,0,0,0,0,0,0,0,0,0,0
0.90283,0.90283,0.90283,0.90527,0.86377,0.86572,0.86377,0.86377,0.86572,0.86572,0.86572,0.86377,0.86572,0.86377,0.86572,0.86572,0.86572,0.86572,0.86816,0.86816,0.86816,0.86816,0.87256,0.87256,0.87256,0.875,0.875,0.875,0.875,0.87744,0.87744,0.87744,0.87744,0.87744,0.87744,0.87744,0.87744,0.8794,0.8794,0.8794,0.8794,0.8794,0.8794,0.8794,0.88184,0.88184,0.8794,0.88184,0.8794,0.88184,0.88428,0.88428,0.88428,0.88672,0.88672,0.88672,0.88672,0.88672,0.88867,0.88867,0.89111,0.89355,0.896,0.89844,0.90088,0.90332,0.90576,0.9082,0.9082,0.91065,0.91309,0.92041,0.92529,0.92773,0.92773,0.92773,0.92773,0.92773,0.92773,0.92773,0.92773,0.92773,0.92773,0.93066,0.93066,0.93066,0.93066,0.9331,0.93848,0,0,1.1367,1.1367,1.1406,1.1406,1.1406,1.1406,1.1406,1.1406,1.1406,1.1406,1.1406,1.1406,1.1406,1.1406,1.1406,1.1406,1.1406,1.1406,1.1445,1.1445,1.1406,1.1445,1.1406,1.1406,0,0,1.3613,1.3613,1.3613,1.3613,1.3613,1.3613,1.3613,1.3613,1.3613,1.3613,1.3613,1.3613,1.3613,1.3662,1.3662,1.3662,1.3662,1.3662,1.3662,1.3662,1.3672,1.3672,1.3721,1.3721,1.3721,1.3721,1.3779,1.3721,1.3779,1.3721,1.3779,1.3721,1.3779,1.3721,1.3779,1.3779,1.3838,1.3896,1.3896,1.3896,1.3955,1.3955,1.3896,1.3955,1.3955,1.3955,1.3955,1.3896,1.3896,1.3955,1.3955,1.3955,1.3955,1.4014,1.3955,1.3955,0,1.1182,1.1152,1.1074,1.1074,1.1006,1.0967,1.0938,1.0938,1.0898,1.0859,1.0762,1.0723,1.0654,1.0625,1.0557,1.0557,1.0527,1.0527,1.0488,1.0488,1.0498,1.0498,1.0498,1.0498,1.0498,1.0498,1.0498,1.0498,1.0498,1.0557,1.0557,1.0557,1.0557,1.0596,1.0596,1.0596,1.0596,1.0596,1.0596,1.0596,1.0596,1.0596,1.0625,1.0625,1.0664,1.0664,1.0693,1.0693,1.0693,1.0693,1.0664,1.0693,1.0693,1.0693,1.0693,1.0693,0,0,1.2891,1.2939,1.2939,1.2939,1.2939,1.2939,1.2988,1.2988,1.2988,1.2988,1.2939,1.2988,1.2988,1.2939,1.2939,1.2988,1.2988,1.3047,1.2988,1.2988,1.2988,1.2988,1.2988,1.2998,1.2998,1.2998,1.2998,1.2998,1.2939,1.2939,1.2939,1.2939,1.2939,1.2939,1.2939,1.2949,1.2949,1.2949,1.2998,1.2998,1.2998,1.2998,1.2998,1.2949,1.2949,1.2949,1.2949,1.2949,1.2949,1.2949,1.2949,1.2949,1.2949,1.2998,1.2998,1.2998,1.2998,1.2998,1.2998,1.2998,1.2998,1.2998,1.2998,1.2998,1.2998,1.2998,1.2998,1.2998,1.2998,1.2998,1.2998,1.2998,1.2998,1.2998,1.3047,1.3047,1.3047,1.2998,1.2998,1.2998,1.2998,1.2949,1.2949,1.2949,1.2949,1.2949,1.2949,1.2949,1.2949,1.2949,1.2949,1.2949,1.2949,1.2949,1.2949,1.2998,1.2949,1.2949,1.2949,1.2949,1.2949,1.2949,1.2949,1.2949,1.2949,1.2949,1.2949,1.2949,1.2949,1.2949,1.2949,1.2949,1.2949,1.2949,1.2949,1.2949,1.2998,1.2998,1.3047,1.3047,1.3047,1.2998,1.2998,1.2998,1.2998,1.2998,1.2998,1.2998,1.2949,1.2949,1.2949,1.2949,1.2949,1.2949,1.2998,1.2998,1.2998,0,1.5088,1.502,1.5088,1.5088,1.5088,1.5156,1.5088,0,0,0,0,0,0,0,0,1.5088,1.5088,1.5156,1.5156,1.5156,1.5156,1.5088,1.3633,1.3633,1.3574,1.3574,1.3574,1.3574,1.3525,1.3467,1.3467,1.3418,1.3418,1.3418,1.3359,1.3311,1.3311,1.3311,1.3311,1.3262,1.3262,1.3262,1.3203,1.3203,1.3203,1.3203,1.3105,1.3105,1.3105,1.3105,1.3057,1.3057,1.3057,1.3057,1.3057,1.3008,1.3008,1.3008,1.2959,1.2959,1.2959,1.291,1.291,1.2861,1.2861,1.2861,1.2861,1.2861,1.2812,1.2812,1.2764,1.2764,1.2764,1.2764,1.2715,1.2715,1.2666,0,0,0,0,0,0,0,0,0,0,0,0,0,0,0,0,0,0,0,0,0,0,0,0,0,0,0,0,0,0,0,0,0,0
0.90283,0.90283,0.90283,0.90527,0.90283,0.90283,0.86572,0.86377,0.86572,0.86816,0.86816,0.86572,0.86816,0.86816,0.86621,0.86621,0.86621,0.86621,0.86816,0.86816,0.86816,0.8706,0.87256,0.875,0.875,0.87744,0.87744,0.87744,0.87744,0.87744,0.87744,0.87744,0.87744,0.87744,0.87744,0.87744,0.87744,0.87744,0.87744,0.87744,0.87744,0.87744,0.8794,0.8794,0.88184,0.88184,0.8794,0.88184,0.87988,0.88184,0.88184,0.88428,0.88184,0.88428,0.88428,0.88428,0.88672,0.88672,0.88867,0.88867,0.89111,0.89111,0.89355,0.89844,0.90088,0.90332,0.90576,0.90576,0.9082,0.91065,0.91309,0.92285,0.92529,0.92773,0.92773,0.92773,0.92773,0.92773,0.92773,0.92822,0.92822,0.92822,0.92822,0.92822,0.93066,0.9331,0.9331,0.9331,0.93848,0,0,1.1367,1.1406,1.1406,1.1406,1.1406,1.1406,1.1406,1.1406,1.1406,1.1406,1.1406,1.1406,1.1406,1.1406,1.1445,1.1406,1.1445,1.1445,1.1445,1.1445,1.1445,1.1445,1.1445,1.1406,0,0,1.3555,1.3555,1.3506,1.3555,1.3506,1.3555,1.3506,1.3506,1.3506,1.3555,1.3555,1.3555,1.3555,1.3613,1.3613,1.3613,1.3613,1.3613,1.3613,1.3672,1.3613,1.3672,1.3672,1.3672,1.3672,1.3672,1.3672,1.3672,1.3672,1.3672,1.3672,1.3672,1.3721,1.3672,1.3721,1.3721,1.3672,1.3721,1.3721,1.3779,1.3838,1.3838,1.3896,1.3896,1.3896,1.3896,1.3896,1.3896,1.3896,1.3896,1.3896,1.3896,1.3896,1.3896,1.3896,1.3896,1.1299,1.1182,1.1182,1.1074,1.1006,1.1006,1.0967,1.0938,1.0898,1.0859,1.0859,1.0762,1.0723,1.0654,1.0625,1.0596,1.0557,1.0527,1.0527,1.0527,1.0498,1.0498,1.0498,1.0498,1.0498,1.0527,1.0498,1.0498,1.0498,1.0527,1.0557,1.0557,1.0557,1.0557,1.0596,1.0596,1.0596,1.0596,1.0596,1.0596,1.0596,1.0596,1.0625,1.0625,1.0625,1.0664,1.0693,1.0693,1.0693,1.0693,1.0693,1.0693,1.0693,1.0664,1.0664,1.0664,1.0664,0,0,1.2891,1.2939,1.2939,1.2939,1.2939,1.2939,1.2988,1.2988,1.2988,1.2988,1.2939,1.2988,1.2988,1.2988,1.2988,1.2998,1.2998,1.3047,1.2998,1.2998,1.2998,1.3047,1.2998,1.2998,1.2998,1.2998,1.2998,1.2998,1.2949,1.2949,1.2949,1.2949,1.2949,1.2949,1.2949,1.2949,1.2998,1.2949,1.2998,1.2998,1.2949,1.2949,1.2949,1.2949,1.2949,1.2949,1.2949,1.2949,1.2949,1.2949,1.2949,1.2949,1.2949,1.2998,1.2998,1.2998,1.2998,1.2998,1.2998,1.2998,1.2998,1.2998,1.2998,1.2998,1.2998,1.2998,1.2998,1.2998,1.2998,1.2998,1.2998,1.2998,1.2998,1.2998,1.3047,1.3047,1.3047,1.2998,1.2998,1.2998,1.2998,1.2949,1.2949,1.2949,1.2949,1.2949,1.2949,1.2949,1.2949,1.2949,1.2949,1.2949,1.2949,1.2949,1.2949,1.2998,1.2949,1.2949,1.2949,1.2998,1.2949,1.2949,1.2949,1.2949,1.2949,1.2949,1.2949,1.2949,1.2949,1.2949,1.2949,1.2998,1.2949,1.2998,1.2949,1.2949,1.2949,1.2949,1.2998,1.3047,1.3047,1.2998,1.2998,1.2998,1.2998,1.2998,1.2998,1.2998,1.2998,1.2949,1.2949,1.2949,1.2949,1.2949,1.2998,1.2998,1.2998,0,1.502,1.502,1.502,1.502,1.5088,1.5088,1.5088,1.5088,1.5088,1.5088,0,0,0,0,1.5088,1.5088,1.502,1.5088,1.502,1.5088,1.502,1.502,1.5088,1.3633,1.3574,1.3574,1.3574,1.3574,1.3525,1.3467,1.3467,1.3418,1.3418,1.3418,1.3359,1.3311,1.3311,1.3311,1.3262,1.3262,1.3262,1.3262,1.3203,1.3203,1.3203,1.3154,1.3154,1.3154,1.3105,1.3105,1.3105,1.3057,1.3057,1.3057,1.3057,1.3008,1.3008,1.3008,1.3008,1.2959,1.2959,1.291,1.291,1.2861,1.2861,1.2861,1.2861,1.2861,1.2861,1.2812,1.2812,1.2812,1.2764,1.2764,1.2715,1.2666,0,0,0,0,0,0,0,0,0,0,0,0,0,0,0,0,0,0,0,0,0,0,0,0,0,0,0,0,0,0,0,0,0,0,0
0.90283,0.90283,0.90283,0.90527,0.90283,0.90527,0.90283,0.90283,0.86816,0.86816,0.86816,0.86816,0.86816,0.86816,0.86816,0.86816,0.86816,0.86816,0.86816,0.86816,0.86816,0.8706,0.875,0.87744,0.87744,0.87744,0.8794,0.87744,0.87744,0.87744,0.87744,0.87744,0.875,0.875,0.875,0.875,0.875,0.875,0.87744,0.87744,0.87744,0.87744,0.87744,0.87988,0.88184,0.88184,0.87988,0.87988,0.87988,0.88184,0.88184,0.88184,0.88184,0.88184,0.88184,0.88428,0.88672,0.88672,0.88672,0.88916,0.88916,0.89111,0.89355,0.896,0.89844,0.90332,0.90576,0.90576,0.9082,0.91309,0.91553,0.92285,0.92529,0.92822,0.92822,0.92822,0.92822,0.92822,0.92822,0.92822,0.92822,0.92822,0.92822,0.92822,0.93066,0.9331,0.9331,0.9331,0.9331,0,0,1.1367,1.1406,1.1406,1.1406,1.1406,1.1406,1.1406,1.1406,1.1406,1.1406,1.1406,1.1406,1.1406,1.1406,1.1445,1.1406,1.1445,1.1445,1.1445,1.1445,1.1406,1.1445,1.1445,1.1445,0,0,1.3506,1.3506,1.3447,1.3447,1.3506,1.3506,1.3447,1.3447,1.3447,1.3506,1.3506,1.3506,1.3506,1.3555,1.3555,1.3555,1.3613,1.3613,1.3555,1.3613,1.3555,1.3555,1.3613,1.3613,1.3613,1.3613,1.3613,1.3613,1.3613,1.3672,1.3672,1.3672,1.3672,1.3613,1.3613,1.3613,1.3613,1.3613,1.3613,1.3672,1.3721,1.3779,1.3838,1.3838,1.3838,1.3779,1.3838,1.3838,1.3838,1.3838,1.3838,1.3838,1.3896,1.3838,1.3838,1.126,1.1221,1.1221,1.1182,1.1152,1.1074,1.1006,1.0967,1.0938,1.0898,1.0859,1.083,1.0762,1.0723,1.0654,1.0625,1.0596,1.0557,1.0527,1.0527,1.0527,1.0498,1.0498,1.0498,1.0498,1.0527,1.0527,1.0527,1.0527,1.0527,1.0527,1.0557,1.0557,1.0557,1.0557,1.0596,1.0596,1.0596,1.0596,1.0596,1.0596,1.0596,1.0596,1.0625,1.0625,1.0625,1.0664,1.0664,1.0693,1.0693,1.0693,1.0693,1.0693,1.0693,1.0693,1.0693,0,0,1.2939,1.2891,1.2939,1.2939,1.2939,1.2939,1.2939,1.2939,1.2939,1.2988,1.2988,1.2998,1.2998,1.2998,1.2998,1.2998,1.2998,1.2998,1.2998,1.3047,1.3047,1.2998,1.3047,1.3047,1.2998,1.2998,1.2998,1.2998,1.2998,1.2949,1.2949,1.2949,1.2949,1.2949,1.2949,1.2949,1.2949,1.2949,1.2998,1.2949,1.2949,1.2998,1.2949,1.2949,1.2949,1.2949,1.2949,1.2949,1.2949,1.2949,1.2949,1.2949,1.2949,1.2949,1.2949,1.2998,1.2998,1.2998,1.2998,1.2998,1.2998,1.2998,1.2998,1.2998,1.2998,1.2998,1.2998,1.2998,1.2998,1.2998,1.2998,1.2998,1.2998,1.2998,1.2998,1.2998,1.2998,1.3047,1.3047,1.2998,1.2998,1.2998,1.2998,1.2998,1.2949,1.2949,1.2949,1.2949,1.2949,1.2949,1.2949,1.2949,1.2998,1.2949,1.2949,1.2998,1.2949,1.2998,1.2949,1.2949,1.2998,1.2998,1.2998,1.2998,1.2949,1.2949,1.2949,1.2949,1.2949,1.2949,1.2949,1.2949,1.2949,1.2998,1.2949,1.2998,1.2949,1.2949,1.2949,1.2949,1.2998,1.2998,1.2998,1.2998,1.2998,1.2998,1.2998,1.2998,1.2998,1.2998,1.2998,1.2949,1.2949,1.2949,1.29,1.2949,1.2998,1.2998,1.3047,0,1.502,1.502,1.502,1.4951,1.4951,1.502,1.502,1.4951,1.502,1.502,1.502,1.5156,1.5088,1.5088,1.5088,1.5088,1.502,1.502,1.502,1.4951,1.4951,1.4951,1.4951,1.3633,1.3574,1.3574,1.3574,1.3574,1.3525,1.3467,1.3418,1.3418,1.3418,1.3418,1.3359,1.3311,1.3311,1.3311,1.3262,1.3262,1.3262,1.3262,1.3262,1.3203,1.3203,1.3203,1.3154,1.3154,1.3105,1.3105,1.3105,1.3057,1.3057,1.3057,1.3057,1.3008,1.3008,1.3008,1.3008,1.2959,1.2959,1.291,1.291,1.2861,1.2861,1.2861,1.2861,1.2861,1.2861,1.2812,1.2812,1.2812,1.2764,1.2764,1.2812,1.2764,0,0,0,0,0,0,0,0,0,0,0,0,0,0,0,0,0,0,0,0,0,0,0,0,0,0,0,0,0,0,0,0,0,0,0
0.90283,0.90283,0.90283,0.90283,0.90283,0.90283,0.90527,0.90527,0.90772,0.90772,0.86816,0.86816,0.8706,0.8706,0.8706,0.91504,0.86816,0.8706,0.86816,0.86816,0.87744,0.87744,0.8794,0.8794,0.8794,0.8794,0.8794,0.8794,0.87744,0.87744,0.875,0.875,0.875,0.87305,0.87305,0.87305,0.87305,0.87305,0.875,0.875,0.875,0.875,0.875,0.87988,0.87988,0.87988,0.87988,0.87988,0.87988,0.87988,0.88184,0.88184,0.88184,0.88184,0.88184,0.88428,0.88672,0.88672,0.88672,0.88916,0.88916,0.8916,0.8916,0.89355,0.89844,0.90088,0.90332,0.90332,0.9082,0.90332,0.91309,0.92285,0.92529,0.92529,0.92822,0.92822,0.92822,0.92822,0.92822,0.92822,0.92822,0.92822,0.92822,0.92822,0.93066,0.93066,0.9331,0.9331,0.9331,0,0,1.1406,1.1406,1.1406,1.1406,1.1406,1.1406,1.1406,1.1406,1.1406,1.1445,1.1406,1.1445,1.1445,1.1445,1.1445,1.1445,1.1445,1.1445,1.1445,1.1445,1.1445,1.1445,1.1445,1.1445,0,0,1.3506,1.3447,1.3447,1.3447,1.3447,1.3447,1.3447,1.3447,1.3447,1.3447,1.3447,1.3447,1.3447,1.3506,1.3506,1.3506,1.3555,1.3555,1.3506,1.3506,1.3555,1.3506,1.3555,1.3555,1.3555,1.3555,1.3564,1.3613,1.3613,1.3613,1.3613,1.3613,1.3613,1.3613,1.3613,1.3613,1.3613,1.3613,1.3613,1.3506,1.3613,1.373,1.373,1.3779,1.373,1.3779,1.3779,1.3779,1.373,1.373,1.373,1.373,1.3838,1.3779,1.3838,1.1377,1.1299,1.1221,1.1191,1.1152,1.1113,1.1045,1.0967,1.0938,1.0898,1.0859,1.083,1.0762,1.0723,1.0625,1.0625,1.0596,1.0596,1.0557,1.0557,1.0527,1.0527,1.0527,1.0498,1.0527,1.0527,1.0527,1.0527,1.0527,1.0527,1.0557,1.0557,1.0557,1.0527,1.0557,1.0596,1.0596,1.0596,1.0596,1.0625,1.0625,1.0625,1.0625,1.0625,1.0664,1.0664,1.0693,1.0693,1.0693,1.0693,1.0693,1.0693,1.0693,1.0693,1.0693,0,0,0,1.2939,1.2891,1.2939,1.2939,1.2939,1.2939,1.2939,1.2939,1.2939,1.2998,1.2939,1.2998,1.2998,1.2998,1.2998,1.2998,1.2998,1.2998,1.2998,1.3047,1.3047,1.2998,1.2998,1.2998,1.2998,1.2998,1.2998,1.2998,1.2998,1.2949,1.2949,1.2998,1.2949,1.2949,1.2949,1.2949,1.2949,1.2949,1.2998,1.2949,1.2949,1.2949,1.2949,1.2949,1.2949,1.2998,1.2998,1.2949,1.2949,1.2949,1.2949,1.2949,1.2949,1.2949,1.2949,1.2998,1.2998,1.2998,1.2998,1.2998,1.2998,1.2998,1.2998,1.2998,1.2998,1.2998,1.2998,1.2998,1.2998,1.2998,1.2998,1.2998,1.2998,1.2998,1.2998,1.2998,1.2998,1.2998,1.2998,1.2998,1.2998,1.2998,1.2998,1.2998,1.2998,1.2949,1.2949,1.2949,1.2949,1.2949,1.2949,1.2949,1.2998,1.2949,1.2949,1.2998,1.2949,1.2949,1.2949,1.2949,1.2998,1.2998,1.2998,1.2998,1.2949,1.2998,1.2949,1.2949,1.2949,1.2949,1.2949,1.2949,1.2949,1.2949,1.2949,1.2998,1.2949,1.2949,1.2949,1.2949,1.2998,1.2998,1.2998,1.2998,1.2998,1.2998,1.2998,1.2998,1.2998,1.2998,1.2998,1.2998,1.2998,1.2949,1.29,1.29,1.3057,1.3057,1.3154,0,1.502,1.4951,1.502,1.4951,1.4951,1.502,1.502,1.502,1.502,1.502,1.502,1.5088,1.5088,1.502,1.502,1.5088,1.502,1.502,1.4951,1.4951,1.4951,1.4951,1.502,1.3633,1.3633,1.3574,1.3574,1.3633,1.3525,1.3467,1.3418,1.3418,1.3418,1.3359,1.3311,1.3311,1.3311,1.3311,1.3262,1.3262,1.3262,1.3262,1.3262,1.3203,1.3262,1.3213,1.3213,1.3154,1.3154,1.3105,1.3105,1.3105,1.3105,1.3057,1.3057,1.3008,1.3008,1.3008,1.2959,1.2959,1.2959,1.291,1.291,1.291,1.2861,1.2861,1.2861,1.2861,1.2861,1.2812,1.2812,1.2764,1.2764,1.2861,1.2812,0,0,0,0,0,0,0,0,0,0,0,0,0,0,0,0,0,0,0,0,0,0,0,0,0,0,0,0,0,0,0,0,0,0,0,0
0.90039,0.90283,0.90283,0.90283,0.90283,0.90527,0.90527,0.90527,0.91016,0.9126,0.9126,0.9126,0.91504,0.91504,0.91504,0.91504,0.9126,0.9126,0.91504,0.91504,0.87744,0.87744,0.8794,0.8794,0.87744,0.8794,0.87744,0.87744,0.87744,0.875,0.875,0.87305,0.87305,0.87305,0.87305,0.8706,0.87305,0.87305,0.87305,0.87305,0.87305,0.87305,0.87305,0.875,0.87744,0.87988,0.87744,0.87988,0.87988,0.87988,0.88184,0.88184,0.87988,0.88184,0.88184,0.88428,0.88672,0.88672,0.88672,0.88916,0.88916,0.8916,0.8916,0.89355,0.896,0.90088,0.90332,0.82812,0.82812,0.83252,0.91553,0.91797,0.92578,0.92578,0.92822,0.92822,0.92822,0.92822,0.92822,0.92822,0.92822,0.92822,0.92822,0.92822,0.93066,0.93066,0.9331,0.9331,0.93848,0,0,1.1406,1.1406,1.1406,1.1406,1.1406,1.1406,1.1406,1.1406,1.1406,1.1445,1.1445,1.1445,1.1445,1.1445,1.1445,1.1445,1.1445,1.1445,1.1445,1.1445,1.1445,1.1445,1.1445,1.1445,1.1445,0,1.3506,1.3398,1.335,1.335,1.335,1.335,1.335,1.335,1.335,1.3398,1.3398,1.3398,1.3398,1.3447,1.3447,1.3447,1.3447,1.3447,1.3447,1.3447,1.3447,1.3447,1.3447,1.3506,1.3506,1.3506,1.3506,1.3506,1.3564,1.3506,1.3506,1.3564,1.3564,1.3506,1.3506,1.3506,1.3457,1.3506,1.3506,1.3506,1.3564,1.3564,1.3613,1.3672,1.3672,1.3672,1.373,1.373,1.373,1.373,1.3672,1.3672,1.3672,1.373,1.3779,1.1299,1.1299,1.126,1.1221,1.1152,1.1113,1.1006,1.0967,1.0938,1.0898,1.0869,1.083,1.0762,1.0693,1.0664,1.0625,1.0596,1.0557,1.0557,1.0557,1.0527,1.0527,1.0498,1.0527,1.0527,1.0527,1.0527,1.0527,1.0557,1.0557,1.0557,1.0557,1.0557,1.0557,1.0596,1.0596,1.0596,1.0596,1.0596,1.0596,1.0625,1.0625,1.0625,1.0625,1.0664,1.0664,1.0693,1.0693,1.0693,1.0693,1.0732,1.0693,1.0693,1.0693,1.0693,0,0,1.2939,1.2939,1.2891,1.2939,1.2939,1.2939,1.2939,1.2939,1.2939,1.2949,1.2949,1.2949,1.2949,1.2949,1.2949,1.2998,1.2998,1.2998,1.2998,1.2998,1.2998,1.2998,1.2998,1.3047,1.2998,1.2998,1.2998,1.2998,1.2998,1.2949,1.2949,1.2949,1.2949,1.2949,1.2949,1.2949,1.2949,1.2949,1.2949,1.2998,1.2949,1.2949,1.2949,1.2949,1.2949,1.2949,1.2949,1.2998,1.2949,1.2949,1.2949,1.2949,1.2949,1.2949,1.2949,1.2949,1.2998,1.2998,1.2998,1.2998,1.2998,1.2998,1.2998,1.2998,1.2998,1.2998,1.2998,1.2998,1.2998,1.2998,1.2998,1.2998,1.2998,1.2998,1.2998,1.2998,1.2998,1.2998,1.2998,1.2998,1.2998,1.2998,1.2998,1.2998,1.2998,1.2998,1.2949,1.2949,1.2949,1.2998,1.2998,1.2949,1.2998,1.2998,1.2998,1.2998,1.2998,1.2998,1.2949,1.2949,1.2949,1.2998,1.2998,1.2998,1.2998,1.2998,1.2998,1.2998,1.2949,1.2949,1.2949,1.2949,1.2949,1.2949,1.2949,1.2949,1.2949,1.2949,1.2949,1.2949,1.2949,1.2998,1.2998,1.2998,1.2998,1.2998,1.2998,1.2998,1.2998,1.2998,1.2998,1.2998,1.2998,1.2949,1.2949,1.2949,1.2949,1.3057,1.3105,1.3154,0,1.502,1.4951,1.4951,1.4951,1.4951,1.4951,1.4951,1.4951,1.4951,1.4951,1.4893,1.502,1.4951,1.4951,1.502,1.502,1.502,1.502,1.4951,1.4951,1.4951,1.4951,1.4951,1.4961,1.3574,1.3574,1.3574,1.3574,1.3467,1.3467,1.3418,1.3418,1.3418,1.3359,1.3359,1.3311,1.3311,1.3311,1.3262,1.3262,1.3262,1.3262,1.3262,1.3213,1.3262,1.3213,1.3213,1.3154,1.3154,1.3105,1.3105,1.3105,1.3105,1.3057,1.3057,1.3008,1.3008,1.3008,1.2959,1.2959,1.2959,1.291,1.291,1.291,1.291,1.2861,1.2861,1.2861,1.2861,1.2812,1.2812,1.2812,1.2861,0,0,0,0,0,0,0,0,0,0,0,0,0,0,0,0,0,0,0,0,0,0,0,0,0,0,0,0,0,0,0,0,0,0,0,0,0,0
0.90039,0.90283,0.90283,0.90283,0.90283,0.90527,0.90527,0.90527,0.91016,0.91016,0.9126,0.9126,0.9126,0.9126,0.91553,0.91553,0.91553,0.91553,0.91553,0.91553,0.875,0.875,0.87988,0.87744,0.875,0.87744,0.87744,0.87744,0.875,0.875,0.87305,0.87305,0.8706,0.8706,0.8706,0.8706,0.8706,0.8706,0.8706,0.8706,0.8706,0.8706,0.8706,0.87305,0.875,0.87744,0.87744,0.87744,0.87988,0.87988,0.87988,0.87988,0.87988,0.88232,0.88232,0.88428,0.88672,0.88672,0.88672,0.88916,0.88916,0.8916,0.8916,0.8916,0.83252,0.83447,0.83008,0.82812,0.82812,0.82812,0,0,0.92578,0.92822,0.92822,0.92822,0.92822,0.92822,0.92822,0.92578,0.92822,0.92822,0.92822,0.92822,0.92822,0.92822,0.89844,0.89844,0.90088,0.90088,0.90088,0.90088,0.90088,1.1406,1.1406,1.1406,1.1406,1.1406,1.1406,1.1406,1.1445,1.1445,1.1445,1.1445,1.1445,1.1445,1.1445,1.1445,1.1445,1.1445,1.1445,1.1445,1.1445,1.1445,1.1445,1.1445,0,0,1.335,1.3291,1.3242,1.3242,1.3242,1.3291,1.3291,1.3291,1.3291,1.3291,1.335,1.3291,1.335,1.3291,1.335,1.3291,1.335,1.3398,1.3398,1.3398,1.3398,1.3457,1.3457,1.3457,1.3457,1.3457,1.3457,1.3457,1.3457,1.3457,1.3457,1.3506,1.3506,1.3457,1.3457,1.3457,1.3457,1.3457,1.3457,1.3506,1.3506,1.3564,1.3613,1.3613,1.3672,1.3672,1.3672,1.3672,1.3672,1.3613,1.3613,1.3672,1.3613,1.373,1.1299,1.1338,1.1221,1.1191,1.1152,1.1045,1.1006,1.0967,1.0938,1.0898,1.0869,1.083,1.0762,1.0693,1.0664,1.0625,1.0596,1.0596,1.0557,1.0527,1.0527,1.0527,1.0527,1.0557,1.0557,1.0557,1.0557,1.0557,1.0557,1.0557,1.0557,1.0557,1.0557,1.0557,1.0596,1.0596,1.0596,1.0596,1.0596,1.0596,1.0625,1.0625,1.0625,1.0625,1.0664,1.0664,1.0693,1.0693,1.0693,1.0693,1.0732,1.0732,1.0693,1.0693,1.0693,0,0,1.2939,1.2891,1.2891,1.2949,1.2949,1.2949,1.2949,1.2949,1.2949,1.2949,1.2949,1.2949,1.2949,1.2949,1.2949,1.2998,1.2998,1.2998,1.2998,1.2998,1.2998,1.2998,1.2998,1.2998,1.2998,1.2949,1.2998,1.2998,1.2998,1.2949,1.2949,1.2949,1.2998,1.2949,1.2949,1.2949,1.2949,1.2949,1.2949,1.2998,1.2949,1.2949,1.2949,1.2949,1.2949,1.2949,1.2949,1.2949,1.2949,1.2949,1.2949,1.2949,1.2949,1.2949,1.2949,1.2949,1.2998,1.2998,1.2998,1.2998,1.2998,1.2998,1.2998,1.2998,1.2998,1.2998,1.2998,1.2998,1.2998,1.2998,1.2998,1.2998,1.2998,1.2998,1.2998,1.2998,1.2998,1.2998,1.2998,1.2998,1.2998,1.2998,1.2998,1.2998,1.2998,1.2998,1.2998,1.2998,1.2998,1.2998,1.2998,1.2998,1.2998,1.2998,1.2998,1.2998,1.2949,1.2949,1.2949,1.2998,1.2998,1.2998,1.2998,1.2998,1.2998,1.2998,1.2998,1.2949,1.2949,1.2949,1.2949,1.2949,1.2949,1.2949,1.2998,1.2998,1.2949,1.2949,1.2949,1.2949,1.2949,1.2998,1.2998,1.2998,1.2998,1.2998,1.2998,1.2998,1.2998,1.2998,1.2998,1.3008,1.3008,1.2949,1.2949,1.2949,1.2949,1.3008,1.3008,1.3154,0,1.4951,1.4951,1.4951,1.4951,1.4893,1.4893,1.4893,1.4893,1.4824,1.4824,1.4824,1.4893,1.4893,1.4893,1.4951,1.4961,1.4961,1.4961,1.4961,1.4893,1.4961,1.4961,1.4961,1.3525,1.3525,1.3525,1.3525,1.3467,1.3467,1.3467,1.3418,1.3418,1.3418,1.3369,1.3369,1.3311,1.3311,1.3311,1.3262,1.3262,1.3262,1.3262,1.3213,1.3213,1.3262,1.3213,1.3213,1.3154,1.3105,1.3105,1.3105,1.3105,1.3105,1.3057,1.3057,1.3008,1.3008,1.3008,1.3008,1.2959,1.2959,1.291,1.291,1.291,1.291,1.2861,1.2861,1.2861,1.2861,1.2861,1.2861,1.2861,0,0,0,0,0,0,0,0,0,0,0,0,0,0,0,0,0,0,0,0,0,0,0,0,0,0,0,0,0,0,0,0,0,0,0,0,0,0,0
0.90088,0.90283,0.90283,0.90283,0.90283,0.90527,0.90527,0.90772,0.91016,0.91016,0.9126,0.91016,0.91309,0.91309,0.91553,0.91553,0.91553,0.91553,0.91553,0.91553,0.87744,0.87988,0.87988,0.87744,0.875,0.875,0.875,0.875,0.875,0.87305,0.8706,0.8706,0.8706,0.8706,0.8706,0.8706,0.8706,0.8706,0.8706,0.8706,0.8706,0.8706,0.8706,0.8706,0.87305,0.87305,0.87549,0.87744,0.87744,0.87988,0.87988,0.87988,0.87988,0.87988,0.88232,0.88428,0.88672,0.88672,0.88672,0.88916,0.88916,0.88916,0.83008,0.83008,0.83008,0.82812,0.82812,0.82812,0.82812,0.82812,0.82812,0,0,0.92822,0.92822,0.92822,0.92822,0.92822,0.92822,0.92822,0.92822,0.92822,0.92822,0.92822,0.92822,0.89648,0.89893,0.89893,0.90088,0.89893,0.89893,0.90088,0.90088,0.90088,0.90088,0,1.1406,1.1406,1.1406,1.1406,1.1445,1.1445,1.1445,1.1445,1.1445,1.1445,1.1445,1.1445,1.1445,1.1445,1.1445,1.1445,1.1445,1.1445,1.1445,1.1445,0,0,1.3291,1.3291,1.3242,1.3193,1.3193,1.3193,1.3242,1.3242,1.3242,1.3242,1.3242,1.3242,1.3242,1.3242,1.3242,1.3193,1.3242,1.3242,1.3291,1.3291,1.3291,1.3291,1.335,1.3398,1.335,1.3398,1.3457,1.3457,1.3398,1.3398,1.3398,1.3398,1.3457,1.3398,1.3398,1.3398,1.3457,1.3457,1.3457,1.3506,1.3506,1.3506,1.3564,1.3506,1.3564,1.3564,1.3613,1.3613,1.3613,1.3564,1.3613,1.3613,1.3613,1.3613,1.1338,1.1338,1.1221,1.1191,1.1152,1.1045,1.1006,1.0938,1.0898,1.0869,1.083,1.083,1.0762,1.0693,1.0664,1.0625,1.0596,1.0596,1.0557,1.0557,1.0527,1.0527,1.0557,1.0557,1.0557,1.0557,1.0557,1.0557,1.0566,1.0566,1.0566,1.0566,1.0566,1.0566,1.0596,1.0596,1.0596,1.0596,1.0596,1.0625,1.0625,1.0625,1.0625,1.0664,1.0664,1.0664,1.0693,1.0693,1.0732,1.0693,1.0732,1.0732,1.0693,1.0732,1.0693,0,0,1.2949,1.2949,1.2949,1.2949,1.2949,1.2949,1.2949,1.2949,1.2949,1.2949,1.2949,1.2949,1.2949,1.2949,1.2949,1.2998,1.2998,1.2998,1.2998,1.2998,1.2998,1.2998,1.2998,1.2998,1.2949,1.2949,1.2998,1.2998,1.2998,1.2949,1.2949,1.2998,1.2998,1.2998,1.2998,1.2998,1.2949,1.2949,1.2949,1.2998,1.2949,1.2949,1.2949,1.2949,1.2949,1.2949,1.2949,1.2998,1.2949,1.2949,1.2949,1.2949,1.2949,1.2949,1.2949,1.2949,1.3047,1.2998,1.2998,1.2998,1.2998,1.2998,1.2998,1.2998,1.2998,1.2998,1.2998,1.2998,1.2998,1.2998,1.2998,1.2998,1.2998,1.2998,1.2998,1.2998,1.2998,1.2998,1.2998,1.2998,1.2998,1.2998,1.2998,1.2998,1.2998,1.2998,1.2949,1.2998,1.2949,1.2998,1.2998,1.2998,1.2998,1.2998,1.2998,1.2998,1.2949,1.2998,1.2949,1.2998,1.2998,1.2998,1.2998,1.2998,1.2998,1.2998,1.2998,1.2949,1.2949,1.2949,1.2949,1.2949,1.2949,1.2949,1.2949,1.2949,1.2949,1.2949,1.29,1.29,1.29,1.2949,1.2998,1.2998,1.3008,1.3008,1.3008,1.3008,1.3008,1.3008,1.3008,1.3008,1.3008,1.3008,1.3008,1.2949,1.2959,1.3008,1.2959,0,1.4824,1.4824,1.4893,1.4893,1.4893,1.4893,1.4893,1.4824,1.4824,1.4756,1.4756,1.4824,1.4824,1.4824,1.4824,1.4893,1.4961,1.4961,1.4961,1.4893,1.4893,1.4893,1.4893,1.4893,1.4893,1.4893,1.3525,1.3525,1.3525,1.3467,1.3418,1.3418,1.3369,1.3418,1.3311,1.3311,1.3311,1.3311,1.3311,1.3262,1.3262,1.3262,1.3262,1.3213,1.3213,1.3262,1.3213,1.3213,1.3154,1.3154,1.3105,1.3105,1.3105,1.3105,1.3057,1.3057,1.3008,1.3008,1.3008,1.2959,1.2959,1.2959,1.291,1.291,1.291,1.291,1.2861,1.2861,1.2861,1.2861,1.2861,1.2861,0,0,0,0,0,0,0,0,0,0,0,0,0,0,0,0,0,0,0,0,0,0,0,0,0,0,0,0,0,0,0,0,0,0,0,0,0,0,0,0
0.90088,0.90332,0.90332,0.90332,0.90576,0.90576,0.90772,0.9082,0.91065,0.91065,0.91309,0.91309,0.91309,0.91309,0.91553,0.91553,0.91553,0.91553,0.91553,0.87988,0.87744,0.87744,0.87988,0.875,0.875,0.87305,0.87305,0.87305,0.87305,0.8706,0.8706,0.8706,0.8706,0.86865,0.86865,0.8706,0.8706,0.86865,0.8706,0.86865,0.8706,0.86865,0.86865,0.86865,0.8706,0.87305,0.87305,0.87549,0.87744,0.87744,0.87988,0.87988,0.87988,0.87988,0.88232,0.88672,0.88672,0.88672,0.88672,0.88916,0.83447,0.83008,0.83008,0.82812,0.82812,0.82812,0.82812,0.82812,0.82812,0.82812,0.82812,0.82617,0,0,0.92822,0.92822,0.92822,0.92822,0.92822,0.92822,0.92822,0.92822,0.92822,0.92822,0.89648,0.89648,0.89648,0.89893,0.89893,0.89893,0.89893,0.89893,0.89893,0.89893,0,0,0,0,1.1406,1.1406,1.1445,1.1445,1.1445,1.1445,1.1445,1.1445,1.1445,1.1445,1.1445,1.1445,1.1445,1.1445,1.1445,1.1445,1.1445,1.1445,1.1445,0,0,1.3242,1.3193,1.3135,1.3135,1.3193,1.3193,1.3193,1.3145,1.3193,1.3193,1.3193,1.3193,1.3193,1.3193,1.3193,1.3193,1.3242,1.3242,1.3242,1.3242,1.3242,1.3291,1.3291,1.3242,1.3242,1.3301,1.3301,1.3301,1.3301,1.3301,1.3301,1.335,1.3398,1.3398,1.3398,1.3398,1.3398,1.3457,1.3457,1.3457,1.3457,1.3457,1.3457,1.3506,1.3506,1.3506,1.3506,1.3564,1.3506,1.3506,1.3506,1.3506,1.3506,1.1299,1.126,1.123,1.1191,1.1152,1.1045,1.1006,1.0977,1.0938,1.0898,1.083,1.0801,1.0762,1.0693,1.0625,1.0596,1.0596,1.0557,1.0557,1.0557,1.0527,1.0566,1.0566,1.0566,1.0566,1.0566,1.0566,1.0566,1.0566,1.0566,1.0566,1.0566,1.0596,1.0596,1.0596,1.0596,1.0625,1.0596,1.0625,1.0625,1.0625,1.0625,1.0625,1.0664,1.0664,1.0664,1.0693,1.0693,1.0732,1.0732,1.0732,1.0732,1.0732,1.0732,0,0,1.2998,1.2998,1.2998,1.2998,1.2949,1.2949,1.2949,1.2949,1.2949,1.2949,1.2949,1.2949,1.2949,1.2949,1.2949,1.2949,1.2998,1.2998,1.2998,1.2998,1.2998,1.2998,1.2998,1.2998,1.2998,1.2949,1.2949,1.2949,1.2998,1.2949,1.2998,1.2998,1.2998,1.2998,1.2998,1.2998,1.2998,1.2998,1.2949,1.2998,1.2998,1.2949,1.2949,1.2949,1.2949,1.2949,1.2949,1.2949,1.2998,1.2998,1.2949,1.2949,1.2949,1.2949,1.2998,1.2998,1.2998,1.3047,1.3047,1.2998,1.2998,1.2998,1.2998,1.2998,1.2998,1.2998,1.2998,1.2998,1.2998,1.2998,1.2998,1.2998,1.2998,1.2998,1.2998,1.2998,1.2998,1.2998,1.2998,1.2998,1.2998,1.2998,1.2998,1.2998,1.2998,1.2998,1.2998,1.2998,1.2998,1.2949,1.2949,1.2998,1.2998,1.2998,1.2998,1.2998,1.2949,1.2949,1.2998,1.2949,1.2998,1.2998,1.2998,1.2949,1.2998,1.2998,1.2998,1.2998,1.2998,1.2949,1.2949,1.2949,1.2949,1.2949,1.2949,1.2949,1.2998,1.2949,1.2949,1.29,1.29,1.29,1.3008,1.3008,1.3008,1.3008,1.3008,1.3008,1.3008,1.3008,1.3008,1.3008,1.3008,1.3008,1.3008,1.3008,1.2959,1.2959,1.2959,1.291,1.291,1.4697,1.4824,1.4824,1.4824,1.4824,1.4824,1.4824,1.4824,1.4766,1.4629,1.4629,1.4697,1.4697,1.4697,1.4766,1.4766,1.4893,1.4893,1.4893,1.4893,1.4824,1.4824,1.4824,1.4824,1.3584,1.3584,1.3525,1.3525,1.3525,1.3467,1.3418,1.3418,1.3418,1.3418,1.3369,1.3311,1.3311,1.3311,1.3311,1.3311,1.3262,1.3262,1.3262,1.3213,1.3213,1.3262,1.3262,1.3213,1.3164,1.3164,1.3164,1.3105,1.3105,1.3105,1.3057,1.3057,1.3057,1.3008,1.3008,1.2959,1.2959,1.2959,1.291,1.291,1.291,1.2861,1.2861,1.2861,1.2861,1.2861,0,0,0,0,0,0,1.0645,0,0,0,0,0,0,0,0,0,0,0,0,0,0,0,0,0,0,0,0,0,0,0,0,0,0,0,0,0,0,0,0,0,0,0
