1.3643,1.3643,1.3691,1.3691,1.3691,1.375,1.375,1.375,1.375,1.375,1.375,1.3809,1.375,1.375,1.375,1.123,1.1162,1.1084,1.1055,1.1055,1.1055,1.1055,1.1055,1.1055,1.1055,1.1055,1.1055,1.1055,1.1055,1.1055,1.1055,1.1084,1.1084,1.1084,1.1123,1.1084,1.1123,1.1123,1.1162,1.1123,1.1123,1.1162,1.1162,1.1162,1.1162,1.1201,1.1201,1.1201,1.1201,1.1201,1.1201,1.1201,1.1201,1.124,1.1201,1.124,1.124,1.124,1.124,1.124,1.1201,1.1201,1.1201,1.1201,1.124,1.124,1.124,1.124,1.124,1.124,1.124,1.124,1.124,1.1279,1.124,1.1279,1.1279,1.1279,1.1279,1.1279,1.1279,1.1279,1.1279,1.1318,1.1279,1.1279,1.1279,1.1318,1.1318,1.1318,1.1279,1.1279,1.1279,1.1279,1.124,0,0,0,0,1.5674,1.5742,1.582,1.582,1.5889,1.5889,1.5889,1.5967,1.5967,1.5967,1.5967,1.5967,1.6045,1.6045,1.6045,1.6045,1.6123,1.6201,1.6201,1.6201,1.6201,1.6201,1.6279,1.6279,1.6279,1.6279,1.6279,1.6357,1.6357,1.6436,1.6436,1.6436,1.6514,1.6514,1.6514,1.6514,1.6514,1.6514,1.6602,1.6602,1.6602,1.6602,1.6602,1.6514,1.6602,1.6514,1.6514,1.6602,1.6602,1.668,1.668,1.6768,1.6768,1.6768,1.6768,1.6768,1.6768,1.6768,1.6768,0,0,0,0,0,0,1.3174,1.3115,1.3174,1.3174,1.3125,1.3174,1.3174,1.3125,1.3125,1.3066,1.3066,1.3018,1.2969,1.2969,1.2969,1.292,1.292,1.292,1.2969,1.2969,1.2969,1.292,1.2969,1.2969,1.2969,1.2969,1.2969,1.2969,1.2969,1.2969,1.2969,1.3018,1.3018,1.3018,1.2969,1.2969,1.2969,1.2969,1.2969,1.2969,1.292,1.2969,1.2969,1.292,1.292,1.292,1.292,1.292,1.292,1.292,1.292,1.2871,1.2871,1.2871,1.2969,1.2969,1.3027,1.2969,1.2969,1.3076,1.3076,1.3027,1.2969,1.3027,1.3027,1.3027,1.3027,1.2969,1.2969,1.2969,1.3027,1.3027,1.3027,1.3027,1.2979,1.3027,1.3027,1.3027,1.3027,1.3027,1.3076,1.3076,1.3076,1.3076,1.3076,1.3076,1.3076,1.3076,1.3076,1.3076,1.3076,1.3076,1.3076,1.3027,1.3027,1.3076,1.3076,1.3076,1.3125,1.3076,1.3076,1.3076,1.3076,1.3076,1.3076,1.3076,1.3027,1.3027,1.3027,1.3076,1.3076,1.3076,1.3076,1.3076,1.3076,1.3076,1.3076,1.3076,1.3076,1.3076,1.3076,1.3125,1.3125,1.3125,1.3125,1.3125,1.3125,1.3125,1.3125,1.3125,1.3125,1.3125,1.3125,1.3125,1.3125,1.3076,1.3076,1.3076,1.3076,1.3076,1.3076,1.3076,1.3076,1.3076,1.3076,1.3125,1.3125,1.3125,1.3125,1.3076,1.3135,1.3135,1.3135,1.3076,1.3135,1.3135,1.3135,1.3135,1.3135,1.3135,1.3135,1.3135,1.3135,1.3135,1.3135,1.3135,1.3135,1.3076,1.3135,1.3135,1.3135,1.3076,1.3135,1.3135,1.3076,1.3076,1.3076,1.3076,1.3076,1.3076,1.3076,1.3076,1.3076,1.3135,1.3086,1.3086,1.3086,1.3027,1.2979,0,0,0,0,0,0,0,0,0,0,0,0,0,0,0,0,0,0,0,0,0,1.5771,1.5771,1.5771,1.5693,1.5693,1.5625,1.5625,1.5625,1.5547,1.5547,1.5547,1.3506,1.3506,1.3447,1.3447,1.3447,1.3398,1.334,1.3291,1.3242,1.3242,1.3184,1.3184,1.3184,1.3184,1.3135,1.3086,1.3086,1.3086,1.3037,1.3037,1.2988,1.2988,1.2988,1.3037,1.2988,1.2988,1.2939,1.2891,1.2891,1.2891,1.2891,1.2891,1.2891,1.2842,1.2842,1.2842,1.2793,1.2744,1.2744,1.2695,1.2695,1.2695,1.2695,1.2646,1.2646,1.2646,1.2598,1.2598,1.2549,1.2549,1.2549,1.251,1.251,1.251,1.251,1.2461,1.2461,1.2412,1.2412,1.2412,1.2412,1.2412,1.2373,1.2373,1.2373,1.2324,1.2324,1.2373,0,0,0,0,0,0,0,0,0,0,0,0,0,0,0,0,0,0,0,0,0,0,0,0,0,0,0,0,0,0,0,0
1.3643,1.3691,1.3691,1.3691,1.3691,1.375,1.375,1.375,1.375,1.3809,1.3809,1.3809,1.3809,1.375,1.3867,1.1201,1.1162,1.1084,1.1084,1.1055,1.1055,1.1055,1.1055,1.1055,1.1055,1.1055,1.1055,1.1055,1.1055,1.1055,1.1055,1.1084,1.1084,1.1084,1.1123,1.1123,1.1162,1.1162,1.1162,1.1162,1.1201,1.1201,1.1162,1.1162,1.1162,1.1201,1.1201,1.1201,1.1201,1.1201,1.1201,1.124,1.124,1.124,1.124,1.124,1.124,1.124,1.1201,1.1201,1.1201,1.1201,1.1201,1.1201,1.124,1.124,1.124,1.124,1.124,1.124,1.124,1.124,1.1279,1.1279,1.1279,1.1279,1.1279,1.1279,1.1279,1.1279,1.1279,1.1279,1.1318,1.1318,1.1318,1.1318,1.1318,1.1318,1.1318,1.1318,1.1318,1.1318,1.1318,1.1279,1.124,0,0,0,0,1.5674,1.5742,1.582,1.582,1.5889,1.5898,1.5898,1.5967,1.5967,1.5967,1.5967,1.6045,1.6045,1.6045,1.6045,1.6123,1.6123,1.6201,1.6201,1.6201,1.6201,1.6201,1.6279,1.6279,1.6279,1.6279,1.6279,1.6357,1.6357,1.6357,1.6357,1.6357,1.6436,1.6436,1.6514,1.6514,1.6514,1.6514,1.6514,1.6514,1.6523,1.6523,1.6523,1.6523,1.6523,1.6436,1.6436,1.6357,1.6436,1.6436,1.6436,1.6436,1.6436,1.6436,1.6523,1.6602,1.6602,1.6602,1.6602,0,0,0,0,0,0,1.3174,1.3125,1.3174,1.3174,1.3125,1.3125,1.3174,1.3125,1.3125,1.3066,1.3066,1.3018,1.2969,1.2969,1.2969,1.292,1.292,1.292,1.2969,1.2969,1.2969,1.292,1.2969,1.2969,1.2969,1.2969,1.292,1.2969,1.2969,1.2969,1.2969,1.3018,1.3018,1.3018,1.3018,1.3018,1.3018,1.3018,1.2969,1.2969,1.2969,1.2969,1.2969,1.292,1.292,1.292,1.292,1.292,1.292,1.292,1.292,1.2871,1.2871,1.2871,1.2969,1.3027,1.3027,1.2969,1.2969,1.3076,1.3076,1.3027,1.3027,1.3027,1.3027,1.3027,1.3027,1.3027,1.3027,1.3027,1.3027,1.3076,1.3027,1.3027,1.3027,1.3027,1.3027,1.3076,1.3027,1.3027,1.3076,1.3076,1.3027,1.3076,1.3076,1.3076,1.3076,1.3076,1.3076,1.3027,1.3076,1.3076,1.3076,1.3027,1.3076,1.3076,1.3076,1.3076,1.3076,1.3076,1.3076,1.3076,1.3076,1.3076,1.3076,1.3076,1.3027,1.3027,1.3027,1.3076,1.3076,1.3076,1.3076,1.3076,1.3076,1.3076,1.3076,1.3076,1.3076,1.3076,1.3076,1.3125,1.3125,1.3125,1.3125,1.3125,1.3125,1.3125,1.3125,1.3125,1.3125,1.3125,1.3125,1.3125,1.3125,1.3125,1.3125,1.3076,1.3076,1.3076,1.3076,1.3076,1.3076,1.3076,1.3076,1.3135,1.3076,1.3135,1.3135,1.3135,1.3135,1.3135,1.3135,1.3076,1.3135,1.3135,1.3135,1.3135,1.3135,1.3135,1.3135,1.3135,1.3135,1.3135,1.3135,1.3135,1.3076,1.3076,1.3076,1.3086,1.3135,1.3135,1.3135,1.3135,1.3135,1.3076,1.3086,1.3086,1.3086,1.3086,1.3086,1.3086,1.3135,1.3135,1.3135,1.3086,1.3086,1.3027,1.2979,0,0,0,0,0,0,0,0,0,0,0,0,0,0,0,0,0,0,0,0,0,1.5771,1.5771,1.5771,1.5693,1.5693,1.5625,1.5625,1.5547,1.5479,1.541,1.5273,1.3613,1.3447,1.3447,1.3447,1.3398,1.334,1.3291,1.3291,1.3242,1.3242,1.3184,1.3184,1.3184,1.3184,1.3086,1.3086,1.3037,1.3086,1.3037,1.3037,1.3037,1.3037,1.2988,1.3037,1.2988,1.2988,1.2939,1.2891,1.2891,1.2891,1.2891,1.2891,1.2891,1.2842,1.2842,1.2793,1.2793,1.2744,1.2744,1.2695,1.2695,1.2695,1.2646,1.2646,1.2646,1.2646,1.2598,1.2598,1.2549,1.2549,1.2549,1.251,1.251,1.251,1.251,1.2461,1.2461,1.2461,1.2412,1.2412,1.2412,1.2412,1.2412,1.2373,1.2373,1.2324,1.2285,1.2285,0,0,0,0,0,0,0,0,0,0,0,0,0,0,0,0,0,0,0,0,0,0,0,0,0,0,0,0,0,0,0,0
1.3691,1.3691,1.3691,1.3691,1.375,1.375,1.375,1.375,1.375,1.3809,1.3809,1.3809,1.3867,1.3867,1.3867,1.1201,1.1162,1.1123,1.1084,1.1084,1.1055,1.1055,1.1055,1.1055,1.1055,1.1055,1.1084,1.1055,1.1055,1.1055,1.1055,1.1055,1.1055,1.1094,1.1123,1.1123,1.1162,1.1162,1.1162,1.1162,1.1201,1.1201,1.1201,1.1162,1.1201,1.1201,1.1201,1.1201,1.1201,1.1201,1.1201,1.124,1.124,1.124,1.124,1.124,1.124,1.124,1.1201,1.1201,1.1201,1.1201,1.1201,1.124,1.124,1.124,1.124,1.124,1.1279,1.124,1.1279,1.1279,1.1279,1.124,1.1279,1.1279,1.1279,1.1279,1.1279,1.1279,1.1279,1.1279,1.1318,1.1318,1.1318,1.1318,1.1318,1.1357,1.1318,1.1318,1.1318,1.1318,1.1318,1.1318,0,0,0,0,1.5742,1.5742,1.5742,1.582,1.582,1.5898,1.5898,1.5898,1.5967,1.5967,1.5967,1.5967,1.6045,1.6045,1.6045,1.6045,1.6045,1.6123,1.6201,1.6201,1.6201,1.6201,1.6279,1.6279,1.6279,1.6279,1.6279,1.6279,1.6357,1.6357,1.6357,1.6357,1.6357,1.6357,1.6436,1.6436,1.6436,1.6436,1.6523,1.6523,1.6523,1.6523,1.6523,1.6436,1.6436,1.6357,1.6357,1.6279,1.6279,1.6357,1.6279,1.6279,1.6279,1.6279,1.6279,1.6357,1.6357,1.6445,1.6357,1.6279,1.6279,1.6279,1.6279,0,0,0,1.3174,1.3125,1.3125,1.3125,1.3125,1.3125,1.3174,1.3125,1.3125,1.3066,1.3066,1.3018,1.2969,1.2969,1.2969,1.292,1.292,1.292,1.292,1.292,1.2969,1.2969,1.2969,1.2969,1.3018,1.2969,1.2969,1.2969,1.2969,1.2969,1.3018,1.3018,1.3018,1.3018,1.3018,1.3018,1.3018,1.3018,1.2969,1.2969,1.2969,1.2969,1.2969,1.2969,1.2969,1.2969,1.2969,1.2969,1.292,1.292,1.292,1.2871,1.2871,1.2871,1.2969,1.3027,1.3027,1.3027,1.3027,1.3076,1.3076,1.3076,1.3027,1.3027,1.3027,1.3027,1.3076,1.3027,1.3027,1.3027,1.3027,1.3076,1.3027,1.3027,1.3027,1.3027,1.3076,1.3076,1.3027,1.3076,1.3076,1.3076,1.3076,1.3076,1.3076,1.3076,1.3076,1.3076,1.3076,1.3076,1.3076,1.3076,1.3076,1.3027,1.3076,1.3076,1.3076,1.3125,1.3076,1.3076,1.3076,1.3125,1.3076,1.3076,1.3076,1.3076,1.3027,1.3076,1.3076,1.3076,1.3076,1.3076,1.3076,1.3076,1.3076,1.3076,1.3076,1.3076,1.3076,1.3076,1.3076,1.3125,1.3125,1.3125,1.3125,1.3125,1.3125,1.3125,1.3125,1.3125,1.3125,1.3125,1.3125,1.3125,1.3135,1.3135,1.3135,1.3135,1.3076,1.3076,1.3076,1.3076,1.3076,1.3076,1.3076,1.3135,1.3135,1.3135,1.3135,1.3135,1.3135,1.3135,1.3135,1.3135,1.3135,1.3135,1.3135,1.3135,1.3135,1.3135,1.3135,1.3135,1.3135,1.3135,1.3135,1.3135,1.3086,1.3086,1.3135,1.3135,1.3086,1.3086,1.3135,1.3135,1.3086,1.3086,1.3086,1.3086,1.3086,1.3086,1.3086,1.3086,1.3135,1.3135,1.3086,1.3135,1.3086,1.3027,1.2979,0,0,0,0,0,0,0,0,0,0,0,0,0,0,0,0,0,0,0,0,0,1.5693,1.5693,1.5693,1.5693,1.5693,1.5693,1.5625,1.5625,1.5547,1.5547,0,1.3447,1.3447,1.3447,1.3398,1.3398,1.334,1.3291,1.3242,1.3242,1.3242,1.3184,1.3184,1.3184,1.3184,1.3086,1.3086,1.3086,1.3086,1.3037,1.3037,1.3037,1.2988,1.2988,1.3037,1.2988,1.2988,1.2939,1.2891,1.2939,1.2891,1.2891,1.2891,1.2891,1.2842,1.2842,1.2793,1.2744,1.2744,1.2744,1.2695,1.2695,1.2695,1.2646,1.2646,1.2646,1.2646,1.2598,1.2598,1.2598,1.2559,1.2559,1.251,1.251,1.251,1.251,1.251,1.2461,1.2461,1.2461,1.2461,1.2412,1.2412,1.2412,1.2373,1.2373,1.2324,1.2285,1.2285,0,0,0,0,0,0,0,0,0,0,0,0,0,0,0,0,0,0,0,0,0,0,0,0,0,0,0,0,0,0,0,0
1.3643,1.3691,1.3691,1.3691,1.375,1.375,1.375,1.375,1.3809,1.3867,1.3867,1.3867,1.3867,1.3867,1.3926,1.1201,1.1162,1.1084,1.1084,1.1084,1.1084,1.1055,1.1084,1.1055,1.1055,1.1094,1.1094,1.1094,1.1055,1.1094,1.1055,1.1055,1.1055,1.1123,1.1123,1.1123,1.1162,1.1162,1.1162,1.1201,1.1201,1.1201,1.1201,1.1201,1.1201,1.1201,1.124,1.124,1.1201,1.1201,1.124,1.124,1.124,1.1201,1.1201,1.1201,1.1201,1.1201,1.1201,1.1201,1.1201,1.1201,1.1201,1.1201,1.124,1.124,1.1279,1.124,1.1279,1.1279,1.1279,1.1279,1.1279,1.1279,1.1279,1.1279,1.1279,1.1279,1.1279,1.1279,1.1279,1.1318,1.1318,1.1318,1.1318,1.1357,1.1357,1.1357,1.1357,1.1357,1.1357,1.1318,1.1318,1.1318,0,0,0,0,1.5674,1.5742,1.5742,1.582,1.5898,1.5898,1.5898,1.5967,1.5967,1.5967,1.5967,1.5967,1.5967,1.6045,1.6045,1.6045,1.6045,1.6123,1.6201,1.6201,1.6201,1.6201,1.6279,1.6279,1.6279,1.6279,1.6279,1.6279,1.6279,1.6279,1.6279,1.6279,1.6279,1.6279,1.6357,1.6436,1.6201,1.6123,1.6201,1.6436,1.6357,1.6436,1.6436,1.6279,1.6201,1.6201,1.6201,1.6201,1.6201,1.6201,1.6201,1.6201,1.6201,1.6201,1.6201,1.6279,1.6279,1.6279,1.6279,1.6201,1.6279,1.6279,1.6201,0,0,0,1.3125,1.3125,1.3125,1.3125,1.3125,1.3125,1.3125,1.3125,1.3076,1.3076,1.3018,1.2969,1.2969,1.2969,1.2969,1.292,1.292,1.292,1.2969,1.2969,1.2969,1.2969,1.2969,1.3018,1.3018,1.3018,1.3018,1.3027,1.3027,1.3027,1.3027,1.3018,1.3018,1.3018,1.3027,1.3027,1.3027,1.3027,1.2969,1.2969,1.2969,1.2969,1.2969,1.2969,1.2969,1.2969,1.292,1.2969,1.292,1.292,1.292,1.2871,1.2871,1.2871,1.292,1.3027,1.3027,1.3027,1.3027,1.3076,1.3076,1.3076,1.3027,1.3027,1.3027,1.3076,1.3076,1.3076,1.3027,1.3076,1.3027,1.3076,1.3076,1.3076,1.3076,1.3076,1.3076,1.3076,1.3076,1.3076,1.3076,1.3076,1.3076,1.3076,1.3076,1.3076,1.3076,1.3076,1.3076,1.3076,1.3076,1.3076,1.3076,1.3076,1.3076,1.3076,1.3076,1.3125,1.3125,1.3125,1.3125,1.3125,1.3076,1.3076,1.3076,1.3076,1.3076,1.3076,1.3076,1.3076,1.3076,1.3076,1.3076,1.3076,1.3076,1.3076,1.3076,1.3076,1.3076,1.3076,1.3076,1.3125,1.3125,1.3125,1.3125,1.3125,1.3125,1.3135,1.3135,1.3135,1.3135,1.3135,1.3135,1.3076,1.3135,1.3135,1.3135,1.3076,1.3076,1.3076,1.3076,1.3076,1.3076,1.3135,1.3135,1.3135,1.3135,1.3135,1.3135,1.3135,1.3135,1.3135,1.3135,1.3135,1.3135,1.3135,1.3135,1.3135,1.3135,1.3135,1.3135,1.3135,1.3135,1.3135,1.3135,1.3135,1.3086,1.3086,1.3086,1.3135,1.3086,1.3086,1.3135,1.3135,1.3086,1.3086,1.3086,1.3086,1.3086,1.3086,1.3086,1.3086,1.3135,1.3135,1.3135,1.3135,1.3086,1.3086,1.3037,0,0,0,0,0,0,0,0,0,0,0,0,0,0,0,0,0,0,0,0,0,1.5693,1.5693,1.5693,1.5693,1.5693,1.5625,1.5625,1.5625,1.5547,1.5479,1.3447,1.3447,1.3398,1.3398,1.3398,1.3398,1.3398,1.3291,1.3291,1.3242,1.3242,1.3184,1.3184,1.3184,1.3135,1.3086,1.3037,1.3086,1.3086,1.3037,1.3037,1.3037,1.2988,1.2988,1.3037,1.2988,1.2988,1.2891,1.2891,1.2891,1.2891,1.2891,1.2891,1.2842,1.2842,1.2842,1.2793,1.2744,1.2744,1.2744,1.2695,1.2695,1.2695,1.2695,1.2646,1.2646,1.2646,1.2598,1.2598,1.2559,1.2559,1.2559,1.251,1.251,1.251,1.2461,1.2461,1.2461,1.2461,1.2461,1.2461,1.2422,1.2422,1.2422,1.2373,1.2324,1.2324,1.2285,0,0,0,0,0,0,0,0,0,0,0,0,0,0,0,0,0,0,0,0,0,0,0,0,0,0,0,0,0,0,0,0,0
1.3643,1.3691,1.3691,1.3691,1.375,1.375,1.375,1.3809,1.3809,1.3867,1.3867,1.3867,1.3867,1.3926,1.3926,1.1201,1.1162,1.1123,1.1123,1.1094,1.1094,1.1094,1.1094,1.1055,1.1055,1.1094,1.1094,1.1094,1.1123,1.1094,1.1055,1.1123,1.1123,1.1123,1.1123,1.1162,1.1201,1.1201,1.1201,1.1201,1.1201,1.1201,1.1201,1.1201,1.1201,1.1201,1.124,1.124,1.124,1.124,1.124,1.124,1.124,1.1201,1.124,1.1201,1.124,1.1201,1.1201,1.1201,1.1201,1.1201,1.1201,1.1201,1.124,1.124,1.1279,1.1279,1.1279,1.1279,1.1279,1.1279,1.1279,1.1279,1.1279,1.1318,1.1318,1.1318,1.1318,1.1318,1.1318,1.1318,1.1318,1.1357,1.1357,1.1357,1.1357,1.1357,1.1357,1.1357,1.1357,1.1357,1.1357,1.1318,0,0,0,0,1.5742,1.5742,1.5742,1.582,1.5898,1.5898,1.5967,1.5967,1.5967,1.5967,1.5967,1.5967,1.5967,1.5967,1.5967,1.5967,1.5967,1.5967,1.6045,1.6123,1.6123,1.6201,1.6201,1.6201,1.6279,1.6279,1.6201,1.6201,1.6201,1.6201,1.6279,1.6201,1.6123,1.6123,1.6045,1.6123,1.5977,1.5977,1.6045,1.5977,1.5977,1.5977,1.5977,1.6055,1.6055,1.6055,1.6055,1.6123,1.6123,1.6123,1.6123,1.6201,1.6201,1.6201,1.6201,1.6201,1.6201,1.6279,1.6279,1.6201,1.6279,1.6279,0,0,0,1.3223,1.3174,1.3174,1.3125,1.3125,1.3125,1.3125,1.3125,1.3125,1.3076,1.3076,1.3018,1.3018,1.2969,1.2969,1.2969,1.2969,1.2969,1.2969,1.2969,1.2969,1.3027,1.2969,1.3027,1.3027,1.3027,1.3027,1.3027,1.3027,1.3027,1.3027,1.3027,1.3027,1.3027,1.3027,1.3027,1.3027,1.3027,1.3027,1.2969,1.2969,1.2969,1.2969,1.2969,1.2979,1.2979,1.2979,1.292,1.2979,1.292,1.292,1.2979,1.292,1.3027,1.3027,1.3027,1.3027,1.3027,1.3027,1.3027,1.3076,1.3076,1.3076,1.3076,1.3027,1.3076,1.3076,1.3076,1.3076,1.3076,1.3076,1.3027,1.3076,1.3076,1.3076,1.3076,1.3076,1.3076,1.3076,1.3076,1.3076,1.3076,1.3076,1.3076,1.3076,1.3076,1.3076,1.3076,1.3076,1.3076,1.3076,1.3076,1.3076,1.3076,1.3076,1.3076,1.3076,1.3076,1.3125,1.3125,1.3125,1.3125,1.3125,1.3125,1.3125,1.3125,1.3125,1.3076,1.3076,1.3076,1.3076,1.3076,1.3076,1.3076,1.3076,1.3076,1.3076,1.3076,1.3076,1.3076,1.3076,1.3076,1.3135,1.3076,1.3135,1.3135,1.3135,1.3135,1.3135,1.3135,1.3135,1.3135,1.3135,1.3135,1.3076,1.3135,1.3135,1.3135,1.3135,1.3076,1.3135,1.3076,1.3135,1.3135,1.3135,1.3076,1.3135,1.3135,1.3135,1.3135,1.3135,1.3135,1.3135,1.3135,1.3135,1.3135,1.3135,1.3135,1.3135,1.3135,1.3135,1.3135,1.3135,1.3135,1.3135,1.3135,1.3135,1.3086,1.3086,1.3086,1.3086,1.3086,1.3086,1.3086,1.3135,1.3086,1.3086,1.3086,1.3086,1.3086,1.3086,1.3086,1.3086,1.3135,1.3135,1.3135,1.3086,1.3086,1.3086,0,0,0,0,0,0,0,0,0,0,0,0,0,0,0,0,0,0,0,0,0,1.6143,1.5693,1.5693,1.5693,1.5693,1.5625,1.5625,1.5625,1.5625,1.5557,1.5557,1.3447,1.3447,1.3398,1.3398,1.3398,1.3398,1.3398,1.334,1.3242,1.3242,1.3242,1.3193,1.3193,1.3193,1.3135,1.3135,1.3037,1.3037,1.3037,1.3037,1.3037,1.3037,1.2988,1.2988,1.3037,1.3037,1.2988,1.2939,1.2891,1.2891,1.2891,1.2842,1.2891,1.2891,1.2842,1.2842,1.2793,1.2744,1.2744,1.2744,1.2695,1.2695,1.2695,1.2695,1.2646,1.2646,1.2646,1.2646,1.2598,1.2559,1.2559,1.2559,1.251,1.251,1.2461,1.2461,1.2461,1.2461,1.2461,1.2461,1.2461,1.2461,1.2461,1.2422,1.2373,1.2373,1.2324,1.2285,0,0,0,0,0,0,0,0,0,0,0,0,0,0,0,0,0,0,0,0,0,0,0,0,0,0,0,0,0,0,0,0,0
1.3643,1.3691,1.3691,1.3701,1.375,1.375,1.375,1.3809,1.3867,1.3867,1.3867,1.3867,1.3867,1.3926,1.3984,0,1.1162,1.1162,1.1162,1.1123,1.1123,1.1094,1.1123,1.1094,1.1055,1.1094,1.1094,1.1094,1.1123,1.1123,1.1123,1.1123,1.1123,1.1123,1.1162,1.1162,1.1162,1.1201,1.1201,1.1201,1.1201,1.1201,1.1201,1.1201,1.1201,1.1201,1.124,1.124,1.1201,1.1201,1.1201,1.124,1.124,1.1201,1.1201,1.1201,1.124,1.124,1.1201,1.1201,1.1201,1.124,1.124,1.124,1.1279,1.1279,1.1279,1.1279,1.1279,1.1318,1.1279,1.1279,1.1279,1.1279,1.1279,1.1318,1.1318,1.1318,1.1318,1.1318,1.1318,1.1318,1.1357,1.1357,1.1357,1.1357,1.1357,1.1357,1.1357,1.1357,1.1357,1.1357,1.1357,1.1357,0,0,0,0,1.5752,1.5752,1.582,1.5898,1.5898,1.5898,1.5898,1.5967,1.5967,1.5967,1.5967,1.5977,1.5977,1.5977,1.5977,1.5977,1.5977,1.5977,1.5977,1.5977,1.5977,0,1.6123,1.6123,1.6201,1.6123,1.6123,1.6045,1.5977,1.5977,1.6045,1.5898,1.5977,1.5977,1.5898,1.5898,1.5898,1.5898,1.5898,1.5898,1.5898,1.5898,1.5977,1.5977,1.5977,1.5977,1.5977,1.5977,1.5977,1.6055,1.6055,1.6055,1.6123,1.6133,1.6055,1.6055,1.6055,1.6055,1.6055,1.6055,1.6055,0,0,0,0,1.3223,1.3174,1.3174,1.3125,1.3125,1.3125,1.3125,1.3125,1.3076,1.3076,1.3076,1.3018,1.3018,1.2969,1.2969,1.2969,1.2969,1.2969,1.292,1.2969,1.2969,1.2969,1.2969,1.3027,1.3027,1.3027,1.3027,1.3027,1.3027,1.3027,1.3027,1.3027,1.3027,1.3027,1.3027,1.3027,1.3027,1.3027,1.3027,1.3027,1.3027,1.2979,1.3027,1.3027,1.2979,1.2979,1.2979,1.2979,1.2979,1.2979,1.2979,1.2979,1.2979,1.3027,1.3027,1.2979,1.3027,1.3027,1.3027,1.3027,1.3076,1.3076,1.3076,1.3076,1.3076,1.3076,1.3076,1.3076,1.3076,1.3125,1.3076,1.3076,1.3076,1.3076,1.3076,1.3076,1.3076,1.3076,1.3076,1.3076,1.3076,1.3076,1.3076,1.3076,1.3076,1.3076,1.3076,1.3076,1.3076,1.3076,1.3076,1.3076,1.3076,1.3076,1.3076,1.3076,1.3076,1.3125,1.3125,1.3125,1.3125,1.3125,1.3125,1.3125,1.3125,1.3125,1.3125,1.3135,1.3135,1.3076,1.3076,1.3076,1.3076,1.3076,1.3076,1.3076,1.3076,1.3076,1.3076,1.3076,1.3076,1.3076,1.3135,1.3135,1.3135,1.3135,1.3135,1.3135,1.3135,1.3135,1.3135,1.3135,1.3135,1.3135,1.3135,1.3135,1.3135,1.3135,1.3135,1.3135,1.3135,1.3086,1.3086,1.3086,1.3135,1.3086,1.3135,1.3086,1.3135,1.3135,1.3135,1.3135,1.3135,1.3135,1.3135,1.3135,1.3135,1.3135,1.3086,1.3135,1.3135,1.3135,1.3135,1.3135,1.3135,1.3135,1.3135,1.3135,1.3086,1.3135,1.3135,1.3086,1.3086,1.3086,1.3086,1.3086,1.3086,1.3086,1.3086,1.3135,1.3135,1.3086,1.3086,1.3135,1.3184,1.3135,1.3135,1.3086,1.3086,0,0,0,0,0,0,0,0,0,0,0,0,0,0,0,0,0,0,0,0,0,1.6074,1.5693,1.5693,1.5693,1.5693,1.5625,1.5625,1.5625,1.5625,1.5625,1.3447,1.3447,1.3447,1.3398,1.3398,1.3398,1.3398,1.3398,1.335,1.3291,1.3242,1.3242,1.3193,1.3193,1.3193,1.3193,1.3135,1.3037,1.3086,1.3037,1.3037,1.3037,1.3037,1.2988,1.2988,1.3037,1.2988,1.2988,1.2939,1.2891,1.2891,1.2891,1.2891,1.2891,1.2891,1.2842,1.2842,1.2842,1.2793,1.2744,1.2744,1.2744,1.2695,1.2695,1.2695,1.2646,1.2646,1.2646,1.2598,1.2559,1.2559,1.2559,1.251,1.251,1.251,1.2461,1.2461,1.2461,1.2461,1.2461,1.2422,1.2461,1.2422,1.2422,1.2422,1.2373,1.2373,1.2324,1.2324,0,0,0,0,0,0,0,0,0,0,0,0,0,0,0,0,0,0,0,0,0,0,0,0,0,0,0,0,0,0,0,0,0
1.3701,1.3701,1.3701,1.3701,1.375,1.375,1.375,1.3809,1.3809,1.3867,1.3867,1.3867,1.375,1.3867,0,0,1.1162,1.1162,1.1123,1.1123,1.1094,1.1094,1.1094,1.1094,1.1055,1.1094,1.1094,1.1094,1.1123,1.1123,1.1123,1.1123,1.1123,1.1123,1.1162,1.1162,1.1162,1.1201,1.1201,1.1201,1.1201,1.1201,1.1201,1.1201,1.124,1.1201,1.124,1.124,1.1201,1.124,1.124,1.124,1.124,1.124,1.124,1.124,1.124,1.124,1.124,1.124,1.124,1.124,1.124,1.124,1.1279,1.1318,1.1318,1.1318,1.1318,1.1318,1.1279,1.1279,1.1279,1.1318,1.1318,1.1318,1.1318,1.1318,1.1357,1.1357,1.1357,1.1357,1.1357,1.1357,1.1357,1.1357,1.1357,1.1357,1.1357,1.1357,1.1357,1.1357,1.1357,1.1357,0,0,0,0,1.582,1.582,1.582,1.5898,1.5898,1.5898,1.5898,1.5977,1.5977,1.5977,1.5977,1.5977,1.5977,1.5977,1.5977,1.5977,1.5977,1.5898,1.5977,1.582,1.5674,1.5674,1.5674,1.5674,1.5674,1.5674,1.5674,1.5752,1.5752,1.5752,1.5752,1.5752,1.582,1.582,1.582,1.5898,1.5898,1.582,1.582,1.583,1.5898,1.583,1.5898,1.5898,1.5898,1.5898,1.5898,1.5898,1.5898,1.5977,1.5977,1.5977,1.5977,1.5977,1.5977,1.5977,1.6055,1.6055,1.5977,1.5977,1.5977,1.6211,0,0,0,1.3223,1.3174,1.3125,1.3125,1.3125,1.3125,1.3125,1.3125,1.3076,1.3076,1.3076,1.3027,1.3027,1.2969,1.2969,1.2969,1.2969,1.292,1.292,1.2969,1.2969,1.2969,1.2969,1.2979,1.3027,1.3027,1.3027,1.3027,1.3027,1.3027,1.3027,1.3027,1.3027,1.3027,1.3027,1.3027,1.3027,1.3027,1.3027,1.2979,1.2979,1.3027,1.3027,1.3027,1.3027,1.3027,1.2979,1.2979,1.2979,1.2979,1.2979,1.2979,1.2979,1.2979,1.2979,1.2979,1.3027,1.3027,1.3027,1.3027,1.3076,1.3076,1.3076,1.3076,1.3076,1.3076,1.3076,1.3076,1.3076,1.3076,1.3076,1.3076,1.3125,1.3076,1.3076,1.3076,1.3076,1.3076,1.3076,1.3076,1.3076,1.3076,1.3076,1.3076,1.3076,1.3076,1.3076,1.3076,1.3076,1.3076,1.3076,1.3076,1.3076,1.3027,1.3076,1.3076,1.3076,1.3125,1.3125,1.3135,1.3135,1.3135,1.3135,1.3135,1.3135,1.3135,1.3135,1.3135,1.3135,1.3135,1.3076,1.3076,1.3076,1.3076,1.3076,1.3135,1.3076,1.3076,1.3076,1.3076,1.3076,1.3076,1.3076,1.3076,1.3135,1.3135,1.3135,1.3135,1.3135,1.3076,1.3076,1.3076,1.3135,1.3086,1.3135,1.3135,1.3135,1.3135,1.3135,1.3135,1.3135,1.3135,1.3135,1.3135,1.3086,1.3086,1.3086,1.3086,1.3135,1.3135,1.3135,1.3135,1.3135,1.3135,1.3086,1.3086,1.3086,1.3135,1.3135,1.3135,1.3135,1.3135,1.3135,1.3135,1.3135,1.3135,1.3135,1.3135,1.3086,1.3086,1.3086,1.3086,1.3086,1.3135,1.3086,1.3086,1.3086,1.3086,1.3135,1.3135,1.3086,1.3086,1.3086,1.3135,1.3184,1.3135,1.3086,1.3086,0,0,0,0,0,0,0,0,0,0,0,0,0,0,0,0,0,0,0,0,0,0,1.5996,1.5693,1.5693,1.5693,1.5693,1.5693,1.5625,1.5625,1.5625,1.5625,1.3506,1.3447,1.3447,1.3398,1.3398,1.335,1.335,1.335,1.335,1.3242,1.3242,1.3242,1.3242,1.3193,1.3193,1.3193,1.3135,1.3135,1.3086,1.3037,1.3037,1.3037,1.2988,1.2988,1.2988,1.3037,1.2988,1.2939,1.2939,1.2891,1.2891,1.2891,1.2891,1.2891,1.2891,1.2842,1.2842,1.2842,1.2842,1.2793,1.2695,1.2695,1.2695,1.2646,1.2646,1.2646,1.2646,1.2646,1.2607,1.2607,1.2559,1.2559,1.251,1.251,1.251,1.2461,1.2461,1.2461,1.2461,1.2461,1.2461,1.2461,1.2422,1.2422,1.2422,1.2373,1.2373,1.2324,1.2324,0,0,0,0,0,0,0,0,0,0,0,0,0,0,0,0,0,0,0,0,0,0,0,0,0,0,0,0,0,0,0,0,0
1.3701,1.3701,1.3701,1.3701,1.375,1.375,1.3809,1.3809,1.3867,1.3867,1.3867,1.3867,1.3867,1.3926,0,0,1.1162,1.1162,1.1123,1.1123,1.1094,1.1094,1.1123,1.1094,1.1055,1.1094,1.1094,1.1123,1.1123,1.1123,1.1123,1.1162,1.1162,1.1162,1.1162,1.1162,1.1201,1.1201,1.1201,1.1201,1.124,1.124,1.124,1.124,1.124,1.124,1.124,1.124,1.124,1.124,1.124,1.124,1.124,1.124,1.124,1.124,1.1201,1.124,1.124,1.124,1.124,1.124,1.124,1.1279,1.1318,1.1318,1.1318,1.1318,1.1318,1.1318,1.1318,1.1318,1.1318,1.1318,1.1318,1.1357,1.1357,1.1357,1.1357,1.1357,1.1357,1.1357,1.1357,1.1357,1.1357,1.1357,1.1357,1.1357,1.1357,1.1357,1.1357,1.1357,1.1357,1.1357,1.1357,0,0,0,1.582,1.5752,1.5752,1.582,1.582,1.5898,1.5898,1.5898,1.5898,1.5977,1.5898,1.5977,1.5977,1.5977,1.5977,1.5977,1.5898,1.582,1.5674,1.5674,1.5605,1.5605,1.5605,1.5605,1.5605,1.5605,1.5674,1.5674,1.5674,1.5674,1.5674,1.5674,1.5752,1.5752,1.5752,1.5752,1.583,1.5752,1.5752,1.5752,1.583,1.5752,1.583,1.583,1.583,1.583,1.583,1.583,1.583,1.5898,1.5898,1.5898,1.5898,1.5898,1.5898,1.5898,1.5977,1.5977,1.5977,1.5898,1.5898,1.5898,0,0,1.3223,1.3223,1.3174,1.3125,1.3125,1.3125,1.3125,1.3125,1.3125,1.3125,1.3076,1.3076,1.3076,1.3027,1.3027,1.2969,1.2979,1.2979,1.292,1.292,1.292,1.292,1.2979,1.2979,1.2979,1.3027,1.3027,1.3027,1.3027,1.3027,1.3027,1.3027,1.3027,1.3027,1.3027,1.3027,1.3027,1.3027,1.3027,1.3027,1.3027,1.3027,1.3027,1.3027,1.3027,1.3027,1.3027,1.3027,1.3027,1.3027,1.2979,1.2979,1.2979,1.2979,1.2979,1.2979,1.3027,1.3027,1.3027,1.3027,1.3027,1.3076,1.3076,1.3076,1.3076,1.3076,1.3076,1.3076,1.3076,1.3076,1.3125,1.3125,1.3076,1.3076,1.3076,1.3076,1.3076,1.3076,1.3076,1.3076,1.3076,1.3076,1.3076,1.3076,1.3076,1.3076,1.3076,1.3076,1.3076,1.3076,1.3076,1.3076,1.3076,1.3076,1.3076,1.3076,1.3076,1.3076,1.3076,1.3135,1.3135,1.3135,1.3135,1.3135,1.3135,1.3135,1.3135,1.3135,1.3135,1.3135,1.3135,1.3135,1.3076,1.3076,1.3076,1.3076,1.3135,1.3076,1.3076,1.3076,1.3086,1.3086,1.3086,1.3086,1.3086,1.3135,1.3135,1.3135,1.3135,1.3135,1.3135,1.3086,1.3135,1.3135,1.3135,1.3135,1.3135,1.3135,1.3135,1.3135,1.3135,1.3135,1.3135,1.3135,1.3135,1.3086,1.3086,1.3086,1.3086,1.3135,1.3135,1.3135,1.3135,1.3135,1.3086,1.3086,1.3086,1.3086,1.3135,1.3135,1.3086,1.3135,1.3135,1.3135,1.3135,1.3135,1.3135,1.3135,1.3135,1.3135,1.3135,1.3086,1.3086,1.3135,1.3086,1.3086,1.3086,1.3086,1.3086,1.3086,1.3086,1.3086,1.3037,1.3086,1.3135,1.3135,1.3086,1.3086,1.3242,0,0,0,0,0,0,0,0,0,0,0,0,0,0,0,0,0,0,0,0,0,0,1.585,1.5771,1.5693,1.5693,1.5693,1.5703,1.5703,1.5625,1.5557,1.5342,1.3506,1.3506,1.3447,1.3447,1.3398,1.335,1.335,1.335,1.3291,1.3291,1.3242,1.3242,1.3242,1.3193,1.3193,1.3193,1.3135,1.3135,1.3135,1.3086,1.3037,1.3037,1.2988,1.2988,1.2988,1.2988,1.2988,1.2939,1.2891,1.2891,1.2891,1.2891,1.2891,1.2891,1.2891,1.2842,1.2842,1.2842,1.2842,1.2793,1.2744,1.2695,1.2695,1.2646,1.2646,1.2646,1.2646,1.2607,1.2607,1.2607,1.2559,1.2559,1.251,1.251,1.251,1.251,1.251,1.2461,1.2461,1.2461,1.2461,1.2461,1.2422,1.2422,1.2373,1.2373,1.2324,1.2324,1.2334,0,0,0,0,0,0,0,0,0,0,0,0,0,0,0,0,0,0,0,0,0,0,0,0,0,0,0,0,0,0,0,0,0
1.3643,1.3701,1.3701,1.375,1.375,1.3809,1.3809,1.3867,1.3867,1.3867,1.3867,1.3926,0,0,0,0,1.1162,1.1162,1.1162,1.1162,1.1123,1.1123,1.1123,1.1123,1.1055,1.1055,1.1162,1.1123,1.1123,1.1123,1.1133,1.1162,1.1162,1.1162,1.1162,1.1162,1.1201,1.1201,1.1201,1.1201,1.124,1.124,1.124,1.124,1.124,1.124,1.124,1.124,1.124,1.124,1.124,1.124,1.124,1.124,1.124,1.124,1.124,1.124,1.124,1.124,1.124,1.1279,1.1279,1.1279,1.1318,1.1318,1.1318,1.1318,1.1357,1.1357,1.1318,1.1318,1.1318,1.1318,1.1318,1.1357,1.1357,1.1357,1.1357,1.1357,1.1357,1.1357,1.1357,1.1357,1.1357,1.1357,1.1357,1.1357,1.1357,1.1357,1.1357,1.1357,1.1357,1.1357,1.1357,0,0,0,1.5254,1.5605,1.5605,1.5605,1.5674,1.582,1.582,1.582,1.5898,1.5898,1.582,1.5898,1.5898,1.5898,1.5898,1.582,1.5752,1.5674,1.5605,1.5605,1.5605,1.5605,1.5605,1.5605,1.5605,1.5605,1.5605,1.5605,1.5605,1.5674,1.5684,1.5684,1.5684,1.5684,1.5684,1.5684,1.5752,1.5752,1.5752,1.5752,1.5752,1.5752,1.5752,1.5752,1.5752,1.5752,1.5752,1.5684,1.5752,1.5752,1.583,1.583,1.5752,1.583,1.583,1.583,1.583,1.583,1.583,1.5752,1.5752,1.5752,1.5684,0,1.3223,1.3223,1.3174,1.3125,1.3125,1.3125,1.3174,1.3125,1.3125,1.3125,1.3076,1.3076,1.3027,1.3027,1.2979,1.2979,1.2979,1.2979,1.292,1.292,1.293,1.293,1.2979,1.2979,1.2979,1.3027,1.3027,1.3027,1.3027,1.3027,1.3027,1.3027,1.3027,1.3027,1.3027,1.3027,1.3027,1.3027,1.3027,1.3027,1.3027,1.3027,1.3027,1.3027,1.3027,1.3027,1.3027,1.3027,1.3027,1.3027,1.3027,1.3027,1.2979,1.2979,1.2979,1.3027,1.3027,1.3027,1.3027,1.3027,1.3027,1.3076,1.3076,1.3076,1.3076,1.3076,1.3076,1.3076,1.3076,1.3076,1.3125,1.3125,1.3076,1.3076,1.3076,1.3076,1.3076,1.3076,1.3076,1.3076,1.3076,1.3076,1.3076,1.3076,1.3076,1.3076,1.3076,1.3076,1.3076,1.3076,1.3076,1.3076,1.3076,1.3076,1.3076,1.3076,1.3076,1.3076,1.3135,1.3135,1.3135,1.3135,1.3135,1.3184,1.3135,1.3135,1.3135,1.3135,1.3135,1.3135,1.3135,1.3135,1.3086,1.3086,1.3086,1.3086,1.3135,1.3086,1.3086,1.3086,1.3086,1.3086,1.3086,1.3086,1.3135,1.3135,1.3135,1.3135,1.3135,1.3135,1.3135,1.3135,1.3135,1.3135,1.3086,1.3135,1.3135,1.3135,1.3135,1.3135,1.3135,1.3184,1.3135,1.3135,1.3135,1.3135,1.3086,1.3086,1.3086,1.3086,1.3135,1.3135,1.3135,1.3135,1.3135,1.3086,1.3086,1.3086,1.3135,1.3086,1.3135,1.3135,1.3135,1.3135,1.3135,1.3135,1.3135,1.3135,1.3135,1.3086,1.3086,1.3086,1.3086,1.3135,1.3086,1.3135,1.3086,1.3086,1.3086,1.3086,1.3086,1.3086,1.3086,1.3086,1.3135,1.3135,1.3086,1.3135,1.3242,0,0,0,0,0,0,0,0,0,0,0,0,0,0,0,0,0,0,0,0,0,0,1.5996,1.5771,1.5771,1.5703,1.5771,1.5703,1.5703,1.5703,1.5703,1.3672,1.3564,1.3506,1.3457,1.3457,1.3398,1.3398,1.335,1.335,1.3291,1.3291,1.3242,1.3242,1.3242,1.3242,1.3193,1.3193,1.3193,1.3145,1.3145,1.3086,1.3037,1.3037,1.3037,1.2988,1.2988,1.3037,1.2988,1.2939,1.2891,1.2891,1.2891,1.2891,1.2891,1.2891,1.2891,1.2891,1.2891,1.2842,1.2842,1.2744,1.2744,1.2695,1.2695,1.2695,1.2695,1.2646,1.2646,1.2646,1.2607,1.2607,1.2559,1.2559,1.2559,1.251,1.251,1.251,1.2461,1.2461,1.2461,1.2461,1.2461,1.2461,1.2461,1.2422,1.2422,1.2373,1.2373,1.2334,1.2334,0,0,0,0,0,0,0,0,0,0,0,0,0,0,0,0,0,0,0,0,0,0,0,0,0,0,0,0,0,0,0,0,0
1.3701,1.3701,1.3701,1.375,1.375,1.3809,1.3809,1.3867,1.3867,1.3867,1.3867,1.3867,0,0,0,0,0,0,1.1162,1.1162,1.1133,1.1162,1.1162,0.93164,0.93164,0,0,1.1162,1.1162,1.1162,1.1162,1.1162,1.1162,1.1162,1.1162,1.1162,1.1201,1.1201,1.1201,1.124,1.124,1.124,1.124,1.124,1.124,1.124,1.124,1.1279,1.124,1.124,1.124,1.124,1.124,1.124,1.124,1.124,1.124,1.124,1.124,1.124,1.124,1.1279,1.1279,1.1318,1.1318,1.1357,1.1318,1.1318,1.1357,1.1357,1.1357,1.1318,1.1318,1.1318,1.1357,1.1357,1.1357,1.1357,1.1357,1.1357,1.1357,1.1357,1.1357,1.1357,1.1357,1.1357,1.1357,1.1357,1.1357,1.1357,1.1357,1.1357,1.1357,1.1357,1.1357,0,0,0,1.5117,1.5254,1.5254,1.5391,1.5391,1.5391,1.5391,1.5391,1.5391,1.5391,1.5459,1.5459,1.5459,1.5391,1.5459,1.5537,1.5605,1.5605,1.5537,1.5537,1.5537,1.5537,1.5537,1.5537,1.5537,1.5537,1.5537,1.5605,1.5605,1.5605,1.5605,1.5605,1.5605,1.5605,1.5605,1.5605,1.5684,1.5684,1.5684,1.5684,1.5684,1.5684,1.5684,1.5684,1.5684,1.5684,1.5684,1.5684,1.5684,1.5684,1.5752,1.5752,1.5752,1.5752,1.5752,1.583,1.5752,1.5752,1.5752,1.5684,1.5684,1.5684,1.5605,0,1.3281,1.3223,1.3174,1.3125,1.3125,1.3125,1.3174,1.3174,1.3174,1.3125,1.3125,1.3076,1.3076,1.3027,1.3027,1.3027,1.2979,1.2979,1.293,1.293,1.2979,1.2979,1.2979,1.2979,1.2979,1.3027,1.3027,1.3027,1.3027,1.3027,1.3027,1.3027,1.3027,1.3027,1.3027,1.3027,1.3027,1.3027,1.3027,1.3027,1.3027,1.3027,1.3027,1.3027,1.3027,1.3027,1.3027,1.3027,1.3027,1.3027,1.3027,1.3027,1.3027,1.2979,1.2979,1.3027,1.3027,1.3027,1.3027,1.3027,1.3076,1.3125,1.3076,1.3076,1.3076,1.3076,1.3076,1.3076,1.3076,1.3076,1.3125,1.3125,1.3076,1.3076,1.3076,1.3076,1.3076,1.3076,1.3076,1.3076,1.3076,1.3076,1.3076,1.3076,1.3076,1.3076,1.3076,1.3076,1.3076,1.3076,1.3076,1.3076,1.3076,1.3076,1.3076,1.3076,1.3076,1.3076,1.3076,1.3135,1.3135,1.3135,1.3135,1.3184,1.3135,1.3135,1.3184,1.3135,1.3135,1.3135,1.3135,1.3135,1.3086,1.3086,1.3086,1.3086,1.3135,1.3086,1.3086,1.3086,1.3086,1.3086,1.3086,1.3135,1.3135,1.3135,1.3135,1.3135,1.3135,1.3135,1.3135,1.3135,1.3135,1.3135,1.3135,1.3135,1.3135,1.3135,1.3135,1.3135,1.3135,1.3184,1.3135,1.3135,1.3135,1.3135,1.3086,1.3135,1.3086,1.3135,1.3135,1.3135,1.3135,1.3135,1.3086,1.3086,1.3086,1.3086,1.3135,1.3135,1.3135,1.3135,1.3135,1.3135,1.3135,1.3135,1.3135,1.3135,1.3135,1.3086,1.3086,1.3086,1.3086,1.3086,1.3086,1.3086,1.3086,1.3086,1.3086,1.3086,1.3086,1.3086,1.3086,1.3086,1.3135,1.3184,1.3135,1.3135,1.3242,0,0,0,0,0,0,0,0,0,0,0,0,0,0,0,0,0,0,0,0,0,0,1.5918,1.585,1.5771,1.5771,1.5771,1.5703,1.5703,1.5703,1.3721,1.3613,1.3506,1.3457,1.3457,1.3457,1.3457,1.3398,1.3398,1.335,1.3291,1.3242,1.3242,1.3242,1.3242,1.3242,1.3242,1.3193,1.3193,1.3145,1.3145,1.3086,1.3086,1.3086,1.3037,1.2988,1.2988,1.3037,1.2988,1.2939,1.2939,1.2891,1.2891,1.2891,1.2891,1.2891,1.2891,1.2891,1.2891,1.2842,1.2793,1.2744,1.2744,1.2695,1.2695,1.2695,1.2656,1.2656,1.2656,1.2607,1.2607,1.2607,1.2559,1.2559,1.2559,1.251,1.251,1.251,1.2471,1.2471,1.2471,1.2422,1.2422,1.2422,1.2422,1.2422,1.2373,1.2334,1.2334,1.2334,1.2334,0,0,0,0,0,0,0,0,0,0,0,0,0,0,0,0,0,0,0,0,0,0,0,0,0,0,0,0,0,0,0,0,0
1.3701,1.3701,1.3701,1.376,1.376,1.3809,1.3809,1.3809,1.3809,1.3809,1.3867,1.3867,0,0,0,0,0,0,1.1201,1.1162,1.1162,0.93457,0.93457,0.93164,0.93164,0.9292,0.9292,0.9292,0,0,1.1162,1.1162,1.1162,1.1162,1.1162,1.1162,1.1201,1.1201,1.1201,1.1201,1.1201,1.124,1.124,1.124,1.124,1.124,1.124,1.124,1.124,1.1279,1.124,1.124,1.1279,1.1279,1.1279,1.124,1.1279,1.124,1.124,1.1279,1.1279,1.1279,1.1279,1.1318,1.1318,1.1318,1.1318,1.1318,1.1357,1.1357,1.1357,1.1357,1.1357,1.1318,1.1357,1.1357,1.1357,1.1357,1.1357,1.1357,1.1357,1.1357,1.1357,1.1357,1.1357,1.1357,1.1357,1.1357,1.1357,1.1357,1.1357,1.1357,1.1357,1.1357,1.1357,0,0,0,1.5117,1.5117,1.5117,1.5254,1.5254,1.5254,1.5322,1.5322,1.5322,1.5322,1.5391,1.5391,1.5391,1.5391,1.5391,1.5391,1.5391,1.5391,1.5391,1.5391,1.5391,1.5391,1.5469,1.5469,1.5391,1.5469,1.5537,1.5537,1.5537,1.5537,1.5537,1.5537,1.5537,1.5537,1.5537,1.5605,1.5605,1.5605,1.5605,1.5605,1.5605,1.5605,1.5684,1.5684,1.5684,1.5684,1.5605,1.5605,1.5684,1.5684,1.5684,1.5684,1.5684,1.5684,1.5752,1.5752,1.5684,1.5684,1.5684,1.5684,1.5684,1.5684,1.5615,1.3232,1.3232,1.3232,1.3174,1.3125,1.3125,1.3125,1.3174,1.3174,1.3125,1.3125,1.3076,1.3076,1.3076,1.3027,1.3027,1.3027,1.2979,1.2979,1.293,1.2979,1.2979,1.2979,1.2979,1.2979,1.2979,1.3027,1.3027,1.3027,1.3027,1.3027,1.3027,1.3027,1.3027,1.3027,1.3027,1.3027,1.3027,1.3027,1.3027,1.3027,1.3027,1.3027,1.3027,1.3027,1.3027,1.3027,1.3027,1.3027,1.3027,1.3027,1.3027,1.3027,1.3027,1.3027,1.3027,1.3027,1.3027,1.3027,1.3027,1.3027,1.3076,1.3125,1.3076,1.3076,1.3076,1.3076,1.3076,1.3076,1.3076,1.3076,1.3135,1.3135,1.3076,1.3076,1.3076,1.3076,1.3076,1.3076,1.3076,1.3076,1.3076,1.3135,1.3076,1.3076,1.3135,1.3076,1.3076,1.3076,1.3076,1.3076,1.3076,1.3076,1.3027,1.3076,1.3076,1.3076,1.3076,1.3076,1.3086,1.3135,1.3135,1.3135,1.3135,1.3135,1.3135,1.3135,1.3135,1.3135,1.3135,1.3135,1.3135,1.3135,1.3086,1.3086,1.3086,1.3135,1.3135,1.3086,1.3086,1.3086,1.3086,1.3086,1.3086,1.3135,1.3135,1.3135,1.3135,1.3135,1.3135,1.3135,1.3135,1.3135,1.3135,1.3135,1.3135,1.3135,1.3135,1.3135,1.3135,1.3135,1.3135,1.3184,1.3184,1.3135,1.3135,1.3135,1.3135,1.3135,1.3135,1.3135,1.3135,1.3135,1.3135,1.3135,1.3135,1.3135,1.3135,1.3086,1.3135,1.3135,1.3135,1.3135,1.3135,1.3135,1.3135,1.3135,1.3135,1.3135,1.3135,1.3086,1.3086,1.3135,1.3135,1.3086,1.3086,1.3086,1.3086,1.3086,1.3086,1.3086,1.3086,1.3086,1.3086,1.3086,1.3135,1.3193,1.3135,1.3242,0,0,0,0,0,0,0,0,0,0,0,0,0,0,0,0,0,0,0,0,0,0,0,1.5996,1.585,1.585,1.585,1.5771,1.5771,1.5771,1.5703,1.373,1.3613,1.3457,1.3457,1.3457,1.3457,1.3457,1.3398,1.335,1.335,1.3291,1.3242,1.3242,1.3242,1.3242,1.3242,1.3242,1.3242,1.3193,1.3145,1.3145,1.3086,1.3086,1.3037,1.3037,1.3037,1.2988,1.3037,1.2988,1.2988,1.2939,1.2939,1.2891,1.2891,1.2891,1.2891,1.2891,1.2891,1.2891,1.2842,1.2793,1.2744,1.2744,1.2695,1.2695,1.2695,1.2695,1.2695,1.2656,1.2607,1.2656,1.2607,1.2607,1.2559,1.2559,1.2559,1.251,1.251,1.2471,1.2471,1.2471,1.2471,1.2422,1.2422,1.2422,1.2422,1.2373,1.2334,1.2334,1.2285,0,0,0,0,0,0,0,0,0,0,0,0,0,0,0,0,0,0,0,0,0,0,0,0,0,0,0,0,0,0,0,0,0,0
1.3701,1.3701,1.3701,1.376,1.376,1.3809,1.3809,1.3809,1.3809,1.3809,1.3809,0,0,0,0,0,0,0,0.9292,0.9292,0.93213,0.93213,0.93457,0.93213,0.93213,0.9292,0.92676,0.92676,0,0,0,1.1162,1.1162,1.1162,1.1162,1.1162,1.1201,1.1201,1.124,1.124,1.1201,1.124,1.124,1.124,1.124,1.124,1.124,1.124,1.124,1.1279,1.1279,1.1279,1.1279,1.1279,1.1279,1.1279,1.1279,1.1318,1.1318,1.1279,1.1279,1.1279,1.1318,1.1318,1.1318,1.1357,1.1357,1.1318,1.1357,1.1357,1.1318,1.1357,1.1318,1.1318,1.1357,1.1357,1.1357,1.1357,1.1357,1.1357,1.1357,1.1396,1.1357,1.1357,1.1357,1.1357,1.1357,1.1357,1.1357,1.1396,1.1357,1.1357,1.1357,1.1357,1.1357,1.1357,0,0,0,1.5049,1.5049,1.5186,1.5186,1.5186,1.5186,1.5254,1.5254,1.5254,1.5322,1.5322,1.5322,1.5322,1.5322,1.5322,1.5322,1.5391,1.5391,1.5322,1.5322,1.5322,1.5391,1.5391,1.5391,1.5391,1.5391,1.5391,1.5391,1.5391,1.54,1.54,1.54,1.54,1.5537,1.5469,1.5537,1.5537,1.5537,1.5537,1.5537,1.5605,1.5605,1.5605,1.5605,1.5605,1.5605,1.5605,1.5605,1.5605,1.5605,1.5605,1.5605,1.5605,1.5684,1.5684,1.5684,1.5684,1.5684,1.5615,1.5615,1.5615,1.5537,1.5537,1.3232,1.3232,1.3174,1.3174,1.3125,1.3125,1.3232,1.3174,1.3125,1.3125,1.3076,1.3076,1.3076,1.3027,1.3027,1.3027,1.3027,1.2979,1.293,1.293,1.2979,1.2979,1.2979,1.2979,1.2979,1.3027,1.3027,1.3027,1.3027,1.3027,1.3027,1.3027,1.3027,1.3027,1.3027,1.3027,1.3076,1.3027,1.3027,1.3027,1.3027,1.3027,1.3027,1.3027,1.3076,1.3027,1.3027,1.3027,1.3027,1.3027,1.3027,1.3027,1.3027,1.3027,1.2979,1.3027,1.3027,1.3027,1.3027,1.3027,1.3076,1.3135,1.3076,1.3076,1.3135,1.3135,1.3076,1.3076,1.3076,1.3076,1.3135,1.3076,1.3076,1.3076,1.3135,1.3076,1.3076,1.3076,1.3076,1.3076,1.3076,1.3076,1.3076,1.3135,1.3076,1.3076,1.3076,1.3076,1.3076,1.3076,1.3076,1.3086,1.3086,1.3086,1.3086,1.3135,1.3086,1.3086,1.3086,1.3135,1.3135,1.3135,1.3135,1.3135,1.3135,1.3135,1.3184,1.3135,1.3135,1.3135,1.3135,1.3135,1.3135,1.3086,1.3086,1.3135,1.3135,1.3135,1.3086,1.3086,1.3135,1.3135,1.3135,1.3135,1.3184,1.3184,1.3184,1.3135,1.3135,1.3135,1.3135,1.3135,1.3135,1.3135,1.3135,1.3135,1.3135,1.3135,1.3135,1.3135,1.3135,1.3184,1.3184,1.3135,1.3135,1.3135,1.3135,1.3135,1.3135,1.3135,1.3135,1.3135,1.3135,1.3135,1.3135,1.3135,1.3135,1.3135,1.3135,1.3135,1.3135,1.3135,1.3135,1.3135,1.3135,1.3135,1.3135,1.3135,1.3135,1.3135,1.3135,1.3135,1.3135,1.3086,1.3086,1.3086,1.3086,1.3086,1.3086,1.3086,1.3086,1.3086,1.3086,1.3037,1.3135,1.3193,1.3193,0,0,0,0,0,0,0,0,0,0,0,0,0,0,0,0,0,0,0,0,0,0,0,0,1.5918,1.585,1.585,1.5771,1.5771,1.5771,1.5703,1.5703,1.373,1.3613,1.3506,1.3457,1.3457,1.3457,1.3457,1.3398,1.335,1.335,1.3291,1.3301,1.3301,1.3301,1.3242,1.3242,1.3242,1.3242,1.3193,1.3145,1.3145,1.3096,1.3096,1.3096,1.3037,1.3037,1.2988,1.3037,1.2988,1.2988,1.2939,1.2939,1.2939,1.2891,1.2891,1.2891,1.2891,1.2891,1.2891,1.2842,1.2793,1.2793,1.2744,1.2695,1.2695,1.2695,1.2695,1.2695,1.2656,1.2607,1.2607,1.2607,1.2559,1.2559,1.2559,1.2559,1.251,1.251,1.2471,1.2471,1.2471,1.2471,1.2422,1.2422,1.2422,1.2422,1.2373,1.2334,1.2334,0,0,0,0,0,0,0,0,0,0,0,0,0,0,0,0,0,0,0,0,0,0,0,0,0,0,0,0,0,0,0,0,0,0,0
1.3701,1.376,1.376,1.376,1.376,1.3809,1.3809,1.3809,1.3809,1.3809,0,0,0,0,0,0,0,0.9292,0.9292,0.9292,0.93213,0.9292,0.93213,0.93213,0.9292,0.9292,0.92676,0.92676,0.92676,0.92676,0.9292,0,0,0,1.1172,1.1172,1.1201,1.1201,1.124,1.124,1.124,1.124,1.124,1.124,1.124,1.124,1.124,1.124,1.124,1.1279,1.1279,1.1279,1.1279,1.1279,1.1279,1.1318,1.1318,1.1318,1.1318,1.1318,1.1318,1.1318,1.1318,1.1357,1.1357,1.1357,1.1357,1.1318,1.1357,1.1357,1.1357,1.1357,1.1357,1.1318,1.1357,1.1357,1.1357,1.1357,1.1357,1.1357,1.1357,1.1396,1.1357,1.1357,1.1357,1.1357,1.1357,1.1357,1.1357,1.1396,1.1396,1.1357,1.1357,1.1357,1.1357,0,0,0,1.498,1.5049,1.5049,1.5117,1.5117,1.5186,1.5186,1.5186,1.5186,1.5186,1.5186,1.5186,1.5186,1.5186,1.5254,1.5254,1.5254,1.5322,1.5322,1.5322,1.5322,1.5322,1.5322,1.5322,1.5322,1.5322,1.5322,1.5322,1.5322,1.5322,1.5322,1.5322,1.5322,1.5322,1.5322,1.5322,1.54,1.54,1.54,1.54,1.5469,1.5469,1.5537,1.5537,1.5537,1.5537,1.5537,1.5537,1.5537,1.5537,1.5537,1.5537,1.5615,1.5615,1.5615,1.5615,1.5615,1.5615,1.5615,1.5615,1.1211,1.1211,1.5537,1.54,1.3174,1.3174,1.3174,1.3232,1.3174,1.3174,1.3232,1.3232,1.3125,1.3125,1.3076,1.3076,1.3076,1.3027,1.3027,1.3027,1.2979,1.2979,1.2979,1.2979,1.2979,1.2979,1.2979,1.2979,1.2979,1.2979,1.3027,1.3027,1.3027,1.3027,1.3027,1.3027,1.3027,1.3076,1.3027,1.3076,1.3076,1.3027,1.3027,1.3027,1.3027,1.3027,1.3076,1.3027,1.3076,1.3076,1.3076,1.3076,1.3027,1.3027,1.3027,1.3027,1.3027,1.2979,1.2979,1.3027,1.3027,1.3027,1.3027,1.3027,1.3076,1.3135,1.3135,1.3135,1.3135,1.3135,1.3076,1.3076,1.3076,1.3076,1.3076,1.3076,1.3076,1.3076,1.3135,1.3076,1.3086,1.3086,1.3086,1.3086,1.3086,1.3086,1.3086,1.3086,1.3135,1.3086,1.3086,1.3086,1.3086,1.3086,1.3086,1.3086,1.3086,1.3086,1.3135,1.3135,1.3086,1.3135,1.3135,1.3135,1.3135,1.3135,1.3135,1.3135,1.3135,1.3135,1.3184,1.3135,1.3135,1.3135,1.3135,1.3135,1.3135,1.3086,1.3086,1.3135,1.3135,1.3086,1.3086,1.3135,1.3135,1.3135,1.3135,1.3184,1.3184,1.3135,1.3135,1.3135,1.3135,1.3135,1.3135,1.3135,1.3135,1.3135,1.3086,1.3135,1.3135,1.3135,1.3135,1.3135,1.3135,1.3184,1.3184,1.3135,1.3135,1.3135,1.3135,1.3135,1.3135,1.3135,1.3135,1.3135,1.3135,1.3135,1.3135,1.3135,1.3135,1.3135,1.3135,1.3135,1.3135,1.3135,1.3135,1.3135,1.3135,1.3135,1.3135,1.3135,1.3135,1.3135,1.3135,1.3135,1.3135,1.3135,1.3135,1.3086,1.3135,1.3086,1.3086,1.3086,1.3086,1.3135,1.3086,1.3086,1.3135,1.3242,1.3242,0,0,0,0,0,0,0,0,0,0,0,0,0,0,0,0,0,0,0,0,0,0,0,0,1.5918,1.585,1.585,1.5771,1.5771,1.5703,1.5703,1.373,1.3672,1.3613,1.3564,1.3506,1.3506,1.3457,1.3457,1.3398,1.3398,1.335,1.3301,1.3301,1.3301,1.3301,1.3242,1.3242,1.3242,1.3242,1.3193,1.3145,1.3145,1.3145,1.3145,1.3096,1.3037,1.3037,1.2988,1.3037,1.3037,1.2988,1.2988,1.2988,1.2939,1.2939,1.2891,1.2891,1.2891,1.2891,1.2891,1.2842,1.2793,1.2793,1.2744,1.2705,1.2705,1.2705,1.2705,1.2705,1.2656,1.2656,1.2656,1.2607,1.2607,1.2607,1.2559,1.2559,1.251,1.251,1.251,1.2471,1.2471,1.2471,1.2422,1.2422,1.2422,1.2373,1.2373,1.2334,1.2285,1.2246,0,0,0,0,0,0,0,0,0,0,0,0,0,0,0,0,0,0,0,0,0,0,0,0,0,0,0,0,0,0,0,0,0,0
1.376,1.376,1.376,1.376,1.3818,1.3818,1.3818,1.3818,0,0,0,0,0,0,0,0,0,0.9292,0.9292,0.92676,0.9292,0.9292,0.9292,0.9292,0.9292,0.92676,0.92676,0.92676,0.92676,0.92676,0.92676,0.92676,0.92969,0,0,0.94238,1.1201,1.1201,0,1.124,1.124,1.124,1.124,1.1279,1.124,1.124,1.124,1.1279,1.1279,1.1279,1.1279,1.1279,1.1279,1.1279,1.1318,1.1279,1.1318,1.1318,1.1318,1.1318,1.1318,1.1318,1.1318,1.1357,1.1357,1.1357,1.1357,1.1357,1.1357,1.1357,1.1357,1.1357,1.1357,1.1357,1.1357,1.1357,1.1357,1.1357,1.1357,1.1357,1.1357,1.1396,1.1357,1.1396,1.1396,1.1396,1.1396,1.1396,1.1396,1.1396,1.1396,1.1396,1.1396,1.1357,1.1357,0,0,0,1.498,1.498,1.5049,1.5117,1.5117,1.5117,1.5117,1.5117,1.5117,1.5117,1.5186,1.5117,1.5186,1.5186,1.5186,1.5186,1.5186,1.5254,1.5186,1.5186,1.5186,1.5186,1.5186,1.5254,1.5254,1.5254,1.5254,1.5254,1.5322,1.5322,1.5254,1.5322,1.5322,1.5332,1.5332,1.5332,1.5332,1.5332,1.54,1.5332,1.54,1.54,1.54,1.54,1.54,1.54,1.54,1.54,1.5469,1.5469,1.5469,1.5469,1.5537,1.5537,1.5537,1.5537,1.5537,1.1211,1.1172,1.1172,1.1172,1.1211,1.125,1.125,1.3232,1.3281,1.3281,1.3281,1.3281,1.3281,1.3232,1.3232,1.3174,1.3125,1.3076,1.3076,1.3027,1.3027,1.2979,1.2979,1.2979,1.2979,1.2979,1.2979,1.3027,1.2979,1.2979,1.2979,1.2979,1.3027,1.3027,1.3027,1.3027,1.3027,1.3027,1.3076,1.3027,1.3076,1.3027,1.3076,1.3076,1.3027,1.3027,1.3027,1.3027,1.3027,1.3027,1.3027,1.3027,1.3076,1.3076,1.3027,1.3027,1.3027,1.3027,1.2979,1.2979,1.2979,1.2979,1.3027,1.3027,1.3027,1.3027,1.3027,1.3076,1.3135,1.3135,1.3135,1.3135,1.3135,1.3076,1.3076,1.3076,1.3086,1.3086,1.3086,1.3086,1.3086,1.3135,1.3135,1.3086,1.3086,1.3086,1.3135,1.3086,1.3086,1.3086,1.3086,1.3086,1.3135,1.3086,1.3086,1.3086,1.3086,1.3086,1.3086,1.3086,1.3086,1.3135,1.3135,1.3135,1.3135,1.3135,1.3135,1.3135,1.3135,1.3135,1.3135,1.3135,1.3135,1.3135,1.3135,1.3135,1.3135,1.3135,1.3135,1.3135,1.3086,1.3086,1.3135,1.3135,1.3086,1.3135,1.3135,1.3135,1.3135,1.3135,1.3135,1.3184,1.3184,1.3135,1.3135,1.3135,1.3135,1.3135,1.3135,1.3135,1.3135,1.3135,1.3135,1.3135,1.3135,1.3135,1.3135,1.3135,1.3184,1.3135,1.3135,1.3135,1.3135,1.3135,1.3135,1.3135,1.3135,1.3135,1.3135,1.3135,1.3135,1.3135,1.3135,1.3135,1.3135,1.3135,1.3135,1.3135,1.3135,1.3135,1.3135,1.3135,1.3135,1.3135,1.3135,1.3193,1.3135,1.3135,1.3135,1.3135,1.3135,1.3135,1.3135,1.3135,1.3086,1.3135,1.3135,1.3135,1.3135,1.3086,1.3086,1.3135,1.3193,1.3242,0,0,0,0,0,0,0,0,0,0,0,0,0,0,0,0,0,0,0,0,0,0,0,0,1.5928,1.5771,1.5771,1.5771,1.5771,1.5703,1.5703,1.373,1.3672,1.3613,1.3613,1.3506,1.3457,1.3457,1.3398,1.3398,1.3398,1.335,1.335,1.3301,1.3301,1.3301,1.3301,1.3242,1.3242,1.3242,1.3193,1.3145,1.3145,1.3145,1.3096,1.3096,1.3037,1.3037,1.2988,1.3047,1.2988,1.2988,1.2988,1.2939,1.2939,1.2939,1.2891,1.2891,1.2891,1.2891,1.2891,1.2842,1.2793,1.2744,1.2744,1.2705,1.2705,1.2705,1.2705,1.2705,1.2705,1.2656,1.2656,1.2607,1.2607,1.2607,1.2559,1.2607,1.2559,1.2559,1.251,1.251,1.2471,1.2471,1.2471,1.2422,1.2422,1.2373,1.2373,1.2334,1.2197,1.2158,0,0,0,0,0,0,0,0,0,0,0,0,0,0,0,0,0,0,0,0,0,0,0,0,0,0,0,0,0,0,0,0,0,0
1.376,1.376,1.376,1.3818,1.3818,1.3867,1.3818,1.3818,0,0,0,0,0,0,0,0,0,0.9292,0.9292,0.92676,0.92969,0.92969,0.92969,0.92969,0.92969,0.92676,0.92676,0.92676,0.92969,0.92676,0.92676,0.92676,0.92969,0.93701,0.93701,0.93994,0.93994,0,0,0.94531,1.124,1.124,0,1.1279,1.124,1.124,1.124,1.1279,1.1279,1.1279,1.1279,1.1279,1.1318,1.1318,1.1318,1.1318,1.1318,1.1318,1.1357,1.1318,1.1318,1.1318,1.1318,1.1357,1.1357,1.1357,1.1357,1.1357,1.1357,1.1357,1.1357,1.1357,1.1357,1.1357,1.1357,1.1357,1.1357,1.1357,1.1357,1.1357,1.1396,1.1396,1.1396,1.1396,1.1396,1.1396,1.1396,1.1396,1.1396,1.1396,1.1396,1.1396,1.1396,1.1357,1.1357,1.1396,0,0,0,1.4922,1.498,1.5049,1.5049,1.5049,1.5117,1.5117,1.5117,1.5117,1.5117,1.5117,1.5117,1.5117,1.5117,1.5117,1.5117,1.5117,1.5117,1.5117,1.5117,1.5117,1.5117,1.5186,1.5186,1.5186,1.5186,1.5186,1.5254,1.5254,1.5254,1.5254,1.5254,1.5254,1.5186,1.5186,1.5264,1.5264,1.5264,1.5264,1.5264,1.5332,1.5332,1.5332,1.5332,1.5332,1.54,1.54,1.54,1.54,1.54,1.54,1.5469,1.5537,1.5537,1.5537,1.1172,1.1172,1.1172,1.1172,1.1172,1.1211,1.125,1.125,1.125,1.125,1.125,1.125,1.1289,0,1.3281,1.3281,1.3232,1.3076,1.3027,1.3027,1.3027,1.3027,1.1328,1.3027,1.1328,1.1328,1.1328,1.3027,1.3027,1.2979,1.2979,1.2979,1.2979,1.2979,1.3027,1.3027,1.3027,1.3027,1.3027,1.3076,1.3076,1.3076,1.3027,1.3076,1.3076,1.3076,1.3027,1.3027,1.3027,1.3027,1.3076,1.3027,1.3027,1.3076,1.3076,1.3027,1.3027,1.3027,1.2979,1.2979,1.2979,1.2979,1.3027,1.3027,1.3076,1.3027,1.3076,1.3076,1.3135,1.3135,1.3135,1.3086,1.3135,1.3086,1.3086,1.3086,1.3086,1.3086,1.3086,1.3086,1.3086,1.3135,1.3135,1.3135,1.3086,1.3086,1.3086,1.3135,1.3086,1.3135,1.3135,1.3135,1.3135,1.3135,1.3135,1.3086,1.3086,1.3086,1.3086,1.3086,1.3135,1.3086,1.3135,1.3135,1.3135,1.3135,1.3135,1.3135,1.3135,1.3135,1.3135,1.3135,1.3135,1.3135,1.3184,1.3135,1.3135,1.3135,1.3135,1.3135,1.3135,1.3135,1.3086,1.3135,1.3135,1.3135,1.3135,1.3135,1.3135,1.3135,1.3135,1.3184,1.3184,1.3184,1.3184,1.3135,1.3135,1.3135,1.3135,1.3135,1.3135,1.3135,1.3135,1.3135,1.3135,1.3135,1.3135,1.3135,1.3135,1.3135,1.3135,1.3135,1.3193,1.3193,1.3135,1.3135,1.3135,1.3135,1.3135,1.3135,1.3135,1.3135,1.3135,1.3135,1.3135,1.3135,1.3135,1.3135,1.3135,1.3135,1.3135,1.3135,1.3135,1.3135,1.3135,1.3135,1.3193,1.3135,1.3135,1.3135,1.3135,1.3135,1.3135,1.3135,1.3135,1.3135,1.3135,1.3135,1.3135,1.3135,1.3135,1.3086,1.3145,1.3193,1.3193,0,0,0,0,0,0,0,0,0,0,0,0,0,0,0,0,0,0,0,0,0,0,0,0,1.5928,1.5771,1.5771,1.5781,1.5781,1.3789,1.373,1.373,1.3672,1.3672,1.3623,1.3506,1.3457,1.3457,1.3398,1.3398,1.3398,1.3398,1.335,1.335,1.335,1.3301,1.3301,1.3242,1.3242,1.3242,1.3193,1.3145,1.3145,1.3096,1.3096,1.3096,1.3047,1.3047,1.3047,1.3047,1.3047,1.3047,1.2988,1.2988,1.2939,1.2939,1.2891,1.2891,1.2891,1.2891,1.2891,1.2793,1.2744,1.2744,1.2705,1.2705,1.2705,1.2705,1.2705,1.2705,1.2705,1.2656,1.2656,1.2656,1.2656,1.2607,1.2607,1.2607,1.2607,1.2559,1.251,1.252,1.2471,1.2471,1.2471,1.2422,1.2422,1.2422,1.2373,1.2334,1.2285,1.2197,0,0,0,0,0,0,0,0,0,0,0,0,0,0,0,0,0,0,0,0,0,0,0,0,0,0,0,0,0,0,0,0,0,0
1.376,1.376,1.376,1.3818,1.3818,1.3818,1.3818,0,0,0,0,0,0,0,0.92676,0.92676,0.92676,0.92969,0.92676,0.92676,0.92676,0.92676,0.92676,0.92676,0.92676,0.92676,0.92676,0.92676,0.92676,0.92676,0.92676,0.92676,0.92969,0.93457,0.93457,0.9375,0.93994,0.93994,0.94775,0.94531,0,0,0,1.1279,1.124,1.1279,1.124,1.1279,1.124,1.1279,1.124,1.1279,1.1279,1.1318,1.1357,1.1318,1.1318,1.1357,1.1357,1.1318,1.1357,1.1318,1.1318,1.1357,1.1357,1.1357,1.1357,1.1357,1.1357,1.1357,1.1357,1.1357,1.1357,1.1357,1.1357,1.1357,1.1396,1.1396,1.1396,1.1396,1.1396,1.1396,1.1396,1.1396,1.1396,1.1396,1.1396,1.1396,1.1396,1.1396,1.1396,1.1396,1.1396,1.1357,1.1357,0,0,0,1.4727,1.4854,1.4922,1.499,1.499,1.499,1.5049,1.5049,1.5049,1.5049,1.5049,1.5049,1.5049,1.5049,1.5059,1.5059,1.5059,1.5059,1.5117,1.5117,1.5117,1.5117,1.5117,1.5117,1.5117,1.5117,1.5127,1.5127,1.5186,1.5186,1.5186,1.5195,1.5195,1.5195,1.5127,1.5195,1.5195,1.5195,1.5195,1.5195,1.5195,1.5195,1.5264,1.5264,1.5332,1.5332,1.5332,1.5332,1.54,1.54,1.5332,1.5537,1.5469,1.5469,1.5537,1.1172,1.1172,1.1172,1.1143,1.1143,1.1172,1.1172,1.1211,1.1211,1.1211,1.125,1.1211,1.1211,1.1211,0,0,1.3281,1.125,1.1211,1.1211,1.1211,1.1289,1.1289,1.1289,1.1289,1.1289,1.1328,1.1289,1.1289,1.1289,1.1328,1.1367,1.1406,1.1406,1.1406,1.1484,1.2979,1.3027,1.3027,1.3076,1.3076,1.3076,1.3027,1.3027,1.3027,1.3076,1.3076,1.3027,1.3027,1.2979,1.3027,1.3027,1.3027,1.3076,1.3076,1.3076,1.3027,1.3027,1.3027,1.3027,1.3027,1.3027,1.3027,1.3027,1.3027,1.3027,1.3027,1.3086,1.3086,1.3135,1.3135,1.3135,1.3086,1.3135,1.3086,1.3086,1.3086,1.3086,1.3086,1.3086,1.3086,1.3086,1.3135,1.3135,1.3135,1.3135,1.3086,1.3135,1.3135,1.3135,1.3135,1.3135,1.3135,1.3135,1.3135,1.3135,1.3086,1.3086,1.3086,1.3086,1.3135,1.3135,1.3086,1.3135,1.3135,1.3135,1.3135,1.3135,1.3135,1.3135,1.3135,1.3135,1.3135,1.3135,1.3135,1.3135,1.3135,1.3135,1.3135,1.3135,1.3135,1.3135,1.3135,1.3086,1.3135,1.3135,1.3135,1.3086,1.3135,1.3135,1.3135,1.3135,1.3184,1.3184,1.3184,1.3184,1.3135,1.3135,1.3135,1.3135,1.3135,1.3135,1.3135,1.3135,1.3135,1.3135,1.3135,1.3135,1.3135,1.3135,1.3135,1.3135,1.3135,1.3135,1.3193,1.3193,1.3193,1.3135,1.3135,1.3135,1.3135,1.3135,1.3135,1.3135,1.3135,1.3135,1.3135,1.3135,1.3135,1.3135,1.3135,1.3135,1.3135,1.3135,1.3135,1.3135,1.3135,1.3145,1.3145,1.3145,1.3135,1.3135,1.3135,1.3135,1.3135,1.3145,1.3145,1.3145,1.3145,1.3145,1.3145,1.3145,1.3086,1.3145,1.3193,1.3193,0,0,0,0,0,0,0,0,0,0,0,0,0,0,0,0,0,0,0,0,0,0,0,1.5928,1.585,1.5781,1.5781,1.5703,1.5781,1.373,1.3672,1.3672,1.3672,1.3672,1.3623,1.3506,1.3457,1.3457,1.3408,1.3408,1.3408,1.3408,1.335,1.335,1.335,1.3301,1.3301,1.3242,1.3242,1.3242,1.3193,1.3145,1.3145,1.3145,1.3145,1.3096,1.3047,1.3047,1.3047,1.3096,1.3047,1.3047,1.2998,1.2998,1.2998,1.2939,1.2891,1.2891,1.2891,1.2891,1.2891,1.2793,1.2754,1.2754,1.2705,1.2705,1.2705,1.2705,1.2705,1.2705,1.2705,1.2656,1.2656,1.2656,1.2656,1.2656,1.2607,1.2607,1.2607,1.2559,1.252,1.252,1.2471,1.2471,1.2471,1.2471,1.2422,1.2422,1.2422,1.2383,1.2285,1.2246,0,0,0,0,0,0,0,0,0,0,0,0,0,0,0,0,0,0,0,0,0,0,0,0,0,0,0,0,0,0,0,0,0,0
1.376,1.376,1.376,1.3818,1.376,1.3867,0,0,0,0,0,0,0,0.93213,0.92676,0.92676,0.92676,0.92676,0.92432,0.92432,0.92432,0.92432,0.92432,0.92432,0.92432,0.92432,0.92432,0.92432,0.92432,0.92432,0.92432,0.92725,0.92725,0.93213,0.93213,0.9375,0.93457,0.93457,0.9375,0.93994,0.9375,0,0,0,1.124,1.1279,1.124,1.1279,1.1279,1.1279,1.1279,1.1279,1.1318,1.1318,1.1318,1.1318,1.1318,1.1357,1.1357,1.1357,1.1357,1.1318,1.1357,1.1357,1.1357,1.1357,1.1357,1.1357,1.1357,1.1357,1.1357,1.1357,1.1357,1.1357,1.1357,1.1396,1.1396,1.1396,1.1396,1.1396,1.1396,1.1396,1.1396,1.1396,1.1396,1.1436,1.1396,1.1436,1.1396,1.1396,1.1396,1.1396,1.1396,1.1357,1.1357,0,0,0,1.4785,1.4785,1.4854,1.4922,1.4922,1.4922,1.499,1.499,1.499,1.499,1.499,1.499,1.499,1.499,1.499,1.499,1.499,1.5059,1.5059,1.5059,1.5059,1.5059,1.5059,1.5059,1.5059,1.5059,1.5059,1.5059,1.5127,1.5127,1.5127,1.5127,1.5127,1.5127,1.5127,1.5127,1.5127,1.5127,1.5127,1.5127,1.5127,1.5127,1.5195,1.5195,1.5195,1.5264,1.5264,1.5264,1.5332,1.5332,1.54,1.54,1.54,1.54,1.1172,1.1172,1.1143,1.1143,1.1143,1.1143,1.1143,1.1172,1.1211,1.1211,1.1211,1.1211,1.1211,1.1172,1.1182,1.1182,1.1143,1.1182,1.1182,1.1182,1.1182,1.1211,1.125,1.125,1.125,1.1289,1.1289,1.1289,1.1289,1.1289,1.1289,1.1328,1.1328,1.1367,1.1367,1.1367,1.1367,1.1367,1.1406,1.3027,1.3027,1.3027,1.3027,1.3027,1.3027,1.3027,1.3027,1.3027,1.3027,1.3027,1.2979,1.3027,1.3027,1.3027,1.3027,1.3076,1.3027,1.3027,1.3027,1.2979,1.2979,1.2979,1.2979,1.2979,1.3027,1.3027,1.3027,1.3027,1.3086,1.3086,1.3135,1.3135,1.3135,1.3086,1.3135,1.3086,1.3086,1.3086,1.3086,1.3086,1.3086,1.3135,1.3086,1.3135,1.3135,1.3135,1.3135,1.3086,1.3135,1.3135,1.3086,1.3135,1.3086,1.3135,1.3135,1.3135,1.3135,1.3086,1.3086,1.3086,1.3135,1.3135,1.3135,1.3135,1.3135,1.3135,1.3135,1.3135,1.3135,1.3135,1.3135,1.3135,1.3135,1.3135,1.3135,1.3135,1.3135,1.3135,1.3135,1.3135,1.3135,1.3135,1.3135,1.3135,1.3135,1.3135,1.3135,1.3086,1.3086,1.3086,1.3135,1.3135,1.3135,1.3135,1.3135,1.3135,1.3135,1.3135,1.3135,1.3135,1.3135,1.3135,1.3135,1.3135,1.3135,1.3135,1.3135,1.3135,1.3135,1.3135,1.3135,1.3135,1.3135,1.3135,1.3135,1.3193,1.3193,1.3135,1.3135,1.3135,1.3135,1.3135,1.3135,1.3135,1.3135,1.3135,1.3135,1.3135,1.3135,1.3135,1.3135,1.3145,1.3145,1.3086,1.3145,1.3145,1.3145,1.3145,1.3145,1.3145,1.3145,1.3145,1.3145,1.3145,1.3145,1.3145,1.3145,1.3145,1.3145,1.3145,1.3145,1.3145,1.3145,1.3086,1.3193,1.3193,1.3193,0,0,0,0,0,0,0,0,0,0,0,0,0,0,0,0,0,0,0,0,0,0,0,1.5928,1.585,1.5781,1.5703,1.5703,1.5703,1.373,1.3672,1.373,1.3672,1.3672,1.3623,1.3516,1.3516,1.3457,1.3457,1.3408,1.3408,1.335,1.335,1.335,1.3301,1.3301,1.3252,1.3252,1.3252,1.3193,1.3193,1.3145,1.3145,1.3096,1.3096,1.3096,1.3047,1.3047,1.3047,1.3096,1.3047,1.3047,1.2998,1.2998,1.2939,1.2939,1.2891,1.2891,1.2891,1.2842,1.2842,1.2803,1.2803,1.2803,1.2754,1.2754,1.2754,1.2705,1.2705,1.2705,1.2705,1.2656,1.2656,1.2656,1.2656,1.2656,1.2607,1.2607,1.2607,1.2559,1.252,1.2471,1.2471,1.2471,1.2471,1.2471,1.2471,1.2422,1.2422,1.2383,1.2334,1.2246,0,0,0,0,0,0,0,0,0,0,0,0,0,0,0,0,0,0,0,0,0,0,0,0,0,0,0,0,0,0,0,0,0,0
1.376,1.376,1.376,1.376,1.376,1.3877,0,0,0,0,0.92969,0.92969,0.92969,0.92969,0.92725,0.92725,0.92725,0.92725,0.92432,0.92432,0.92188,0.92188,0.92188,0.92188,0.92188,0.92432,0.92432,0.92432,0.92432,0.92432,0.92432,0.92432,0.92432,0.92969,0.92969,0.93457,0.93213,0.93457,0.93457,0.9375,0.9375,0,0,0,1.124,1.1279,1.1279,1.1279,1.1279,1.1279,1.1279,1.1279,1.1318,1.1318,1.1318,1.1318,1.1357,1.1357,1.1357,1.1357,1.1357,1.1357,1.1357,1.1396,1.1357,1.1357,1.1357,1.1357,1.1357,1.1396,1.1357,1.1357,1.1396,1.1396,1.1396,1.1396,1.1396,1.1396,1.1396,1.1396,1.1396,1.1436,1.1436,1.1396,1.1436,1.1436,1.1436,1.1436,1.1436,1.1436,1.1396,1.1396,1.1396,1.1357,1.1475,0,0,0,1.4727,1.4795,1.4795,1.4854,1.4854,1.4854,1.4922,1.4922,1.4922,1.4922,1.4922,1.4922,1.4922,1.4922,1.4922,1.4922,1.4922,1.499,1.499,1.499,1.499,1.499,1.499,1.499,1.499,1.499,1.499,1.499,1.5059,1.5059,1.5059,1.5059,1.5059,1.5127,1.5059,1.5059,1.5059,1.5127,1.5127,1.5127,1.5059,1.5127,1.5127,1.5127,1.5127,1.5127,1.5195,1.5127,1.5264,0,0,0,0,1.1143,1.1143,1.1143,1.1143,1.1143,1.1143,1.1104,1.1143,1.1182,1.1182,1.1182,1.1182,1.1182,1.1182,1.1182,1.1182,1.1143,1.1143,1.1182,1.1182,1.1143,1.1182,1.1182,1.1211,1.125,1.125,1.125,1.125,1.1289,1.1289,1.1289,1.1289,1.1289,1.1328,1.1328,1.1328,1.1328,1.1328,1.1328,1.1328,0,1.3027,1.3027,1.3027,1.3027,1.3027,1.3027,1.3027,1.3027,1.3027,1.2979,1.2979,1.3027,1.3027,1.3027,1.3027,1.3086,1.3027,1.3027,1.3027,1.3027,1.3027,1.3027,1.3027,1.3027,1.3027,1.3027,1.3027,1.3027,1.3027,1.3086,1.3135,1.3086,1.3135,1.3086,1.3086,1.3086,1.3086,1.3086,1.3086,1.3086,1.3086,1.3086,1.3086,1.3135,1.3135,1.3135,1.3135,1.3086,1.3086,1.3135,1.3086,1.3086,1.3086,1.3135,1.3135,1.3135,1.3135,1.3135,1.3135,1.3135,1.3135,1.3135,1.3135,1.3135,1.3135,1.3184,1.3135,1.3135,1.3135,1.3135,1.3135,1.3135,1.3135,1.3135,1.3135,1.3135,1.3135,1.3135,1.3135,1.3135,1.3135,1.3135,1.3135,1.3135,1.3135,1.3135,1.3135,1.3135,1.3135,1.3086,1.3086,1.3086,1.3086,1.3135,1.3135,1.3135,1.3193,1.3135,1.3135,1.3135,1.3135,1.3135,1.3135,1.3135,1.3135,1.3135,1.3135,1.3135,1.3135,1.3135,1.3135,1.3135,1.3193,1.3135,1.3193,1.3193,1.3193,1.3193,1.3135,1.3135,1.3135,1.3135,1.3135,1.3135,1.3145,1.3145,1.3145,1.3145,1.3145,1.3145,1.3145,1.3086,1.3145,1.3145,1.3145,1.3145,1.3145,1.3193,1.3145,1.3145,1.3145,1.3145,1.3145,1.3145,1.3086,1.3145,1.3145,1.3145,1.3145,1.3145,1.3145,1.3145,1.3145,1.3086,1.3145,1.3145,1.3193,0,0,0,0,0,0,0,0,0,0,0,0,0,0,0,0,0,0,0,0,0,0,1.6006,1.5928,1.5928,1.585,1.5781,1.5703,1.5703,1.3789,1.373,1.3672,1.3672,1.3672,1.3623,1.3564,1.3457,1.3457,1.3457,1.3408,1.3408,1.335,1.335,1.335,1.3301,1.3301,1.3252,1.3252,1.3252,1.3193,1.3193,1.3145,1.3145,1.3145,1.3096,1.3096,1.3096,1.3047,1.3047,1.3096,1.3047,1.3047,1.2998,1.2998,1.2949,1.2949,1.2949,1.29,1.29,1.29,1.2852,1.2803,1.2803,1.2803,1.2754,1.2754,1.2754,1.2705,1.2705,1.2705,1.2705,1.2705,1.2656,1.2656,1.2656,1.2656,1.2656,1.2607,1.2607,1.2559,1.252,1.252,1.252,1.2471,1.2471,1.2471,1.2471,1.2422,1.2422,1.2422,1.2334,1.2334,0,0,0,0,0,0,0,0,0,0,0,0,0,0,0,0,0,0,0,0,0,0,0,0,0,0,0,0,0,0,0,0,0,0
1.376,1.3701,1.376,1.376,0,0,0,0,0,0,0,0.92725,0.92969,0.92969,0.92725,0.92725,0.92725,0.92432,0.92188,0.92188,0.92188,0.92188,0.92188,0.92188,0.92188,0.91943,0.92188,0.92188,0.92188,0.92188,0.92188,0.92188,0.92188,0.9248,0.92969,0.92969,0.93213,0.93213,0.93506,0.9375,0.9375,0.9375,0.93506,0,0,1.1279,1.124,1.1279,1.1279,1.1279,1.1279,1.1279,1.1318,1.1318,1.1357,1.1357,1.1357,1.1357,1.1357,1.1357,1.1357,1.1357,1.1357,1.1396,1.1357,1.1357,1.1357,1.1357,1.1357,1.1396,1.1357,1.1357,1.1396,1.1396,1.1396,1.1396,1.1396,1.1396,1.1396,1.1396,1.1396,1.1436,1.1436,1.1436,1.1436,1.1436,1.1436,1.1436,1.1436,1.1396,1.1396,1.1396,1.1396,1.1357,1.1396,0,0,0,1.4727,1.4727,1.4727,1.4854,1.4854,1.4854,1.4854,1.4854,1.4854,1.4854,1.4854,1.4854,1.4854,1.4854,1.4854,1.4854,1.4854,1.4922,1.4922,1.4922,1.4922,1.4922,1.4922,1.4922,1.499,1.4922,1.4922,1.499,1.499,1.499,1.499,1.499,1.499,1.5059,1.5059,1.5059,1.5059,1.5059,1.5059,1.5059,1.5059,1.5059,1.5127,1.5127,1.5059,1.5059,1.5059,1.5059,1.5127,0,0,0,0,1.1182,1.1143,1.1143,1.1143,1.1104,1.1104,1.1104,1.1104,1.1143,1.1143,1.1143,1.1143,1.1143,1.1143,1.1143,1.1143,1.1143,1.1143,1.1143,1.1143,1.1143,1.1143,1.1182,1.1182,1.1211,1.1211,1.125,1.125,1.1289,1.1289,1.1289,1.1289,1.1289,1.1289,1.1328,1.1289,1.1328,1.1289,1.125,1.125,0,0,1.3027,1.3027,1.3027,1.3027,1.3027,1.3027,1.3027,1.3027,1.3027,1.3027,1.3027,1.3027,1.3027,1.3027,1.3027,1.3027,1.3027,1.3027,1.3027,1.2979,1.3027,1.3027,1.3027,1.3027,1.3037,1.3037,1.3037,1.3037,1.3086,1.3086,1.3135,1.3086,1.3086,1.3086,1.3086,1.3086,1.3086,1.3086,1.3086,1.3086,1.3086,1.3086,1.3086,1.3135,1.3135,1.3135,1.3135,1.3086,1.3135,1.3086,1.3086,1.3086,1.3135,1.3135,1.3135,1.3135,1.3135,1.3135,1.3135,1.3135,1.3135,1.3135,1.3135,1.3135,1.3184,1.3135,1.3135,1.3135,1.3135,1.3135,1.3135,1.3135,1.3135,1.3135,1.3135,1.3135,1.3135,1.3135,1.3086,1.3135,1.3135,1.3135,1.3135,1.3135,1.3135,1.3135,1.3135,1.3086,1.3086,1.3086,1.3086,1.3086,1.3135,1.3135,1.3135,1.3193,1.3135,1.3135,1.3135,1.3135,1.3135,1.3135,1.3135,1.3135,1.3135,1.3135,1.3135,1.3135,1.3135,1.3135,1.3135,1.3193,1.3135,1.3193,1.3193,1.3145,1.3145,1.3145,1.3145,1.3145,1.3145,1.3145,1.3145,1.3145,1.3145,1.3145,1.3145,1.3145,1.3145,1.3145,1.3145,1.3145,1.3145,1.3145,1.3145,1.3145,1.3193,1.3193,1.3193,1.3145,1.3145,1.3145,1.3145,1.3096,1.3145,1.3145,1.3145,1.3145,1.3145,1.3145,1.3145,1.3145,1.3096,1.3145,1.3145,1.3193,1.3096,0,0,0,0,0,0,0,0,0,0,0,0,0,0,0,0,0,0,0,0,0,1.6006,1.5928,1.585,1.585,1.5781,1.5781,1.5703,1.373,1.3672,1.3672,1.3672,1.3672,1.3623,1.3516,1.3457,1.3408,1.3408,1.3457,1.3408,1.3408,1.3408,1.335,1.3301,1.3301,1.3252,1.3252,1.3193,1.3193,1.3193,1.3145,1.3145,1.3096,1.3096,1.3096,1.3047,1.3047,1.3047,1.3096,1.3047,1.3047,1.2998,1.2949,1.2949,1.2949,1.29,1.29,1.29,1.29,1.2852,1.2852,1.2803,1.2803,1.2803,1.2803,1.2754,1.2754,1.2705,1.2705,1.2705,1.2705,1.2705,1.2656,1.2656,1.2656,1.2656,1.2607,1.2607,1.2607,1.252,1.252,1.252,1.2471,1.2471,1.2471,1.2422,1.2422,1.2422,1.2383,1.2334,1.2334,0,0,0,0,0,0,0,0,0,0,0,0,0,0,0,0,0,0,0,0,0,0,0,0,0,0,0,0,0,0,0,0,0,0
1.376,1.3701,1.3701,1.376,0,0,0,0,0,0,0.92725,0.92725,0.92725,0.92725,0.92725,0.9248,0.9248,0.92188,0.91943,0.91699,0.91699,0.91699,0.91943,0.91943,0.91943,0.91943,0.91943,0.91943,0.91943,0.91943,0.91943,0.91943,0.91943,0.92236,0.9248,0.92725,0.92725,0.92725,0.92969,0.93213,0.93506,0.93506,0.93506,0,0,1.1318,1.1279,1.1279,1.1279,1.1279,1.1279,1.1318,1.1318,1.1318,1.1318,1.1318,1.1357,1.1357,1.1357,1.1357,1.1357,1.1357,1.1357,1.1396,1.1357,1.1357,1.1357,1.1357,1.1357,1.1396,1.1357,1.1396,1.1396,1.1396,1.1396,1.1396,1.1396,1.1396,1.1396,1.1436,1.1436,1.1436,1.1436,1.1436,1.1436,1.1436,1.1436,1.1436,1.1436,1.1436,1.1396,1.1396,1.1396,1.1396,0,0,0,0,1.4658,1.4668,1.4727,1.4795,1.4795,1.4795,1.4795,1.4795,1.4795,1.4854,1.4854,1.4854,1.4854,1.4854,1.4854,1.4854,1.4854,1.4854,1.4854,1.4854,1.4854,1.4854,1.4922,1.4922,1.4922,1.4922,1.4922,1.4922,1.4922,1.4922,1.4922,1.4922,1.4922,1.499,1.499,1.499,1.499,1.499,1.499,1.499,1.499,1.5059,1.5059,1.5059,1.5059,1.5059,1.5059,1.499,0,0,0,0,0,1.1182,1.1143,1.1143,1.1104,1.1104,1.1064,1.1035,1.1035,1.1104,1.1104,1.1104,1.1104,1.1064,1.1104,1.1104,1.1104,1.1064,1.1064,1.1064,1.1064,1.1104,1.1104,1.1104,1.1143,1.1182,1.1182,1.1221,1.125,1.125,1.125,1.125,1.125,1.125,1.1289,1.1289,1.125,1.125,1.1182,1.1182,1.1182,1.1182,0,0,1.3027,1.3027,1.2979,1.2979,1.3027,1.3027,1.3027,1.3027,1.3027,1.3037,1.3037,1.3037,1.3037,1.3037,1.3037,1.3037,1.3037,1.3037,1.3037,1.3037,1.3037,1.3037,1.3037,1.3037,1.3037,1.3037,1.3037,1.3086,1.3086,1.3086,1.3135,1.3086,1.3086,1.3086,1.3086,1.3086,1.3086,1.3086,1.3086,1.3086,1.3086,1.3135,1.3135,1.3135,1.3086,1.3135,1.3086,1.3086,1.3086,1.3086,1.3086,1.3135,1.3135,1.3135,1.3135,1.3135,1.3135,1.3135,1.3135,1.3135,1.3135,1.3135,1.3135,1.3184,1.3135,1.3135,1.3135,1.3135,1.3135,1.3135,1.3135,1.3135,1.3086,1.3086,1.3086,1.3086,1.3086,1.3086,1.3135,1.3135,1.3135,1.3135,1.3135,1.3135,1.3135,1.3135,1.3135,1.3086,1.3086,1.3086,1.3086,1.3135,1.3135,1.3135,1.3135,1.3135,1.3135,1.3135,1.3135,1.3135,1.3135,1.3135,1.3135,1.3135,1.3135,1.3135,1.3135,1.3135,1.3145,1.3145,1.3193,1.3145,1.3145,1.3193,1.3145,1.3145,1.3145,1.3145,1.3145,1.3145,1.3145,1.3145,1.3145,1.3145,1.3145,1.3145,1.3145,1.3145,1.3145,1.3086,1.3145,1.3145,1.3145,1.3145,1.3145,1.3145,1.3145,1.3145,1.3145,1.3145,1.3145,1.3145,1.3096,1.3096,1.3145,1.3145,1.3145,1.3145,1.3145,1.3145,1.3145,1.3096,1.3145,1.3096,1.3037,1.3037,0,0,0,0,0,0,0,0,0,0,0,0,0,0,0,0,0,0,0,0,0,1.5928,1.5928,1.585,1.585,1.5781,1.5781,1.5703,1.373,1.3672,1.3672,1.3672,1.3623,1.3564,1.3516,1.3457,1.3408,1.3408,1.3457,1.3408,1.3408,1.3408,1.335,1.335,1.3301,1.3252,1.3252,1.3193,1.3193,1.3145,1.3145,1.3145,1.3096,1.3096,1.3096,1.3096,1.3047,1.3047,1.3096,1.3047,1.3047,1.2998,1.2998,1.2949,1.2949,1.2949,1.29,1.29,1.29,1.29,1.2852,1.2803,1.2803,1.2803,1.2754,1.2754,1.2705,1.2705,1.2705,1.2705,1.2656,1.2656,1.2656,1.2656,1.2656,1.2607,1.2607,1.2607,1.2607,1.252,1.252,1.2471,1.2471,1.2471,1.2471,1.2422,1.2422,1.2422,1.2295,1.2295,0,0,0,0,0,0,0,0,0,0,0,0,0,0,0,0,0,0,0,0,0,0,0,0,0,0,0,0,0,0,0,0,0,0,0
1.3701,1.3701,1.3701,0,0,0,0,0,0,0.9248,0.92725,0.9248,0.9248,0.92725,0.9248,0.9248,0.92188,0.91943,0.91699,0.91699,0.91699,0.91455,0.91699,0.91699,0.91699,0.91699,0.91943,0.91943,0.91943,0.91699,0.91943,0.91943,0.91943,0.92236,0.9248,0.9248,0.9248,0.92725,0.92725,0.92969,0.93262,0.93262,0.93262,0.93506,0,1.1318,1.1279,1.1279,1.1279,1.1279,1.1318,1.1318,1.1357,1.1357,1.1357,1.1357,1.1357,1.1357,1.1357,1.1357,1.1396,1.1357,1.1396,1.1357,1.1357,1.1357,1.1357,1.1357,1.1357,1.1396,1.1357,1.1396,1.1396,1.1396,1.1396,1.1396,1.1396,1.1436,1.1436,1.1436,1.1436,1.1436,1.1436,1.1436,1.1436,1.1436,1.1436,1.1436,1.1436,1.1436,1.1396,1.1396,1.1396,1.1357,0,0,0,1.4541,1.4668,1.4668,1.4668,1.4727,1.4727,1.4727,1.4727,1.4795,1.4795,1.4795,1.4795,1.4795,1.4795,1.4795,1.4795,1.4795,1.4795,1.4795,1.4795,1.4795,1.4795,1.4863,1.4863,1.4863,1.4863,1.4863,1.4863,1.4863,1.4863,1.4863,1.4863,1.4863,1.4863,1.4922,1.4922,1.4922,1.4922,1.4922,1.4922,1.499,1.499,1.499,1.499,1.499,1.499,1.499,1.499,1.4922,0,0,0,0,0,1.1143,1.1143,1.1104,1.1104,1.1064,1.1035,1.0996,1.0996,1.1064,1.1064,1.1035,1.1035,1.1035,1.1064,1.1064,1.1064,1.1035,1.1035,1.1064,1.1064,1.1064,1.1064,1.1074,1.1074,1.1074,1.1104,1.1143,1.1143,1.1182,1.1182,1.1221,1.1182,1.1221,1.1221,1.1221,1.1182,1.1182,1.1182,1.1143,1.1143,1.1143,1.1143,0,0,1.3037,1.3037,1.2979,1.3037,1.3037,1.3037,1.3037,1.3037,1.3037,1.3037,1.3037,1.3037,1.3037,1.3037,1.3037,1.3037,1.3086,1.3037,1.3037,1.3037,1.3086,1.3086,1.3037,1.3086,1.3037,1.3086,1.3086,1.3086,1.3086,1.3135,1.3086,1.3086,1.3086,1.3086,1.3086,1.3086,1.3086,1.3086,1.3135,1.3135,1.3135,1.3135,1.3086,1.3086,1.3135,1.3086,1.3086,1.3086,1.3135,1.3135,1.3135,1.3135,1.3135,1.3135,1.3135,1.3135,1.3135,1.3135,1.3135,1.3135,1.3135,1.3135,1.3135,1.3135,1.3135,1.3135,1.3135,1.3135,1.3135,1.3135,1.3135,1.3086,1.3086,1.3086,1.3086,1.3086,1.3086,1.3135,1.3135,1.3135,1.3135,1.3135,1.3135,1.3135,1.3086,1.3086,1.3086,1.3086,1.3086,1.3086,1.3135,1.3145,1.3145,1.3135,1.3135,1.3135,1.3135,1.3135,1.3135,1.3193,1.3145,1.3145,1.3145,1.3145,1.3145,1.3145,1.3145,1.3145,1.3145,1.3145,1.3145,1.3193,1.3193,1.3145,1.3145,1.3145,1.3145,1.3145,1.3145,1.3145,1.3145,1.3145,1.3145,1.3145,1.3145,1.3145,1.3096,1.3145,1.3096,1.3145,1.3145,1.3145,1.3145,1.3145,1.3145,1.3145,1.3145,1.3145,1.3145,1.3145,1.3145,1.3096,1.3145,1.3145,1.3145,1.3145,1.3145,1.3145,1.3145,1.3145,1.3145,1.3145,1.3145,1.3096,0,0,0,0,0,0,0,0,0,0,0,0,0,0,0,0,0,0,0,0,0,0,1.5928,1.5928,1.585,1.585,1.5781,1.5781,1.5781,1.5703,1.3672,1.3672,1.3672,1.3623,1.3564,1.3457,1.3457,1.3408,1.3457,1.3457,1.3408,1.3408,1.3408,1.335,1.335,1.3252,1.3252,1.3252,1.3193,1.3193,1.3145,1.3145,1.3145,1.3096,1.3096,1.3096,1.3096,1.3047,1.3047,1.3096,1.3047,1.3047,1.2998,1.2998,1.2949,1.2949,1.2949,1.2949,1.2949,1.2949,1.29,1.2852,1.2803,1.2803,1.2803,1.2754,1.2754,1.2705,1.2705,1.2705,1.2705,1.2656,1.2656,1.2656,1.2656,1.2656,1.2607,1.2607,1.2607,1.2568,1.252,1.252,1.252,1.2471,1.2471,1.2471,1.2471,1.2422,1.2422,1.2334,1.2422,0,0,0,0,0,0,0,0,0,0,0,0,0,0,0,0,0,0,0,0,0,0,0,0,0,0,0,0,0,0,0,0,0,0,0
1.3701,1.3652,0,0,0,0,0,0,0,0.92725,0.9248,0.9248,0.9248,0.9248,0.9248,0.92236,0.91943,0.91699,0.91699,0.91455,0.91455,0.91455,0.91699,0.91699,0.91699,0.91699,0.91699,0.91699,0.91699,0.91699,0.91699,0.91699,0.91992,0.91992,0.92236,0.9248,0.9248,0.9248,0.9248,0.92725,0.93262,0.93262,0.93262,0.93262,0.93506,0,1.1279,1.1279,1.1279,1.1279,1.1318,1.1318,1.1357,1.1357,1.1357,1.1357,1.1396,1.1396,1.1396,1.1396,1.1396,1.1396,1.1396,1.1357,1.1357,1.1357,1.1396,1.1396,1.1396,1.1396,1.1396,1.1396,1.1396,1.1396,1.1396,1.1396,1.1396,1.1436,1.1436,1.1436,1.1436,1.1475,1.1475,1.1436,1.1436,1.1475,1.1436,1.1436,1.1436,1.1436,1.1436,1.1396,1.1396,1.1396,0,0,0,1.4473,1.4473,1.4473,1.4541,1.46,1.46,1.46,1.46,1.4727,1.4727,1.4727,1.4727,1.4727,1.4727,1.4727,1.4727,1.4727,1.4727,1.4668,1.4668,1.4668,1.4727,1.4795,1.4795,1.4795,1.4795,1.4795,1.4795,1.4795,1.4863,1.4795,1.4863,1.4863,1.4863,1.4863,1.4863,1.4863,1.4863,1.4863,1.4922,1.4922,1.4922,1.4922,1.4932,1.4932,1.4932,1.499,1.499,1.4932,0,0,0,0,0,1.1182,1.1143,1.1104,1.1064,1.1035,1.0996,1.0996,1.0996,1.1035,1.1035,1.0996,1.1035,1.1035,1.1035,1.1035,1.1035,1.0996,1.1035,1.1035,1.1035,1.1035,1.1035,1.1035,1.1035,1.1035,1.1074,1.1074,1.1074,1.1143,1.1143,1.1143,1.1143,1.1182,1.1182,1.1182,1.1182,1.1143,1.1143,1.1143,1.1104,1.1104,1.1104,0,0,1.2979,1.2979,1.2979,1.3037,1.3037,1.3037,1.3037,1.3037,1.3037,1.3037,1.3037,1.3037,1.3037,1.3037,1.3086,1.3086,1.3086,1.3086,1.3086,1.3086,1.3037,1.3037,1.3037,1.3086,1.3037,1.3086,1.3086,1.3086,1.3086,1.3086,1.3086,1.3086,1.3086,1.3135,1.3086,1.3086,1.3086,1.3086,1.3086,1.3135,1.3135,1.3086,1.3135,1.3135,1.3135,1.3086,1.3086,1.3086,1.3135,1.3135,1.3135,1.3135,1.3135,1.3135,1.3135,1.3135,1.3135,1.3193,1.3193,1.3193,1.3135,1.3135,1.3135,1.3135,1.3135,1.3135,1.3135,1.3135,1.3135,1.3135,1.3135,1.3135,1.3086,1.3086,1.3086,1.3086,1.3086,1.3086,1.3135,1.3135,1.3135,1.3135,1.3135,1.3135,1.3135,1.3086,1.3086,1.3086,1.3086,1.3086,1.3145,1.3145,1.3145,1.3145,1.3145,1.3145,1.3145,1.3145,1.3145,1.3193,1.3193,1.3145,1.3145,1.3145,1.3145,1.3145,1.3145,1.3145,1.3145,1.3145,1.3145,1.3145,1.3193,1.3145,1.3145,1.3145,1.3145,1.3145,1.3145,1.3145,1.3145,1.3145,1.3145,1.3145,1.3145,1.3145,1.3096,1.3096,1.3096,1.3145,1.3145,1.3145,1.3145,1.3145,1.3145,1.3145,1.3145,1.3145,1.3145,1.3145,1.3145,1.3096,1.3145,1.3145,1.3145,1.3145,1.3145,1.3145,1.3145,1.3145,1.3145,1.3145,1.3145,1.3096,0,0,0,0,0,0,0,0,0,0,0,0,0,0,0,0,0,0,0,0,0,1.6084,1.5928,1.5928,1.5928,1.5859,1.5781,1.5781,1.5781,1.5703,1.373,1.3682,1.3682,1.3623,1.3564,1.3516,1.3457,1.3457,1.3457,1.3457,1.3408,1.3408,1.3408,1.335,1.335,1.3301,1.3252,1.3252,1.3203,1.3203,1.3203,1.3145,1.3145,1.3096,1.3096,1.3047,1.3047,1.3047,1.3047,1.3096,1.3047,1.3047,1.3047,1.2998,1.2949,1.2949,1.2949,1.2949,1.2949,1.29,1.29,1.2852,1.2852,1.2803,1.2803,1.2754,1.2705,1.2705,1.2705,1.2705,1.2705,1.2656,1.2656,1.2656,1.2607,1.2568,1.2568,1.2568,1.2568,1.2568,1.252,1.252,1.252,1.2471,1.2471,1.2471,1.2471,1.2422,1.2471,1.2334,1.2432,0,0,0,0,0,0,0,0,0,0,0,0,0,0,0,0,0,0,0,0,0,0,0,0,0,0,0,0,0,0,0,0,0,0,0
0,0,0,0,0,0,0,0,0.92725,0.9248,0.9248,0.9248,0.9248,0.9248,0.9248,0.92236,0.91943,0.91699,0.91455,0.91455,0.91455,0.91455,0.91455,0.91455,0.91455,0.91455,0.91699,0.91455,0.91455,0.91455,0.91748,0.91748,0.91748,0.91992,0.91992,0.92236,0.92236,0.9248,0.9248,0.92725,0.92969,0.93262,0.93506,0.93506,0.93506,0.9375,0,1.1318,1.1318,1.1318,1.1318,1.1357,1.1357,1.1357,1.1357,1.1357,1.1396,1.1396,1.1396,1.1396,1.1396,1.1396,1.1396,1.1357,1.1357,1.1396,1.1396,1.1396,1.1396,1.1396,1.1396,1.1396,1.1396,1.1396,1.1396,1.1396,1.1396,1.1436,1.1436,1.1436,1.1436,1.1475,1.1475,1.1475,1.1436,1.1475,1.1475,1.1436,1.1436,1.1436,1.1436,1.1396,1.1436,1.1406,0,0,0,1.4473,1.4473,1.4414,1.4473,1.4541,1.4541,1.4541,1.4541,1.46,1.46,1.46,1.46,1.46,1.46,1.46,1.46,1.4541,1.4541,1.4541,1.46,1.46,1.46,1.4727,1.4727,1.4727,1.4727,1.4795,1.4727,1.4727,1.4795,1.4795,1.4795,1.4795,1.4795,1.4795,1.4863,1.4795,1.4795,1.4863,1.4863,1.4863,1.4863,1.4863,1.4863,1.4863,1.4863,1.4863,1.4863,1.4863,0,0,0,0,1.125,1.125,1.1143,1.1143,1.0996,1.0967,1.0928,1.0889,1.0889,1.0928,1.0889,1.0889,1.0928,1.0928,1.0996,1.0996,1.0996,1.0967,1.0996,1.0996,1.0996,1.0996,1.1035,1.1035,1.1035,1.1035,1.1035,1.1035,1.1035,1.1074,1.1074,1.1074,1.1104,1.1104,1.1143,1.1104,1.1143,1.1143,1.1104,1.1104,1.1104,1.1104,1.1074,1.1074,0,0,1.3037,1.3037,1.3037,1.3037,1.3037,1.3037,1.3037,1.3037,1.3037,1.3037,1.3037,1.3037,1.3037,1.3037,1.3037,1.3086,1.3086,1.3086,1.3086,1.3037,1.3037,1.3037,1.3037,1.3037,1.3086,1.3086,1.3135,1.3135,1.3135,1.3086,1.3135,1.3135,1.3135,1.3086,1.3086,1.3086,1.3086,1.3086,1.3135,1.3135,1.3135,1.3135,1.3135,1.3135,1.3135,1.3135,1.3135,1.3135,1.3135,1.3135,1.3135,1.3135,1.3193,1.3193,1.3135,1.3135,1.3193,1.3193,1.3193,1.3135,1.3135,1.3135,1.3135,1.3135,1.3135,1.3135,1.3135,1.3135,1.3135,1.3135,1.3135,1.3086,1.3086,1.3086,1.3086,1.3086,1.3086,1.3145,1.3145,1.3145,1.3145,1.3145,1.3145,1.3145,1.3145,1.3086,1.3145,1.3086,1.3086,1.3145,1.3145,1.3145,1.3145,1.3145,1.3145,1.3145,1.3145,1.3145,1.3193,1.3145,1.3145,1.3145,1.3145,1.3145,1.3145,1.3145,1.3145,1.3145,1.3145,1.3145,1.3145,1.3145,1.3145,1.3145,1.3145,1.3145,1.3145,1.3145,1.3145,1.3145,1.3145,1.3145,1.3145,1.3145,1.3145,1.3145,1.3145,1.3096,1.3096,1.3145,1.3145,1.3145,1.3145,1.3145,1.3145,1.3145,1.3145,1.3145,1.3145,1.3145,1.3096,1.3145,1.3145,1.3145,1.3145,1.3145,1.3145,1.3145,1.3145,1.3145,1.3145,1.3145,1.3096,1.3096,0,0,0,0,0,0,0,0,0,0,0,0,0,0,0,0,0,0,0,1.6162,1.6084,1.5928,1.6006,1.5928,1.5928,1.5859,1.5859,1.5859,1.5781,1.3682,1.3623,1.3623,1.3564,1.3516,1.3457,1.3516,1.3457,1.3457,1.3408,1.3408,1.3408,1.3408,1.3359,1.3301,1.3301,1.3252,1.3252,1.3203,1.3203,1.3203,1.3145,1.3145,1.3096,1.3096,1.3047,1.3047,1.3047,1.3047,1.3096,1.3047,1.3047,1.3047,1.2998,1.2998,1.2949,1.2949,1.2949,1.2949,1.29,1.29,1.2852,1.2852,1.2803,1.2803,1.2754,1.2705,1.2705,1.2705,1.2705,1.2705,1.2656,1.2656,1.2656,1.2607,1.2568,1.2568,1.2568,1.2568,1.252,1.252,1.252,1.252,1.2471,1.2471,1.2471,1.2432,1.2432,1.2471,1.2295,1.2334,0,0,0,0,0,0,0,0,0,0,0,0,0,0,0,0,0,0,0,0,0,0,0,0,0,0,0,0,0,0,0,0,0,0,0
0,0,0,0,0,0,0,0,0.92725,0.9248,0.9248,0.9248,0.9248,0.9248,0.92236,0.91992,0.91699,0.91455,0.91455,0.91455,0.91455,0.91455,0.91455,0.91455,0.91455,0.91455,0.91748,0.91455,0.91455,0.91455,0.91504,0.91748,0.91504,0.91748,0.91992,0.91992,0.91992,0.92236,0.92236,0.9248,0.92725,0.93262,0.93262,0.93262,0.93506,0.9375,0,0,0,1.1318,1.1357,1.1357,1.1357,1.1357,1.1357,1.1396,1.1396,1.1396,1.1357,1.1357,1.1396,1.1357,1.1396,1.1357,1.1357,1.1396,1.1396,1.1396,1.1396,1.1396,1.1396,1.1396,1.1396,1.1396,1.1396,1.1396,1.1396,1.1436,1.1436,1.1436,1.1436,1.1475,1.1475,1.1475,1.1475,1.1475,1.1475,1.1436,1.1436,1.1436,1.1436,1.1436,1.1436,1.1406,0,0,1.4355,1.4355,1.4355,1.4355,1.4414,1.4414,1.4482,1.4482,1.4482,1.4541,1.4541,1.4541,1.4541,1.4541,1.4541,1.4541,1.4482,1.4482,1.4482,1.4541,1.4541,1.4541,1.4541,1.4541,1.4541,1.4609,1.4609,1.4609,1.4668,1.4668,1.4736,1.4736,1.4736,1.4736,1.4736,1.4736,1.4795,1.4736,1.4795,1.4795,1.4795,1.4795,1.4795,1.4795,1.4795,1.4795,1.4795,1.4736,1.4736,1.4795,0,0,0,0,0,1.125,1.1182,1.1143,1.0996,1.0928,1.0889,1.0859,1.0859,1.0889,1.0859,1.0859,1.0859,1.0889,1.0889,1.0889,1.0889,1.0889,1.0928,1.0928,1.0928,1.0967,1.0996,1.0996,1.0996,1.0996,1.0996,1.0996,1.0996,1.0996,1.0996,1.0996,1.1035,1.1035,1.1074,1.1074,1.1074,1.1104,1.1074,1.1074,1.1074,1.1074,1.1035,1.1035,0,0,1.2988,1.3037,1.3037,1.3037,1.3037,1.3037,1.3037,1.3037,1.3037,1.3037,1.3037,1.3037,1.3086,1.3037,1.3086,1.3086,1.3086,1.3086,1.3086,1.3086,1.3037,1.3037,1.3037,1.3037,1.3086,1.3086,1.3135,1.3135,1.3135,1.3135,1.3135,1.3135,1.3135,1.3135,1.3135,1.3086,1.3135,1.3086,1.3135,1.3135,1.3135,1.3135,1.3086,1.3086,1.3135,1.3086,1.3086,1.3135,1.3135,1.3135,1.3135,1.3193,1.3193,1.3193,1.3193,1.3193,1.3193,1.3193,1.3193,1.3135,1.3135,1.3135,1.3135,1.3135,1.3135,1.3135,1.3135,1.3135,1.3135,1.3145,1.3145,1.3086,1.3086,1.3145,1.3086,1.3145,1.3145,1.3145,1.3145,1.3145,1.3145,1.3145,1.3145,1.3145,1.3145,1.3145,1.3145,1.3145,1.3145,1.3193,1.3145,1.3145,1.3145,1.3145,1.3145,1.3145,1.3145,1.3145,1.3145,1.3145,1.3145,1.3145,1.3145,1.3145,1.3145,1.3145,1.3145,1.3145,1.3145,1.3145,1.3145,1.3145,1.3145,1.3145,1.3145,1.3145,1.3145,1.3145,1.3145,1.3145,1.3145,1.3145,1.3145,1.3145,1.3145,1.3145,1.3145,1.3145,1.3145,1.3145,1.3145,1.3145,1.3145,1.3145,1.3145,1.3145,1.3145,1.3145,1.3145,1.3096,1.3096,1.3145,1.3145,1.3145,1.3145,1.3145,1.3145,1.3145,1.3145,1.3145,1.3193,1.3145,1.3145,1.3145,0,0,0,0,0,0,0,0,0,0,0,0,0,0,0,0,0,0,0,0,1.6084,1.5928,1.6006,1.5928,1.5928,1.5859,1.5781,1.5781,1.5781,1.3682,1.3682,1.3623,1.3564,1.3516,1.3457,1.3457,1.3457,1.3408,1.3408,1.3408,1.3408,1.3359,1.3359,1.3359,1.3301,1.3301,1.3301,1.3252,1.3252,1.3203,1.3203,1.3145,1.3145,1.3145,1.3096,1.3096,1.3047,1.3047,1.3096,1.3047,1.3047,1.3047,1.2998,1.2998,1.2998,1.2949,1.2949,1.2949,1.2949,1.29,1.29,1.2852,1.2852,1.2803,1.2754,1.2705,1.2705,1.2705,1.2705,1.2705,1.2705,1.2656,1.2656,1.2617,1.2568,1.2568,1.2568,1.2568,1.252,1.252,1.252,1.252,1.2471,1.2471,1.2471,1.2471,1.2432,1.2334,1.2383,1.2334,0,0,0,0,0,0,0,0,0,0,0,0,0,0,0,0,0,0,0,0,0,0,0,0,0,0,0,0,0,0,0,0,0,0,0
0,0,0,0,0,0,0,0,0.9248,0.9248,0.9248,0.92236,0.92236,0.92236,0.92236,0.91699,0.91748,0.91455,0.91455,0.91211,0.91211,0.91211,0.91455,0.91504,0.91504,0.91504,0.91504,0.91504,0.91504,0.91504,0.91504,0.91504,0.91748,0.91748,0.91992,0.92236,0.92236,0.92236,0.92236,0.9248,0.92725,0.92725,0.93262,0.93262,0.93506,0.9375,0.9375,0,0,1.1318,1.1357,1.1357,1.1357,1.1396,1.1396,1.1396,1.1396,1.1396,1.1396,1.1396,1.1396,1.1396,1.1396,1.1396,1.1396,1.1396,1.1396,1.1396,1.1396,1.1396,1.1396,1.1396,1.1396,1.1396,1.1396,1.1396,1.1396,1.1436,1.1436,1.1475,1.1436,1.1475,1.1475,1.1475,1.1436,1.1475,1.1445,1.1445,1.1445,1.1445,1.1484,1.1445,1.1445,0,0,1.4238,1.4238,1.4238,1.4238,1.4297,1.4355,1.4355,1.4414,1.4414,1.4414,1.4414,1.4482,1.4541,1.4482,1.4482,1.4482,1.4482,1.4414,1.4414,1.4414,1.4482,1.4482,1.4482,1.4482,1.4482,1.4482,1.4482,1.4541,1.4541,1.4482,1.4541,1.4541,1.4541,1.4541,1.4541,1.4541,1.4609,1.4609,1.4736,1.4736,1.4736,1.4736,1.4736,1.4736,1.4736,1.4736,1.4736,1.4668,1.4668,1.4668,1.4795,1.4795,0,0,0,1.125,1.1221,1.1182,1.1143,1.0967,1.0889,1.0859,1.0859,1.082,1.0859,1.082,1.082,1.0791,1.082,1.082,1.0859,1.0859,1.0889,1.0889,1.0889,1.0889,1.0889,1.0928,1.0928,1.0928,1.0928,1.0928,1.0928,1.0967,1.0967,1.0967,1.0967,1.0996,1.1035,1.1035,1.1035,1.1035,1.1035,1.1035,1.1035,1.1035,1.1035,1.0996,1.0996,1.0996,1.0996,0,0,1.2939,1.2988,1.2988,1.3037,1.3037,1.3037,1.3037,1.3037,1.3037,1.3037,1.3037,1.3086,1.3086,1.3086,1.3086,1.3086,1.3086,1.3037,1.3037,1.3037,1.3037,1.3037,1.3086,1.3086,1.3135,1.3135,1.3135,1.3135,1.3135,1.3135,1.3135,1.3135,1.3135,1.3135,1.3135,1.3135,1.3135,1.3135,1.3135,1.3135,1.3135,1.3135,1.3135,1.3135,1.3135,1.3135,1.3135,1.3135,1.3135,1.3193,1.3135,1.3193,1.3193,1.3242,1.3193,1.3193,1.3135,1.3135,1.3135,1.3135,1.3145,1.3145,1.3145,1.3145,1.3145,1.3145,1.3145,1.3145,1.3145,1.3145,1.3086,1.3145,1.3145,1.3145,1.3145,1.3145,1.3145,1.3145,1.3145,1.3145,1.3145,1.3145,1.3145,1.3145,1.3145,1.3145,1.3145,1.3193,1.3145,1.3145,1.3145,1.3145,1.3145,1.3145,1.3145,1.3145,1.3145,1.3145,1.3145,1.3145,1.3145,1.3145,1.3145,1.3145,1.3145,1.3145,1.3145,1.3145,1.3145,1.3145,1.3145,1.3145,1.3145,1.3145,1.3145,1.3145,1.3145,1.3145,1.3145,1.3193,1.3145,1.3145,1.3145,1.3145,1.3145,1.3145,1.3145,1.3145,1.3145,1.3145,1.3145,1.3145,1.3145,1.3145,1.3145,1.3145,1.3145,1.3145,1.3096,1.3145,1.3145,1.3145,1.3145,1.3145,1.3145,1.3193,1.3145,1.3145,1.3193,1.3193,1.3193,1.3193,0,0,0,0,0,0,0,0,0,0,0,0,0,0,0,0,0,0,0,0,0,1.5928,1.6006,1.5928,1.5928,1.5859,1.5859,1.5859,1.5859,1.3623,1.3623,1.3623,1.3564,1.3516,1.3457,1.3457,1.3457,1.3408,1.3408,1.3408,1.3408,1.3408,1.3359,1.3359,1.3301,1.3301,1.3301,1.3252,1.3252,1.3203,1.3203,1.3145,1.3145,1.3096,1.3047,1.3047,1.3047,1.3047,1.3096,1.3047,1.3047,1.3047,1.2998,1.2998,1.2949,1.2949,1.2949,1.29,1.29,1.29,1.2852,1.2852,1.2852,1.2803,1.2754,1.2754,1.2754,1.2705,1.2705,1.2705,1.2705,1.2656,1.2656,1.2617,1.2617,1.2617,1.2568,1.2568,1.2568,1.252,1.252,1.252,1.252,1.252,1.2471,1.2471,1.2432,1.2334,1.1123,1.1123,1.1123,0,0,0,0,0,0,0,0,0,0,0,0,0,0,0,0,0,0,0,0,0,0,0,0,0,0,0,0,0,0,0,0,0,0
0,0,0,0,0,0,0,0.9248,0.92236,0.92236,0.92236,0.92236,0.91992,0.91748,0.91748,0.91748,0.91504,0.91504,0.91504,0.91211,0.9126,0.9126,0.91504,0.91504,0.91504,0.91504,0.91504,0.91504,0.91504,0.91504,0.91504,0.91504,0.91504,0.91748,0.91992,0.92236,0.91992,0.9248,0.92236,0.9248,0.9248,0.92725,0.93018,0.93262,0.93506,0.93506,0.93799,0,0,0,1.1357,1.1357,1.1367,1.1367,1.1396,1.1396,1.1396,1.1396,1.1396,1.1396,1.1396,1.1396,1.1396,1.1396,1.1396,1.1396,1.1396,1.1396,1.1396,1.1396,1.1396,1.1406,1.1406,1.1406,1.1406,1.1406,1.1436,1.1475,1.1475,1.1475,1.1475,1.1475,1.1484,1.1484,1.1484,1.1484,1.1484,1.1484,1.1445,1.1484,1.1484,1.1445,0,0,1.4111,1.4111,1.418,1.418,1.418,1.418,1.4297,1.4297,1.4297,1.4355,1.4355,1.4355,1.4355,1.4414,1.4414,1.4414,1.4414,1.4414,1.4355,1.4355,1.4414,1.4414,1.4414,1.4414,1.4414,1.4414,1.4414,1.4414,1.4424,1.4424,1.4482,1.4482,1.4482,1.4482,1.4541,1.4482,1.4482,1.4541,1.4541,1.4541,1.4609,1.4609,1.4609,1.4609,1.4609,1.4609,1.4609,1.4609,1.4609,1.4541,1.4541,1.4609,1.4736,0,0,0,1.125,1.1221,1.1182,1.1143,1.0928,1.0889,1.0859,1.082,1.082,1.082,1.082,1.0791,1.0791,1.0791,1.0791,1.082,1.0859,1.0859,1.0859,1.0898,1.0898,1.0898,1.0898,1.0898,1.0898,1.0898,1.0898,1.0898,1.0898,1.0898,1.0898,1.0898,1.0928,1.0928,1.0996,1.0996,1.0996,1.1035,1.1035,1.1035,1.0996,1.0996,1.0996,1.0996,1.0996,1.0967,1.0928,1.0928,0,0,1.2988,1.3037,1.3037,1.3037,1.3037,1.3037,1.3037,1.3037,1.3037,1.3086,1.3086,1.3086,1.3086,1.3086,1.3086,1.3086,1.3037,1.3037,1.3037,1.3037,1.3037,1.3086,1.3135,1.3135,1.3135,1.3135,1.3135,1.3135,1.3193,1.3135,1.3135,1.3135,1.3135,1.3135,1.3135,1.3135,1.3135,1.3135,1.3135,1.3135,1.3135,1.3135,1.3135,1.3135,1.3135,1.3135,1.3193,1.3193,1.3135,1.3193,1.3193,1.3242,1.3193,1.3193,1.3145,1.3145,1.3145,1.3145,1.3086,1.3145,1.3145,1.3145,1.3145,1.3145,1.3145,1.3145,1.3145,1.3145,1.3145,1.3145,1.3145,1.3145,1.3145,1.3145,1.3145,1.3145,1.3145,1.3145,1.3145,1.3145,1.3145,1.3145,1.3145,1.3145,1.3145,1.3193,1.3193,1.3193,1.3145,1.3145,1.3145,1.3193,1.3145,1.3145,1.3145,1.3145,1.3145,1.3145,1.3145,1.3145,1.3145,1.3145,1.3145,1.3145,1.3145,1.3145,1.3145,1.3145,1.3145,1.3145,1.3145,1.3145,1.3145,1.3145,1.3145,1.3145,1.3193,1.3193,1.3145,1.3145,1.3145,1.3145,1.3145,1.3145,1.3145,1.3145,1.3145,1.3145,1.3145,1.3145,1.3145,1.3145,1.3145,1.3145,1.3145,1.3145,1.3145,1.3145,1.3145,1.3145,1.3145,1.3145,1.3145,1.3193,1.3145,1.3145,1.3252,1.3193,1.3252,1.3252,0,0,0,0,0,0,0,0,0,0,0,0,0,0,0,0,0,0,0,0,0,1.6006,1.6006,1.5928,1.5928,1.5859,1.5859,1.5859,1.373,1.3623,1.3623,1.3574,1.3574,1.3516,1.3467,1.3467,1.3408,1.3408,1.3408,1.3408,1.3359,1.3359,1.3359,1.3301,1.3301,1.3301,1.3301,1.3252,1.3203,1.3203,1.3203,1.3154,1.3096,1.3096,1.3047,1.3047,1.3047,1.3047,1.3096,1.3047,1.3047,1.3047,1.2998,1.2998,1.2949,1.2949,1.2949,1.29,1.29,1.29,1.2852,1.2852,1.2852,1.2803,1.2754,1.2754,1.2754,1.2705,1.2705,1.2705,1.2705,1.2656,1.2656,1.2617,1.2617,1.2617,1.2568,1.2568,1.2568,1.252,1.252,1.252,1.252,1.252,1.252,1.2471,1.2432,1.2334,1.1055,1.1055,1.1055,0,0,0,0,0,0,0,0,0,0,0,0,0,0,0,0,0,0,0,0,0,0,0,0,0,0,0,0,0,0,0,0,0,0
0,0,0,0,0,0,0,0.9248,0.92236,0.92236,0.92236,0.91992,0.91748,0.91748,0.91748,0.91748,0.91504,0.91504,0.91504,0.9126,0.9126,0.9126,0.9126,0.91504,0.91504,0.91504,0.91504,0.9126,0.9126,0.9126,0.91504,0.9126,0.91504,0.91748,0.91992,0.91992,0.91992,0.92236,0.92236,0.9248,0.9248,0.92773,0.92773,0.93018,0.93018,0.93262,0,0,0,1.1367,1.1367,1.1367,1.1367,1.1367,1.1396,1.1396,1.1396,1.1406,1.1406,1.1406,1.1406,1.1406,1.1406,1.1406,1.1406,1.1406,1.1406,1.1406,1.1406,1.1406,1.1406,1.1406,1.1406,1.1445,1.1445,1.1445,1.1445,1.1484,1.1484,1.1484,1.1484,1.1484,1.1484,1.1484,1.1484,1.1484,1.1484,1.1484,1.1484,1.1484,1.1484,1.1445,0,0,1.4121,1.4121,1.418,1.418,1.418,1.418,1.4297,1.4297,1.4297,1.4297,1.4297,1.4297,1.4355,1.4355,1.4355,1.4297,1.4297,1.4297,1.4297,1.4355,1.4355,1.4355,1.4355,1.4355,1.4355,1.4355,1.4355,1.4355,1.4355,1.4355,1.4424,1.4424,1.4424,1.4482,1.4482,1.4424,1.4482,1.4482,1.4541,1.4541,1.4482,1.4541,1.4541,1.4541,1.4541,1.4541,1.4541,1.4541,1.4541,1.4482,1.4424,1.4482,1.4541,0,0,0,1.1289,1.1182,1.1182,1.1143,1.0889,1.0889,1.0859,1.082,1.082,1.082,1.0791,1.0791,1.0752,1.0752,1.0752,1.0752,1.082,1.082,1.082,1.0859,1.082,1.082,1.082,1.0859,1.0859,1.0859,1.0859,1.0859,1.0859,1.0859,1.0859,1.0898,1.0898,1.0898,1.0928,1.0928,1.0967,1.0967,1.1006,1.0967,1.1006,1.1006,1.1006,1.0967,1.0967,1.0928,1.0898,1.0898,0,0,0,1.3037,1.3037,1.3037,1.3037,1.3037,1.3037,1.3037,1.3037,1.3037,1.3086,1.3086,1.3086,1.3086,1.3086,1.3086,1.3037,1.3037,1.3037,1.3037,1.3037,1.3086,1.3135,1.3135,1.3135,1.3135,1.3135,1.3135,1.3135,1.3135,1.3135,1.3135,1.3135,1.3135,1.3135,1.3135,1.3145,1.3145,1.3145,1.3145,1.3145,1.3145,1.3145,1.3145,1.3145,1.3145,1.3193,1.3193,1.3193,1.3193,1.3193,1.3193,1.3193,1.3193,1.3145,1.3145,1.3145,1.3145,1.3145,1.3145,1.3145,1.3145,1.3145,1.3145,1.3145,1.3145,1.3145,1.3145,1.3145,1.3145,1.3145,1.3145,1.3145,1.3145,1.3145,1.3145,1.3145,1.3145,1.3145,1.3145,1.3145,1.3145,1.3145,1.3145,1.3145,1.3193,1.3193,1.3193,1.3193,1.3193,1.3193,1.3193,1.3193,1.3193,1.3193,1.3193,1.3145,1.3145,1.3145,1.3145,1.3145,1.3145,1.3145,1.3145,1.3145,1.3145,1.3145,1.3145,1.3145,1.3145,1.3145,1.3145,1.3145,1.3145,1.3145,1.3145,1.3145,1.3145,1.3145,1.3145,1.3145,1.3145,1.3145,1.3145,1.3145,1.3145,1.3145,1.3145,1.3145,1.3145,1.3145,1.3145,1.3145,1.3145,1.3145,1.3145,1.3145,1.3145,1.3145,1.3145,1.3145,1.3145,1.3145,1.3193,1.3193,1.3193,1.3252,1.3252,1.3252,1.3301,0,0,0,0,0,0,0,0,0,0,0,0,0,0,0,0,0,0,0,0,0,1.6006,1.6006,1.6006,1.5928,1.5859,1.3682,1.3682,1.3682,1.3682,1.3623,1.3574,1.3516,1.3516,1.3467,1.3467,1.3467,1.3408,1.3408,1.3408,1.3359,1.3359,1.3359,1.3301,1.3301,1.3301,1.3252,1.3252,1.3203,1.3203,1.3154,1.3154,1.3154,1.3096,1.3047,1.3047,1.3047,1.3047,1.3047,1.3047,1.3047,1.3047,1.2998,1.2998,1.2949,1.2949,1.2949,1.29,1.29,1.29,1.2852,1.2852,1.2852,1.2803,1.2803,1.2754,1.2754,1.2705,1.2705,1.2705,1.2705,1.2705,1.2656,1.2656,1.2617,1.2617,1.2617,1.2568,1.2568,1.252,1.252,1.252,1.252,1.252,1.2471,1.2471,1.2295,1.1055,1.1055,1.1084,1.1084,0,0,0,0,0,0,0,0,0,0,0,0,0,0,0,0,0,0,0,0,0,0,0,0,0,0,0,0,0,0,0,0,0,0
0,0,0,0,0,0,0,0.92236,0.92236,0.91992,0.91992,0.91992,0.91748,0.91504,0.91504,0.91504,0.91504,0.91504,0.91504,0.9126,0.9126,0.9126,0.91504,0.91504,0.91504,0.91504,0.9126,0.9126,0.9126,0.9126,0.9126,0.9126,0.9126,0.91504,0.91748,0.91992,0.91992,0.91992,0.92236,0.92236,0.9248,0.9248,0.92773,0.93018,0.93018,0.93018,0.93262,0,0,0,1.1406,1.1406,1.1406,1.1367,1.1406,1.1406,1.1406,1.1406,1.1406,1.1406,1.1406,1.1406,1.1406,1.1445,1.1445,1.1445,1.1445,1.1445,1.1445,1.1445,1.1406,1.1445,1.1445,1.1445,1.1445,1.1445,1.1445,1.1484,1.1484,1.1484,1.1484,1.1484,1.1484,1.1484,1.1484,1.1484,1.1484,1.1484,1.1484,1.1484,1.1484,1.1484,0,0,1.4062,1.4121,1.418,1.4121,1.4121,1.4121,1.4238,1.4238,1.4238,1.4238,1.4238,1.4297,1.4297,1.4297,1.4297,1.4238,1.4238,1.4238,1.4238,1.4297,1.4297,1.4297,1.4297,1.4355,1.4355,1.4355,1.4355,1.4355,1.4355,1.4355,1.4355,1.4355,1.4355,1.4424,1.4424,1.4424,1.4424,1.4424,1.4482,1.4424,1.4424,1.4424,1.4482,1.4482,1.4482,1.4482,1.4482,1.4482,1.4482,1.4482,1.4424,1.4482,0,0,0,0,1.1221,1.1182,1.1143,1.1074,1.0898,1.0859,1.0859,1.082,1.0791,1.082,1.0791,1.0752,1.0752,1.0723,1.0723,1.0752,1.0752,1.0752,1.0791,1.082,1.0791,1.0791,1.0791,1.082,1.082,1.0859,1.083,1.083,1.0859,1.0859,1.0859,1.0859,1.0859,1.0898,1.0898,1.0898,1.0898,1.0928,1.0928,1.0928,1.0928,1.0928,1.0928,1.0928,1.0928,1.0898,1.0898,1.0898,1.0898,0,0,0,1.3037,1.3037,1.3037,1.3037,1.3037,1.3037,1.3037,1.3037,1.3037,1.3086,1.3086,1.3086,1.3086,1.3086,1.3086,1.3037,1.3037,1.3037,1.3086,1.3086,1.3135,1.3135,1.3135,1.3135,1.3135,1.3135,1.3135,1.3145,1.3145,1.3145,1.3086,1.3086,1.3145,1.3145,1.3145,1.3145,1.3145,1.3145,1.3193,1.3145,1.3145,1.3145,1.3145,1.3145,1.3193,1.3242,1.3242,1.3242,1.3193,1.3193,1.3193,1.3193,1.3145,1.3145,1.3145,1.3145,1.3145,1.3145,1.3145,1.3145,1.3145,1.3145,1.3145,1.3145,1.3145,1.3145,1.3145,1.3145,1.3145,1.3145,1.3145,1.3145,1.3145,1.3145,1.3145,1.3145,1.3145,1.3145,1.3145,1.3145,1.3145,1.3145,1.3145,1.3193,1.3193,1.3193,1.3193,1.3193,1.3193,1.3193,1.3193,1.3193,1.3193,1.3193,1.3193,1.3145,1.3145,1.3145,1.3145,1.3145,1.3145,1.3145,1.3145,1.3145,1.3145,1.3145,1.3145,1.3145,1.3145,1.3145,1.3145,1.3145,1.3145,1.3145,1.3145,1.3145,1.3145,1.3145,1.3145,1.3145,1.3145,1.3145,1.3145,1.3145,1.3145,1.3145,1.3145,1.3145,1.3145,1.3145,1.3145,1.3145,1.3145,1.3145,1.3145,1.3145,1.3145,1.3145,1.3145,1.3145,1.3145,1.3203,1.3203,1.3203,1.3252,1.3252,1.3252,1.3408,0,0,0,0,0,0,0,0,0,0,0,0,0,0,0,0,0,0,0,0,0,1.6006,1.5938,1.5938,1.6006,1.5938,1.3682,1.3682,1.3682,1.3682,1.3623,1.3574,1.3574,1.3516,1.3467,1.3408,1.3408,1.3408,1.3408,1.3408,1.3359,1.3359,1.3359,1.3301,1.3301,1.3301,1.3252,1.3252,1.3203,1.3203,1.3154,1.3154,1.3154,1.3096,1.3096,1.3047,1.3047,1.3096,1.3047,1.3047,1.3047,1.3047,1.2998,1.2998,1.2949,1.2949,1.2949,1.29,1.29,1.29,1.2852,1.2852,1.2852,1.2803,1.2803,1.2754,1.2754,1.2705,1.2705,1.2705,1.2705,1.2666,1.2666,1.2666,1.2617,1.2617,1.2617,1.2617,1.2617,1.2568,1.2568,1.2568,1.252,1.252,1.248,1.2432,1.1055,1.1055,1.1055,1.1055,1.1084,0,0,0,0,0,0,0,0,0,0,0,0,0,0,0,0,0,0,0,0,0,0,0,0,0,0,0,0,0,0,0,0,0,0
0,0,0,0,0,0.91992,0.91992,0.91748,0.91992,0.91748,0.91748,0.91748,0.91504,0.91504,0.91504,0.91504,0.9126,0.9126,0.9126,0.9126,0.9126,0.9126,0.9126,0.9126,0.9126,0.9126,0.9126,0.9126,0.9126,0.9126,0.91016,0.91016,0.9126,0.91504,0.91748,0.91748,0.91748,0.91992,0.91992,0.92236,0.92236,0.9248,0.9248,0.92773,0.92773,0.92773,0.93018,0.93262,0,0,0,1.1406,1.1406,1.1406,1.1406,1.1406,1.1406,1.1406,1.1406,1.1406,1.1406,1.1406,1.1406,1.1445,1.1445,1.1445,1.1445,1.1445,1.1445,1.1445,1.1445,1.1445,1.1445,1.1484,1.1484,1.1484,1.1484,1.1484,1.1484,1.1484,1.1484,1.1484,1.1484,1.1484,1.1484,1.1484,1.1484,1.1484,1.1484,1.1523,1.1484,1.1484,0,0,1.4062,1.4121,1.418,1.4121,1.4121,1.4121,1.418,1.418,1.418,1.418,1.418,1.4238,1.4238,1.4238,1.4238,1.4238,1.418,1.418,1.418,1.4238,1.4238,1.4238,1.4297,1.4297,1.4297,1.4297,1.4297,1.4297,1.4297,1.4297,1.4355,1.4355,1.4355,1.4355,1.4355,1.4355,1.4355,1.4355,1.4355,1.4365,1.4365,1.4365,1.4424,1.4424,1.4424,1.4424,1.4424,1.4424,1.4482,1.4424,1.4424,1.4482,0,0,0,1.1328,1.126,1.1182,1.1143,1.0996,1.0898,1.0859,1.0859,1.082,1.0791,1.082,1.0791,1.0723,1.0723,1.0723,1.0723,1.0723,1.0723,1.0723,1.0752,1.0752,1.0752,1.0752,1.0752,1.0791,1.0791,1.0791,1.0791,1.0791,1.083,1.083,1.083,1.0859,1.0859,1.0859,1.0859,1.0859,1.0898,1.0898,1.0898,1.0928,1.0898,1.0928,1.0898,1.0898,1.0898,1.0859,1.0859,1.0859,1.083,1.0859,0,0,1.3086,1.3086,1.3037,1.3037,1.3037,1.3037,1.3037,1.3086,1.3086,1.3086,1.3086,1.3086,1.3086,1.3037,1.3086,1.3037,1.3037,1.3037,1.3086,1.3086,1.3145,1.3145,1.3193,1.3145,1.3145,1.3145,1.3145,1.3145,1.3145,1.3145,1.3086,1.3086,1.3145,1.3145,1.3145,1.3145,1.3193,1.3145,1.3193,1.3193,1.3193,1.3193,1.3145,1.3145,1.3193,1.3242,1.3193,1.3242,1.3193,1.3193,1.3193,1.3145,1.3145,1.3145,1.3145,1.3145,1.3145,1.3145,1.3145,1.3145,1.3145,1.3145,1.3145,1.3145,1.3145,1.3145,1.3145,1.3145,1.3145,1.3145,1.3145,1.3145,1.3145,1.3145,1.3145,1.3145,1.3145,1.3145,1.3145,1.3145,1.3145,1.3145,1.3145,1.3193,1.3193,1.3193,1.3193,1.3193,1.3193,1.3193,1.3193,1.3193,1.3193,1.3193,1.3193,1.3145,1.3145,1.3145,1.3193,1.3145,1.3145,1.3145,1.3145,1.3145,1.3145,1.3145,1.3145,1.3145,1.3145,1.3145,1.3145,1.3145,1.3145,1.3145,1.3145,1.3145,1.3145,1.3145,1.3145,1.3193,1.3193,1.3145,1.3145,1.3145,1.3145,1.3145,1.3145,1.3145,1.3145,1.3145,1.3145,1.3145,1.3145,1.3145,1.3145,1.3145,1.3145,1.3145,1.3145,1.3145,1.3145,1.3145,1.3145,1.3203,1.3252,1.3252,1.3359,1.3359,1.3359,1.3623,0,0,0,0,0,0,0,0,0,0,0,0,0,0,0,0,0,0,0,1.6006,1.5938,1.5938,1.5938,1.3789,1.3682,1.3682,1.3682,1.3682,1.3623,1.3623,1.3574,1.3516,1.3467,1.3467,1.3408,1.3408,1.3408,1.3408,1.3359,1.3359,1.3311,1.3311,1.3311,1.3252,1.3252,1.3252,1.3203,1.3203,1.3203,1.3154,1.3154,1.3096,1.3105,1.3105,1.3047,1.3105,1.3105,1.3047,1.3047,1.3047,1.2998,1.2998,1.2949,1.2949,1.29,1.29,1.29,1.29,1.2852,1.2852,1.2852,1.2803,1.2803,1.2754,1.2754,1.2705,1.2705,1.2705,1.2705,1.2666,1.2666,1.2666,1.2617,1.2617,1.2617,1.2617,1.2617,1.2568,1.2568,1.2568,1.2568,1.252,1.1055,1.1055,1.1055,1.1055,1.1055,1.1084,1.1084,0,0,0,0,0,0,0,0,0,0,0,0,0,0,0,0,0,0,0,0,0,0,0,0,0,0,0,0,0,0,0,0,0,0
0,0,0,0,0,0.91748,0.91748,0.91748,0.91748,0.91504,0.91748,0.91748,0.91504,0.91504,0.91504,0.91504,0.91504,0.9126,0.9126,0.9126,0.9126,0.9126,0.9126,0.9126,0.9126,0.9126,0.9126,0.91016,0.9126,0.9126,0.9126,0.91016,0.9126,0.91504,0.91748,0.91748,0.91748,0.91992,0.91992,0.92236,0.92236,0.92236,0.92529,0.92529,0.92529,0.92773,0.92773,0.93262,0,0,0,1.1406,1.1406,1.1406,1.1406,1.1406,1.1406,1.1406,1.1406,1.1406,1.1406,1.1406,1.1445,1.1445,1.1445,1.1445,1.1445,1.1445,1.1445,1.1445,1.1445,1.1445,1.1445,1.1484,1.1484,1.1523,1.1523,1.1523,1.1523,1.1484,1.1484,1.1484,1.1523,1.1523,1.1523,1.1523,1.1523,1.1523,1.1523,1.1523,1.1484,1.1484,1.1445,0,1.4004,1.4062,1.4062,1.4062,1.4062,1.4062,1.4121,1.4121,1.4121,1.4121,1.4121,1.4121,1.418,1.418,1.4121,1.4121,1.4121,1.4121,1.4121,1.4121,1.418,1.418,1.4238,1.4238,1.4238,1.4297,1.4238,1.4297,1.4297,1.4297,1.4297,1.4297,1.4297,1.4297,1.4297,1.4297,1.4297,1.4297,1.4297,1.4297,1.4297,1.4297,1.4365,1.4365,1.4365,1.4365,1.4365,1.4424,1.4424,1.4365,1.4424,1.4482,0,0,0,1.1299,1.1221,1.1182,1.1143,1.0996,1.0898,1.0859,1.0859,1.082,1.0791,1.0791,1.0752,1.0723,1.0723,1.0723,1.0723,1.0723,1.0723,1.0723,1.0723,1.0762,1.0723,1.0723,1.0723,1.0762,1.0762,1.0762,1.0762,1.0762,1.0791,1.0791,1.0762,1.0762,1.0762,1.0762,1.083,1.083,1.083,1.0859,1.0859,1.0898,1.0898,1.0898,1.0898,1.0898,1.0859,1.0859,1.0859,1.0859,1.083,1.083,0,0,0,1.3086,1.3086,1.3037,1.3037,1.3037,1.3037,1.3086,1.3086,1.3086,1.3086,1.3086,1.3086,1.3086,1.3086,1.3037,1.3037,1.3086,1.3086,1.3086,1.3145,1.3145,1.3145,1.3145,1.3145,1.3145,1.3145,1.3145,1.3145,1.3145,1.3086,1.3086,1.3145,1.3145,1.3145,1.3193,1.3193,1.3193,1.3193,1.3193,1.3193,1.3193,1.3145,1.3145,1.3193,1.3193,1.3193,1.3193,1.3193,1.3193,1.3193,1.3145,1.3145,1.3145,1.3145,1.3145,1.3145,1.3145,1.3145,1.3145,1.3145,1.3145,1.3145,1.3145,1.3145,1.3145,1.3145,1.3145,1.3145,1.3145,1.3145,1.3145,1.3145,1.3145,1.3145,1.3145,1.3145,1.3145,1.3145,1.3145,1.3145,1.3145,1.3145,1.3193,1.3193,1.3193,1.3193,1.3193,1.3193,1.3193,1.3193,1.3193,1.3193,1.3193,1.3193,1.3193,1.3193,1.3145,1.3193,1.3145,1.3193,1.3145,1.3193,1.3193,1.3193,1.3145,1.3145,1.3145,1.3193,1.3145,1.3145,1.3145,1.3145,1.3145,1.3145,1.3145,1.3145,1.3145,1.3145,1.3193,1.3203,1.3145,1.3145,1.3145,1.3145,1.3145,1.3145,1.3145,1.3145,1.3145,1.3145,1.3145,1.3145,1.3145,1.3145,1.3145,1.3145,1.3145,1.3145,1.3145,1.3145,1.3145,1.3145,1.3145,1.3203,1.3252,1.3301,1.3301,1.3301,1.3682,1.3682,0,0,0,0,0,0,0,0,0,0,0,0,0,0,0,0,0,0,1.5938,1.5938,1.5938,1.5938,1.374,1.3682,1.3682,1.3682,1.3682,1.3623,1.3623,1.3574,1.3574,1.3467,1.3467,1.3408,1.3408,1.3408,1.3359,1.3359,1.3311,1.3311,1.3311,1.3311,1.3252,1.3252,1.3252,1.3252,1.3203,1.3203,1.3154,1.3154,1.3154,1.3105,1.3105,1.3047,1.3105,1.3105,1.3047,1.3047,1.3047,1.2998,1.2998,1.2998,1.2949,1.2949,1.29,1.29,1.29,1.2852,1.2852,1.2852,1.2803,1.2803,1.2803,1.2803,1.2754,1.2705,1.2705,1.2705,1.2666,1.2666,1.2666,1.2666,1.2666,1.2666,1.2617,1.2617,1.2617,1.2617,1.2568,1.2568,1.1016,1.1016,1.1016,1.1016,1.1016,1.1055,1.1055,1.1055,0,0,0,0,0,0,0,0,0,0,0,0,0,0,0,0,0,0,0,0,0,0,0,0,0,0,0,0,0,0,0,0,0,0
0,0,0,0,0.91748,0.91748,0.91748,0.91748,0.91504,0.91504,0.91504,0.91504,0.91504,0.91504,0.9126,0.91504,0.9126,0.9126,0.9126,0.9126,0.9126,0.9126,0.9126,0.9126,0.91016,0.9126,0.9126,0.91016,0.91016,0.91016,0.91016,0.91016,0.91016,0.91504,0.91748,0.91748,0.91748,0.91748,0.91992,0.91992,0.91992,0.92236,0.92236,0.92529,0.92529,0.92529,0.92773,0,0,0,1.1367,1.1445,1.1445,1.1445,1.1406,1.1406,1.1406,1.1406,1.1406,1.1406,1.1445,1.1445,1.1445,1.1445,1.1484,1.1484,1.1445,1.1445,1.1484,1.1445,1.1445,1.1484,1.1484,1.1484,1.1523,1.1523,1.1523,1.1523,1.1523,1.1484,1.1484,1.1484,1.1484,1.1523,1.1523,1.1523,1.1523,1.1523,1.1523,1.1523,1.1484,1.1484,0,0,0,1.4062,1.4062,1.4062,1.4004,1.4004,1.4062,1.4062,1.4062,1.4062,1.4121,1.4121,1.4121,1.4121,1.4121,1.4121,1.4121,1.4121,1.4121,1.4121,1.4121,1.4121,1.418,1.418,1.418,1.4238,1.418,1.4238,1.4238,1.4238,1.4238,1.4238,1.4238,1.4297,1.4297,1.4297,1.4297,1.4297,1.4297,1.4297,1.4297,1.4238,1.4297,1.4297,1.4297,1.4297,1.4297,1.4365,1.4365,1.4297,1.4297,1.4307,1.4365,0,1.1367,1.1299,1.1182,1.1143,1.1143,1.1006,1.0898,1.0859,1.083,1.083,1.0791,1.0791,1.0752,1.0723,1.0723,1.0693,1.0693,1.0693,1.0693,1.0693,1.0723,1.0723,1.0723,1.0723,1.0723,1.0723,1.0723,1.0723,1.0723,1.0762,1.0762,1.0762,1.0762,1.0723,1.0762,1.0762,1.0791,1.0762,1.0791,1.0791,1.0859,1.083,1.0859,1.0859,1.0859,1.0859,1.0859,1.0859,1.083,1.083,1.0791,1.0791,1.083,0,0,1.3086,1.3086,1.3086,1.3037,1.3037,1.3037,1.3086,1.3086,1.3086,1.3086,1.3086,1.3086,1.3086,1.3086,1.3086,1.3086,1.3086,1.3086,1.3086,1.3145,1.3145,1.3145,1.3145,1.3145,1.3145,1.3145,1.3145,1.3145,1.3145,1.3145,1.3145,1.3145,1.3145,1.3145,1.3193,1.3193,1.3193,1.3193,1.3193,1.3193,1.3193,1.3193,1.3193,1.3242,1.3242,1.3242,1.3193,1.3193,1.3193,1.3193,1.3145,1.3145,1.3145,1.3145,1.3145,1.3145,1.3145,1.3145,1.3145,1.3145,1.3145,1.3145,1.3145,1.3145,1.3145,1.3145,1.3145,1.3145,1.3145,1.3145,1.3145,1.3145,1.3145,1.3145,1.3145,1.3145,1.3145,1.3145,1.3145,1.3145,1.3145,1.3145,1.3193,1.3252,1.3193,1.3193,1.3193,1.3193,1.3193,1.3193,1.3193,1.3193,1.3193,1.3193,1.3193,1.3193,1.3145,1.3193,1.3145,1.3145,1.3145,1.3193,1.3193,1.3193,1.3145,1.3145,1.3145,1.3193,1.3193,1.3145,1.3145,1.3145,1.3145,1.3145,1.3145,1.3145,1.3145,1.3145,1.3145,1.3203,1.3145,1.3145,1.3145,1.3145,1.3145,1.3145,1.3145,1.3145,1.3145,1.3145,1.3145,1.3145,1.3145,1.3145,1.3145,1.3145,1.3145,1.3145,1.3145,1.3145,1.3145,1.3145,1.3145,1.3203,1.3203,1.3574,1.3408,1.3408,1.3682,1.3682,0,0,0,0,0,0,0,0,0,0,0,0,0,0,0,0,0,1.5938,1.5938,1.5938,1.5938,1.3789,1.374,1.3682,1.3682,1.3682,1.3682,1.3623,1.3623,1.3574,1.3574,1.3467,1.3467,1.3467,1.3408,1.3408,1.3408,1.3359,1.3359,1.3311,1.3311,1.3311,1.3252,1.3252,1.3252,1.3203,1.3203,1.3203,1.3203,1.3154,1.3154,1.3105,1.3105,1.3057,1.3105,1.3105,1.3047,1.3047,1.3057,1.2998,1.2998,1.2998,1.2949,1.2949,1.29,1.29,1.29,1.2852,1.2852,1.2852,1.2852,1.2803,1.2803,1.2803,1.2754,1.2715,1.2715,1.2715,1.2666,1.2666,1.2666,1.2666,1.2666,1.2666,1.2617,1.2617,1.2617,1.2617,1.1055,1.1055,1.1016,1.1016,1.1016,1.1016,1.1016,1.1055,1.1055,1.1055,0,0,0,0,0,0,0,0,0,0,0,0,0,0,0,0,0,0,0,0,0,0,0,0,0,0,0,0,0,0,0,0,0,0
