1.252,1.252,1.252,1.2568,1.2568,1.2617,1.2617,1.2617,1.2666,1.2666,1.2666,1.2666,1.2705,1.2705,1.2705,1.2803,1.2803,1.2803,1.2852,1.29,1.29,1.29,1.29,1.2959,1.2959,1.2959,1.3008,1.3008,1.3057,1.3057,1.3057,1.3057,1.3105,1.3105,1.3105,1.3105,1.3105,1.3105,1.3154,1.3213,1.3213,1.3262,1.3262,1.3262,1.3262,1.3311,1.3311,1.3311,1.3311,1.3369,1.3369,1.3418,1.3418,1.3477,1.3477,1.3477,1.3525,1.3525,1.3525,1.3525,1.3525,1.3525,1.3584,1.3584,1.3584,1.3633,1.3691,1.3691,1.3691,1.3691,1.3691,1.3691,1.3691,1.375,1.3809,1.3809,1.3916,1.3975,1.3975,1.3916,1.3975,1.3975,1.3975,1.4033,1.4033,1.4033,1.4092,1.4092,1.4033,1.4092,1.415,1.4209,1.4209,1.4209,1.4209,1.4277,1.4277,1.4336,1.4336,1.4336,1.4336,1.4336,1.4336,1.4336,1.4395,1.4395,1.4395,1.4463,1.4463,1.4463,1.4463,1.4463,1.4521,1.4521,1.4521,1.458,1.458,1.4648,1.4648,1.4648,1.4648,1.4648,1.4648,1.4707,1.4707,1.4707,1.4717,1.4775,1.4775,1.4844,1.4844,1.4844,1.4912,1.4912,1.5039,1.5039,1.5039,1.5039,1.5107,1.5107,1.5107,1.5107,1.5107,1.5107,1.5176,1.5176,1.5176,1.5244,1.5312,1.5312,1.5312,1.5312,1.5312,1.5312,1.5312,1.5381,1.5381,1.5381,1.5381,1.5381,1.5459,1.5459,1.5527,1.5527,1.5527,1.5596,1.5596,1.5596,1.5674,1.5674,1.5674,1.5674,1.5674,1.5674,1.5742,1.5742,1.582,1.582,1.5889,1.5889,1.5889,1.5889,1.5889,1.5889,1.5967,1.5967,1.5967,1.5967,1.6045,1.6045,1.6045,1.6045,1.6045,1.6201,1.6201,1.6201,1.6279,1.6279,1.6279,1.6357,1.6357,1.6357,1.6357,1.6436,1.6514,1.6514,1.6514,1.6602,1.6602,1.6602,1.6602,1.6602,1.6602,1.6602,1.6514,1.6514,1.292,1.292,1.292,1.2969,1.292,1.292,1.292,1.292,1.2871,1.2871,1.2871,1.2871,1.2822,1.2822,1.2822,1.2822,1.2822,1.2822,1.2822,1.2822,1.2822,1.2822,1.2822,1.2822,1.2822,1.2822,1.2773,1.2773,1.2773,1.2822,1.2822,1.2822,1.2822,1.2871,1.2822,1.2822,1.2822,1.2822,1.2822,1.2773,1.2773,1.2773,1.2773,1.2773,1.2773,1.2773,1.2773,1.2773,1.2773,1.2773,1.2822,1.2822,1.2822,1.2822,1.2822,1.2773,1.2773,1.2773,1.2773,1.2773,1.2773,1.2773,1.2773,1.2773,1.2773,1.2773,1.2725,1.2773,1.2725,1.2725,1.2725,1.2773,1.2773,1.2773,1.2822,1.2822,1.2822,1.2822,1.2773,1.2822,1.2773,1.2822,1.2773,1.2773,1.2773,1.2822,1.2822,1.2822,1.2822,1.2822,1.2773,1.2822,1.2822,1.2822,1.2822,1.2822,1.2822,1.2822,1.2871,1.2871,1.2871,1.2822,1.2822,1.2822,1.2822,1.2822,1.2822,1.2822,1.2822,1.2783,1.2783,1.2783,1.2783,1.2783,1.2783,1.2783,1.2783,1.2783,1.2783,1.2783,1.2783,1.2783,1.2783,1.2783,1.2783,1.2783,1.2783,1.2734,1.2783,1.2783,1.2783,1.2783,1.2783,1.2783,1.2783,1.2783,1.2783,1.2783,1.2783,1.2734,1.2783,1.2783,1.2734,1.2734,1.2734,1.2734,1.2734,1.2783,1.2734,1.2734,1.2783,1.2783,1.2783,1.2783,1.2783,1.2783,1.2783,1.2783,1.2783,1.2783,1.2783,1.2783,1.2783,1.2734,1.2734,1.2734,1.2734,1.2734,1.2686,1.2686,1.2734,1.2734,1.2686,1.2734,1.2686,1.2734,1.2734,1.2734,1.2686,1.2686,1.2686,1.2686,1.2686,1.2686,1.2686,1.2686,1.2637,1.2637,1.2637,1.2637,1.2637,1.2598,0,0,0,0,0,0,0,0,0,0,0,0,0,0,0,0,0,0,0,0,0,0,0,0,0,0,0,1.4932,1.4932,1.4932,1.4863,1.4863,1.4863,1.4805,1.4805,1.4736,1.4736,1.4736,1.4736,1.4736,1.4736,1.4668,1.4668,1.4668,1.4668,1.4668,1.4668,1.4609,1.4609,1.4609,1.4609,1.4609,1.4482,1.4482,1.4482,1.4482,1.4482,1.4482,1.4424,1.4424,1.4424,1.4424,1.4424,1.4424,1.4424,1.4424,1.4424,1.4424,1.4365,1.4365,1.4365,1.4307,1.4307,1.4238,1.4238,1.4307,0,0,0,0,0,0,0,0,0,0,0,0,0,0,0,0,0,0,0,0,0,0,0,0,0,0,0,0,0,0,0,0
1.252,1.252,1.2568,1.2568,1.2617,1.2617,1.2617,1.2666,1.2666,1.2666,1.2666,1.2666,1.2715,1.2715,1.2715,1.2803,1.2803,1.2852,1.29,1.29,1.29,1.291,1.2959,1.2959,1.2959,1.2959,1.3008,1.3008,1.3057,1.3057,1.3057,1.3057,1.3105,1.3105,1.3105,1.3105,1.3154,1.3154,1.3213,1.3213,1.3262,1.3262,1.3262,1.3262,1.3262,1.3311,1.3311,1.3311,1.3311,1.3369,1.3369,1.3418,1.3418,1.3477,1.3477,1.3477,1.3525,1.3525,1.3525,1.3525,1.3525,1.3525,1.3584,1.3584,1.3643,1.3643,1.3691,1.3691,1.3691,1.3691,1.375,1.375,1.3691,1.375,1.3809,1.3809,1.3916,1.3975,1.3975,1.3916,1.3975,1.3975,1.3975,1.3975,1.4033,1.4033,1.4092,1.4092,1.4092,1.415,1.415,1.4219,1.4219,1.4219,1.4219,1.4277,1.4277,1.4277,1.4336,1.4336,1.4336,1.4395,1.4395,1.4395,1.4395,1.4395,1.4463,1.4463,1.4463,1.4463,1.4463,1.4521,1.4521,1.4521,1.4521,1.458,1.458,1.458,1.4648,1.4648,1.4648,1.4648,1.4717,1.4717,1.4717,1.4717,1.4775,1.4775,1.4775,1.4844,1.4844,1.4844,1.4912,1.4912,1.5039,1.5039,1.5039,1.5039,1.5107,1.5107,1.5107,1.5107,1.5176,1.5176,1.5176,1.5176,1.5176,1.5244,1.5312,1.5312,1.5312,1.5312,1.5312,1.5312,1.5312,1.5381,1.5381,1.5381,1.5381,1.5381,1.5459,1.5459,1.5527,1.5527,1.5527,1.5596,1.5596,1.5596,1.5674,1.5674,1.5674,1.5674,1.5674,1.5674,1.5742,1.5742,1.582,1.582,1.5898,1.5898,1.5898,1.5898,1.5898,1.5898,1.5967,1.5967,1.5967,1.5967,1.5967,1.6045,1.6045,1.6045,1.6045,1.6123,1.6201,1.6201,1.6279,1.6279,1.6279,1.6357,1.6357,1.6357,1.6436,1.6514,1.6514,1.6514,1.6514,1.6602,1.6602,1.6602,1.6602,1.6602,1.6602,1.6523,1.6436,1.6436,1.6523,1.292,1.292,1.2969,1.292,1.292,1.292,1.292,1.2871,1.2871,1.2871,1.2871,1.2822,1.2822,1.2822,1.2822,1.2822,1.2822,1.2822,1.2822,1.2871,1.2822,1.2822,1.2822,1.2822,1.2822,1.2773,1.2773,1.2773,1.2773,1.2822,1.2822,1.2822,1.2871,1.2871,1.2822,1.2822,1.2822,1.2822,1.2822,1.2773,1.2822,1.2773,1.2773,1.2773,1.2773,1.2773,1.2773,1.2773,1.2773,1.2773,1.2773,1.2822,1.2773,1.2773,1.2773,1.2773,1.2773,1.2773,1.2773,1.2773,1.2773,1.2773,1.2773,1.2773,1.2773,1.2773,1.2773,1.2725,1.2725,1.2725,1.2773,1.2773,1.2773,1.2773,1.2822,1.2773,1.2822,1.2822,1.2822,1.2773,1.2822,1.2773,1.2773,1.2773,1.2822,1.2822,1.2822,1.2773,1.2773,1.2773,1.2822,1.2822,1.2822,1.2822,1.2822,1.2822,1.2822,1.2871,1.2822,1.2822,1.2822,1.2832,1.2832,1.2832,1.2832,1.2832,1.2832,1.2832,1.2783,1.2832,1.2783,1.2783,1.2783,1.2783,1.2783,1.2783,1.2783,1.2783,1.2783,1.2783,1.2783,1.2783,1.2783,1.2783,1.2783,1.2783,1.2783,1.2783,1.2783,1.2783,1.2783,1.2783,1.2783,1.2783,1.2783,1.2783,1.2783,1.2783,1.2783,1.2783,1.2783,1.2734,1.2734,1.2783,1.2783,1.2783,1.2783,1.2783,1.2783,1.2783,1.2783,1.2783,1.2783,1.2783,1.2783,1.2783,1.2783,1.2783,1.2783,1.2783,1.2783,1.2783,1.2734,1.2734,1.2734,1.2734,1.2734,1.2734,1.2686,1.2734,1.2734,1.2734,1.2734,1.2686,1.2734,1.2734,1.2734,1.2686,1.2686,1.2686,1.2734,1.2734,1.2686,1.2686,1.2686,1.2686,1.2686,1.2637,1.2637,1.2637,1.2637,0,0,0,0,0,0,0,0,0,0,0,0,0,0,0,0,0,0,0,0,0,0,0,0,0,0,0,1.5068,1.5068,1.4932,1.4863,1.4863,1.4863,1.4805,1.4805,1.4736,1.4736,1.4736,1.4736,1.4668,1.4668,1.4678,1.4678,1.4678,1.4678,1.4678,1.4678,1.4678,1.4609,1.4609,1.4609,1.4551,1.4551,1.4551,1.4551,1.4482,1.4482,1.4482,1.4482,1.4482,1.4424,1.4424,1.4424,1.4424,1.4424,1.4424,1.4424,1.4424,1.4365,1.4365,1.4365,1.4307,1.4307,1.4238,1.4238,1.4307,0,0,0,0,0,0,0,0,0,0,0,0,0,0,0,0,0,0,0,0,0,0,0,0,0,0,0,0,0,0,0,0
1.2568,1.2568,1.2568,1.2617,1.2617,1.2617,1.2617,1.2666,1.2666,1.2666,1.2666,1.2666,1.2715,1.2715,1.2715,1.2803,1.2803,1.2852,1.291,1.291,1.291,1.291,1.291,1.2959,1.2959,1.2959,1.3008,1.3008,1.3057,1.3057,1.3057,1.3057,1.3105,1.3105,1.3105,1.3105,1.3154,1.3154,1.3213,1.3213,1.3262,1.3262,1.3262,1.3311,1.3311,1.3311,1.3311,1.3369,1.3369,1.3369,1.3418,1.3418,1.3418,1.3477,1.3477,1.3477,1.3525,1.3525,1.3525,1.3525,1.3525,1.3525,1.3584,1.3584,1.3643,1.3643,1.3691,1.3691,1.3691,1.3691,1.375,1.375,1.375,1.375,1.3809,1.3916,1.3916,1.3975,1.3975,1.3975,1.3975,1.3975,1.3975,1.3975,1.4033,1.4033,1.4092,1.4092,1.4092,1.415,1.415,1.4219,1.4219,1.4219,1.4219,1.4277,1.4277,1.4277,1.4336,1.4336,1.4395,1.4395,1.4395,1.4395,1.4395,1.4463,1.4463,1.4463,1.4463,1.4463,1.4463,1.4521,1.4521,1.4521,1.4521,1.459,1.459,1.459,1.4648,1.4648,1.4648,1.4648,1.4717,1.4717,1.4717,1.4775,1.4775,1.4775,1.4844,1.4844,1.4844,1.4844,1.4912,1.4912,1.5039,1.5039,1.5039,1.5039,1.5107,1.5107,1.5107,1.5176,1.5176,1.5176,1.5176,1.5176,1.5244,1.5244,1.5312,1.5312,1.5312,1.5381,1.5381,1.5391,1.5391,1.5391,1.5391,1.5391,1.5391,1.5459,1.5459,1.5527,1.5527,1.5527,1.5596,1.5596,1.5596,1.5596,1.5674,1.5674,1.5674,1.5674,1.5674,1.5742,1.5742,1.5742,1.582,1.5898,1.5898,1.5898,1.5898,1.5898,1.5898,1.5898,1.5967,1.5967,1.5967,1.5967,1.5967,1.6045,1.6045,1.6045,1.6045,1.6201,1.6279,1.6279,1.6279,1.6279,1.6357,1.6357,1.6357,1.6436,1.6436,1.6514,1.6523,1.6523,1.6523,1.6602,1.6602,1.6602,1.6602,1.6602,1.6523,1.6523,1.6436,1.2871,1.2871,1.292,1.292,1.292,1.292,1.292,1.292,1.292,1.292,1.2871,1.2871,1.2871,1.2822,1.2822,1.2822,1.2822,1.2822,1.2822,1.2822,1.2822,1.2871,1.2822,1.2822,1.2822,1.2822,1.2822,1.2773,1.2773,1.2773,1.2773,1.2773,1.2773,1.2822,1.2871,1.2871,1.2822,1.2822,1.2822,1.2822,1.2822,1.2773,1.2822,1.2773,1.2822,1.2822,1.2822,1.2773,1.2773,1.2773,1.2773,1.2822,1.2773,1.2773,1.2773,1.2773,1.2773,1.2773,1.2773,1.2773,1.2773,1.2773,1.2773,1.2773,1.2773,1.2773,1.2773,1.2773,1.2773,1.2725,1.2725,1.2725,1.2725,1.2773,1.2773,1.2773,1.2822,1.2773,1.2822,1.2773,1.2773,1.2773,1.2773,1.2773,1.2822,1.2773,1.2822,1.2773,1.2822,1.2773,1.2773,1.2783,1.2822,1.2783,1.2822,1.2822,1.2783,1.2832,1.2832,1.2881,1.2832,1.2832,1.2783,1.2783,1.2832,1.2832,1.2832,1.2832,1.2832,1.2832,1.2832,1.2832,1.2783,1.2783,1.2783,1.2783,1.2783,1.2783,1.2783,1.2783,1.2783,1.2783,1.2783,1.2783,1.2783,1.2783,1.2783,1.2783,1.2783,1.2783,1.2783,1.2783,1.2783,1.2783,1.2783,1.2783,1.2783,1.2783,1.2783,1.2783,1.2783,1.2783,1.2734,1.2734,1.2734,1.2783,1.2783,1.2783,1.2783,1.2783,1.2783,1.2783,1.2783,1.2783,1.2783,1.2783,1.2783,1.2783,1.2783,1.2783,1.2783,1.2783,1.2783,1.2783,1.2734,1.2734,1.2734,1.2734,1.2734,1.2734,1.2686,1.2734,1.2734,1.2734,1.2734,1.2686,1.2734,1.2734,1.2734,1.2686,1.2686,1.2686,1.2734,1.2734,1.2686,1.2686,1.2686,1.2686,1.2686,1.2637,1.2637,1.2646,1.2646,0,0,0,0,0,0,0,0,0,0,0,0,0,0,0,0,0,0,0,0,0,0,0,0,0,0,1.5127,1.5068,1.5068,1.4932,1.4863,1.4863,1.4863,1.4863,1.4805,1.4736,1.4736,1.4805,1.4736,1.4736,1.4678,1.4678,1.4678,1.4678,1.4678,1.4678,1.4678,1.4609,1.4609,1.4609,1.4609,1.4609,1.4551,1.4551,1.4551,1.4551,1.4551,1.4551,1.4482,1.4482,1.4482,1.4424,1.4424,1.4424,1.4424,1.4424,1.4424,1.4424,1.4424,1.4365,1.4365,1.4307,1.4307,1.4238,1.418,1.4248,0,0,0,0,0,0,0,0,0,0,0,0,0,0,0,0,0,0,0,0,0,0,0,0,0,0,0,0,0,0,0,0
1.2568,1.2568,1.2568,1.2617,1.2617,1.2617,1.2617,1.2617,1.2666,1.2666,1.2666,1.2666,1.2715,1.2715,1.2764,1.2812,1.2861,1.2861,1.291,1.291,1.291,1.291,1.2959,1.2959,1.2959,1.2959,1.3008,1.3008,1.3057,1.3057,1.3057,1.3057,1.3105,1.3105,1.3105,1.3154,1.3154,1.3154,1.3213,1.3213,1.3262,1.3262,1.3262,1.3311,1.3311,1.3311,1.3311,1.3369,1.3418,1.3369,1.3418,1.3418,1.3477,1.3477,1.3477,1.3477,1.3525,1.3525,1.3525,1.3584,1.3584,1.3525,1.3584,1.3584,1.3643,1.3643,1.3691,1.3691,1.3691,1.375,1.375,1.375,1.3809,1.3809,1.3867,1.3926,1.3926,1.3975,1.3975,1.3975,1.3975,1.3975,1.3975,1.4033,1.4033,1.4033,1.4092,1.4092,1.416,1.416,1.416,1.4219,1.4219,1.4219,1.4219,1.4277,1.4277,1.4336,1.4336,1.4336,1.4395,1.4395,1.4395,1.4395,1.4463,1.4463,1.4463,1.4463,1.4463,1.4463,1.4463,1.4521,1.4521,1.4521,1.459,1.459,1.4648,1.4648,1.4648,1.4648,1.4717,1.4717,1.4717,1.4717,1.4717,1.4775,1.4775,1.4775,1.4844,1.4844,1.4844,1.4912,1.4912,1.4912,1.5039,1.5039,1.5039,1.5039,1.5107,1.5107,1.5107,1.5176,1.5176,1.5176,1.5244,1.5176,1.5244,1.5312,1.5312,1.5312,1.5312,1.5391,1.5391,1.5391,1.5391,1.5391,1.5391,1.5391,1.5391,1.5459,1.5459,1.5527,1.5527,1.5527,1.5605,1.5605,1.5605,1.5596,1.5674,1.5674,1.5674,1.5674,1.5742,1.5742,1.5742,1.5742,1.582,1.5898,1.5898,1.5898,1.5898,1.5898,1.5967,1.5967,1.5967,1.5967,1.5967,1.5967,1.6045,1.6045,1.6045,1.6123,1.6123,1.6201,1.6279,1.6279,1.6279,1.6279,1.6357,1.6357,1.6357,1.6436,1.6436,1.6523,1.6602,1.6602,1.6602,1.6602,1.6602,1.6602,1.6602,1.6602,1.6602,1.6523,1.6357,1.6523,1.6436,1.292,1.2969,1.2969,1.292,1.292,1.2969,1.292,1.292,1.2871,1.2871,1.2871,1.2822,1.2822,1.2822,1.2822,1.2822,1.2822,1.2822,1.2822,1.2822,1.2822,1.2822,1.2822,1.2822,1.2773,1.2773,1.2773,1.2773,1.2773,1.2773,1.2773,1.2822,1.2871,1.2822,1.2822,1.2871,1.2871,1.2822,1.2822,1.2822,1.2822,1.2773,1.2822,1.2822,1.2773,1.2773,1.2822,1.2822,1.2773,1.2773,1.2773,1.2773,1.2773,1.2773,1.2773,1.2773,1.2773,1.2773,1.2773,1.2773,1.2773,1.2773,1.2773,1.2773,1.2773,1.2773,1.2773,1.2725,1.2725,1.2725,1.2725,1.2725,1.2773,1.2773,1.2773,1.2773,1.2822,1.2773,1.2822,1.2822,1.2822,1.2822,1.2822,1.2783,1.2822,1.2783,1.2822,1.2783,1.2783,1.2783,1.2832,1.2783,1.2832,1.2832,1.2783,1.2783,1.2783,1.2832,1.2832,1.2783,1.2783,1.2783,1.2832,1.2832,1.2832,1.2832,1.2832,1.2832,1.2832,1.2832,1.2783,1.2783,1.2783,1.2783,1.2783,1.2783,1.2783,1.2783,1.2783,1.2783,1.2783,1.2783,1.2783,1.2783,1.2783,1.2783,1.2783,1.2783,1.2783,1.2783,1.2783,1.2783,1.2783,1.2783,1.2783,1.2783,1.2783,1.2783,1.2783,1.2734,1.2734,1.2734,1.2734,1.2783,1.2783,1.2783,1.2783,1.2783,1.2783,1.2832,1.2783,1.2783,1.2783,1.2783,1.2783,1.2783,1.2783,1.2783,1.2783,1.2783,1.2783,1.2783,1.2734,1.2734,1.2734,1.2734,1.2734,1.2734,1.2686,1.2734,1.2734,1.2734,1.2734,1.2734,1.2734,1.2734,1.2734,1.2686,1.2686,1.2686,1.2734,1.2734,1.2734,1.2686,1.2734,1.2734,1.2686,1.2646,1.2646,1.2646,1.2686,0,0,0,0,0,0,0,0,0,0,0,0,0,0,0,0,0,0,0,0,0,0,0,0,0,1.5205,1.5205,1.5137,1.5068,1.5,1.4932,1.4863,1.4863,1.4863,1.4863,1.4805,1.4805,1.4805,1.4736,1.4736,1.4736,1.4736,1.4678,1.4678,1.4678,1.4678,1.4678,1.4678,1.4678,1.4609,1.4609,1.4609,1.4551,1.4551,1.4551,1.4551,1.4551,1.4551,1.4482,1.4482,1.4482,1.4482,1.4424,1.4424,1.4424,1.4424,1.4424,1.4424,1.4424,1.4365,1.4365,1.4307,1.4307,1.4248,1.418,1.4248,0,0,0,0,0,0,0,0,0,0,0,0,0,0,0,0,0,0,0,0,0,0,0,0,0,0,0,0,0,0,0,0
1.2568,1.2568,1.2568,1.2617,1.2617,1.2617,1.2617,1.2666,1.2666,1.2666,1.2715,1.2715,1.2715,1.2715,1.2764,1.2812,1.2861,1.2861,1.291,1.291,1.291,1.291,1.2959,1.2959,1.2959,1.2959,1.3008,1.3057,1.3057,1.3057,1.3057,1.3105,1.3105,1.3105,1.3164,1.3164,1.3164,1.3164,1.3213,1.3213,1.3262,1.3262,1.3262,1.332,1.332,1.332,1.3369,1.3369,1.3418,1.3369,1.3418,1.3418,1.3477,1.3477,1.3477,1.3525,1.3525,1.3525,1.3584,1.3584,1.3584,1.3584,1.3643,1.3643,1.3691,1.3691,1.3691,1.3691,1.3691,1.375,1.375,1.375,1.3809,1.375,1.3809,1.3926,1.3926,1.3975,1.3975,1.3984,1.3984,1.3984,1.4033,1.4033,1.4033,1.4043,1.4043,1.4043,1.4043,1.4102,1.416,1.4219,1.4219,1.4219,1.4219,1.4277,1.4277,1.4277,1.4336,1.4336,1.4336,1.4395,1.4395,1.4395,1.4395,1.4463,1.4463,1.4463,1.4463,1.4463,1.4463,1.4521,1.4521,1.459,1.459,1.459,1.4648,1.4648,1.4648,1.4717,1.4717,1.4717,1.4717,1.4775,1.4775,1.4775,1.4775,1.4844,1.4844,1.4844,1.4844,1.4912,1.4912,1.4912,1.5039,1.5039,1.5039,1.5107,1.5107,1.5107,1.5107,1.5176,1.5176,1.5176,1.5176,1.5244,1.5312,1.5312,1.5312,1.5312,1.5312,1.5391,1.5391,1.5391,1.5391,1.5391,1.5391,1.5391,1.5459,1.5459,1.5527,1.5527,1.5527,1.5605,1.5605,1.5605,1.5605,1.5674,1.5674,1.5674,1.5674,1.5752,1.5752,1.5752,1.5742,1.582,1.5898,1.5898,1.5898,1.5898,1.5898,1.5898,1.5967,1.5967,1.5967,1.5967,1.5967,1.5967,1.6045,1.6045,1.6045,1.6123,1.6123,1.6201,1.6279,1.6279,1.6279,1.6279,1.6357,1.6357,1.6357,1.6436,1.6523,1.6523,1.6602,1.6602,1.6602,1.6602,1.6602,1.6602,1.6602,1.6602,1.6602,1.6523,1.6523,1.6445,1.6445,1.292,1.292,1.292,1.292,1.292,1.2969,1.292,1.292,1.2871,1.2871,1.2871,1.2822,1.2822,1.2822,1.2822,1.2822,1.2822,1.2822,1.2822,1.2822,1.2822,1.2822,1.2822,1.2773,1.2773,1.2773,1.2773,1.2773,1.2773,1.2725,1.2725,1.2773,1.2871,1.2871,1.2822,1.2871,1.2871,1.2871,1.2871,1.2822,1.2822,1.2822,1.2822,1.2822,1.2773,1.2773,1.2822,1.2773,1.2822,1.2773,1.2773,1.2773,1.2773,1.2773,1.2773,1.2773,1.2773,1.2822,1.2773,1.2822,1.2773,1.2822,1.2822,1.2822,1.2822,1.2822,1.2773,1.2734,1.2734,1.2773,1.2734,1.2734,1.2734,1.2773,1.2773,1.2783,1.2822,1.2783,1.2822,1.2822,1.2783,1.2783,1.2832,1.2783,1.2832,1.2783,1.2832,1.2783,1.2783,1.2734,1.2832,1.2832,1.2832,1.2832,1.2783,1.2783,1.2783,1.2783,1.2783,1.2783,1.2783,1.2783,1.2832,1.2832,1.2832,1.2832,1.2832,1.2832,1.2832,1.2832,1.2832,1.2832,1.2832,1.2783,1.2783,1.2783,1.2783,1.2783,1.2783,1.2783,1.2783,1.2783,1.2832,1.2783,1.2783,1.2783,1.2783,1.2783,1.2783,1.2783,1.2783,1.2783,1.2783,1.2783,1.2783,1.2783,1.2783,1.2783,1.2783,1.2783,1.2734,1.2734,1.2783,1.2783,1.2783,1.2783,1.2783,1.2783,1.2783,1.2832,1.2783,1.2783,1.2783,1.2783,1.2783,1.2783,1.2783,1.2783,1.2783,1.2783,1.2783,1.2783,1.2783,1.2783,1.2734,1.2734,1.2734,1.2734,1.2686,1.2686,1.2734,1.2734,1.2734,1.2686,1.2734,1.2686,1.2686,1.2686,1.2686,1.2686,1.2734,1.2734,1.2734,1.2686,1.2686,1.2686,1.2686,1.2646,1.2646,1.2646,0,0,0,0,0,0,0,0,0,0,0,0,0,0,0,0,0,0,0,0,0,0,0,0,0,0,0,1.5205,1.5137,1.5068,1.5,1.4932,1.4863,1.4863,1.4863,1.4863,1.4805,1.4805,1.4805,1.4805,1.4805,1.4736,1.4736,1.4736,1.4678,1.4678,1.4678,1.4678,1.4678,1.4678,1.4609,1.4609,1.4609,1.4551,1.4551,1.4551,1.4551,1.4551,1.4551,1.4551,1.4551,1.4492,1.4492,1.4492,1.4424,1.4424,1.4424,1.4424,1.4424,1.4424,1.4424,1.4365,1.4307,1.4307,1.4307,1.4248,1.4307,0,0,0,0,0,0,0,0,0,0,0,0,0,0,0,0,0,0,0,0,0,0,0,0,0,0,0,0,0,0,0,0
1.2568,1.2568,1.2568,1.2617,1.2617,1.2617,1.2617,1.2666,1.2666,1.2666,1.2666,1.2715,1.2715,1.2715,1.2764,1.2812,1.2861,1.2861,1.2861,1.2861,1.291,1.291,1.2959,1.2959,1.2959,1.3008,1.3057,1.3057,1.3057,1.3105,1.3105,1.3105,1.3105,1.3164,1.3164,1.3164,1.3164,1.3164,1.3213,1.3213,1.3262,1.3262,1.3262,1.332,1.332,1.332,1.3369,1.3369,1.3418,1.3418,1.3418,1.3477,1.3477,1.3477,1.3477,1.3535,1.3535,1.3584,1.3584,1.3584,1.3643,1.3643,1.3643,1.3643,1.3643,1.3691,1.3691,1.3691,1.3691,1.375,1.375,1.3809,1.3809,1.3809,1.3926,1.3984,1.3984,1.3984,1.3984,1.3984,1.3984,1.4043,1.4043,1.4043,1.4043,1.4043,1.4043,1.4043,1.4102,1.4102,1.416,1.416,1.4219,1.4219,1.4277,1.4277,1.4277,1.4277,1.4336,1.4336,1.4336,1.4395,1.4395,1.4395,1.4463,1.4463,1.4463,1.4463,1.4463,1.4463,1.4521,1.4521,1.4521,1.4521,1.459,1.459,1.4648,1.4648,1.4717,1.4717,1.4717,1.4717,1.4775,1.4775,1.4775,1.4775,1.4844,1.4844,1.4844,1.4844,1.4912,1.4912,1.4912,1.4912,1.5039,1.5039,1.5039,1.5107,1.5107,1.5107,1.5107,1.5176,1.5176,1.5244,1.5244,1.5244,1.5312,1.5312,1.5322,1.5322,1.5322,1.5391,1.5391,1.5391,1.5391,1.5391,1.5391,1.5459,1.5459,1.5459,1.5527,1.5527,1.5527,1.5605,1.5605,1.5605,1.5605,1.5674,1.5674,1.5674,1.5674,1.5752,1.5752,1.582,1.582,1.582,1.5898,1.5898,1.5898,1.5898,1.5898,1.5898,1.5977,1.5977,1.5977,1.5977,1.5977,1.6045,1.6045,1.6045,1.6045,1.6123,1.6123,1.6279,1.6279,1.6279,1.6279,1.6279,1.6357,1.6357,1.6357,1.6436,1.6436,1.6523,1.6602,1.6602,1.6602,1.6602,1.6602,1.6602,1.668,1.6602,1.6602,1.6689,1.2969,1.292,1.2969,1.292,1.292,1.292,1.292,1.292,1.2969,1.292,1.292,1.2871,1.2871,1.2871,1.2822,1.2822,1.2822,1.2822,1.2822,1.2822,1.2822,1.2822,1.2822,1.2822,1.2822,1.2773,1.2773,1.2773,1.2773,1.2773,1.2773,1.2725,1.2725,1.2725,1.2773,1.2822,1.2871,1.2822,1.2871,1.2871,1.2871,1.2871,1.2871,1.2822,1.2822,1.2822,1.2822,1.2822,1.2773,1.2822,1.2773,1.2773,1.2822,1.2773,1.2773,1.2822,1.2773,1.2773,1.2822,1.2822,1.2822,1.2822,1.2822,1.2822,1.2822,1.2822,1.2822,1.2822,1.2832,1.2832,1.2783,1.2783,1.2783,1.2783,1.2783,1.2783,1.2783,1.2783,1.2783,1.2832,1.2832,1.2832,1.2832,1.2832,1.2832,1.2832,1.2832,1.2832,1.2783,1.2832,1.2783,1.2783,1.2734,1.2832,1.2832,1.2832,1.2832,1.2783,1.2783,1.2832,1.2832,1.2832,1.2783,1.2783,1.2832,1.2832,1.2832,1.2832,1.2832,1.2832,1.2832,1.2832,1.2832,1.2832,1.2783,1.2783,1.2783,1.2783,1.2783,1.2783,1.2783,1.2783,1.2783,1.2783,1.2783,1.2783,1.2783,1.2783,1.2783,1.2783,1.2783,1.2783,1.2783,1.2783,1.2783,1.2783,1.2783,1.2783,1.2783,1.2783,1.2783,1.2783,1.2783,1.2783,1.2783,1.2783,1.2783,1.2783,1.2783,1.2783,1.2783,1.2783,1.2783,1.2783,1.2783,1.2783,1.2783,1.2783,1.2783,1.2783,1.2783,1.2783,1.2783,1.2783,1.2783,1.2783,1.2783,1.2734,1.2734,1.2734,1.2734,1.2686,1.2686,1.2734,1.2734,1.2734,1.2734,1.2734,1.2686,1.2686,1.2686,1.2686,1.2686,1.2734,1.2734,1.2734,1.2686,1.2686,1.2686,1.2646,1.2646,1.2646,1.2598,0,0,0,0,0,0,0,0,0,0,0,0,0,0,0,0,0,0,0,0,0,0,0,0,0,0,0,1.5205,1.5137,1.5068,1.5,1.4932,1.4932,1.4932,1.4863,1.4873,1.4873,1.4873,1.4805,1.4805,1.4805,1.4736,1.4736,1.4736,1.4736,1.4678,1.4678,1.4678,1.4678,1.4678,1.4609,1.4609,1.4609,1.4609,1.4551,1.4551,1.4551,1.4551,1.4551,1.4551,1.4551,1.4492,1.4492,1.4492,1.4492,1.4424,1.4492,1.4424,1.4424,1.4424,1.4365,1.4365,1.4365,1.4365,1.4307,1.4307,1.4365,0,0,0,0,0,0,0,0,0,0,0,0,0,0,0,0,0,0,0,0,0,0,0,0,0,0,0,0,0,0,0,0
1.2568,1.2568,1.2568,1.2617,1.2617,1.2617,1.2617,1.2617,1.2666,1.2666,1.2666,1.2715,1.2715,1.2715,1.2764,1.2812,1.2861,1.2861,1.2861,1.291,1.291,1.291,1.2959,1.2959,1.3008,1.3008,1.3057,1.3057,1.3057,1.3105,1.3105,1.3105,1.3105,1.3164,1.3164,1.3164,1.3164,1.3213,1.3213,1.3262,1.3262,1.3262,1.332,1.332,1.332,1.332,1.3369,1.3369,1.3428,1.3428,1.3428,1.3477,1.3477,1.3535,1.3477,1.3535,1.3535,1.3584,1.3584,1.3584,1.3643,1.3643,1.3643,1.3643,1.3701,1.3701,1.3701,1.375,1.3701,1.375,1.375,1.3809,1.375,1.3809,1.3926,1.3984,1.3984,1.3984,1.3984,1.4043,1.4043,1.4043,1.4043,1.4043,1.4043,1.4043,1.4043,1.4102,1.4102,1.416,1.416,1.416,1.4219,1.4219,1.4277,1.4277,1.4277,1.4277,1.4336,1.4336,1.4336,1.4404,1.4404,1.4404,1.4463,1.4463,1.4463,1.4521,1.4521,1.4521,1.4521,1.4521,1.4521,1.459,1.459,1.459,1.4648,1.4648,1.4717,1.4717,1.4717,1.4717,1.4775,1.4775,1.4775,1.4775,1.4844,1.4844,1.4844,1.4912,1.4912,1.4912,1.4912,1.498,1.5039,1.5049,1.5049,1.5107,1.5107,1.5107,1.5107,1.5176,1.5176,1.5176,1.5244,1.5244,1.5322,1.5322,1.5322,1.5322,1.5322,1.5391,1.5391,1.5391,1.5391,1.5391,1.5459,1.5459,1.5459,1.5527,1.5527,1.5527,1.5605,1.5605,1.5605,1.5605,1.5605,1.5674,1.5674,1.5674,1.5674,1.5752,1.5752,1.582,1.582,1.582,1.5898,1.5898,1.5898,1.5898,1.5898,1.5977,1.5977,1.5977,1.5977,1.5977,1.5977,1.6045,1.6045,1.6123,1.6045,1.6123,1.6123,1.6279,1.6279,1.6279,1.6279,1.6279,1.6357,1.6357,1.6436,1.6445,1.6445,1.6523,1.6602,1.6602,1.6602,1.6602,1.6689,1.6689,1.6689,1.6689,1.6602,1.6689,1.6602,1.292,1.292,1.292,1.292,1.292,1.292,1.292,1.2969,1.292,1.292,1.2871,1.2871,1.2871,1.2822,1.2822,1.2822,1.2822,1.2822,1.2822,1.2822,1.2822,1.2822,1.2822,1.2822,1.2822,1.2773,1.2773,1.2773,1.2725,1.2773,1.2725,1.2725,1.2725,1.2725,1.2822,1.2871,1.2822,1.2871,1.2871,1.2871,1.2822,1.2822,1.2822,1.2822,1.2822,1.2822,1.2822,1.2822,1.2822,1.2773,1.2773,1.2773,1.2773,1.2773,1.2822,1.2822,1.2822,1.2822,1.2822,1.2822,1.2832,1.2832,1.2832,1.2832,1.2832,1.2832,1.2832,1.2832,1.2832,1.2832,1.2783,1.2832,1.2783,1.2783,1.2783,1.2783,1.2783,1.2832,1.2832,1.2832,1.2832,1.2832,1.2832,1.2832,1.2832,1.2832,1.2832,1.2783,1.2783,1.2783,1.2783,1.2734,1.2783,1.2832,1.2832,1.2832,1.2832,1.2783,1.2832,1.2832,1.2783,1.2783,1.2783,1.2783,1.2832,1.2832,1.2832,1.2832,1.2832,1.2832,1.2832,1.2832,1.2832,1.2783,1.2783,1.2783,1.2783,1.2783,1.2783,1.2783,1.2783,1.2783,1.2783,1.2783,1.2783,1.2783,1.2783,1.2783,1.2783,1.2783,1.2783,1.2783,1.2783,1.2783,1.2783,1.2783,1.2783,1.2783,1.2783,1.2783,1.2783,1.2783,1.2783,1.2783,1.2783,1.2783,1.2783,1.2783,1.2783,1.2783,1.2783,1.2832,1.2783,1.2783,1.2783,1.2783,1.2783,1.2783,1.2783,1.2783,1.2783,1.2783,1.2783,1.2783,1.2783,1.2783,1.2783,1.2783,1.2734,1.2734,1.2686,1.2734,1.2734,1.2734,1.2734,1.2734,1.2734,1.2686,1.2686,1.2686,1.2686,1.2734,1.2734,1.2734,1.2695,1.2695,1.2695,1.2695,1.2646,1.2646,1.2646,1.2646,1.2646,0,0,0,0,0,0,0,0,0,0,0,0,0,0,0,0,0,0,0,0,0,0,0,0,0,0,0,1.5068,1.5,1.5,1.4932,1.4932,1.4932,1.4932,1.4873,1.4873,1.4873,1.4873,1.4805,1.4805,1.4736,1.4736,1.4736,1.4736,1.4678,1.4678,1.4678,1.4678,1.4678,1.4609,1.4609,1.4609,1.4609,1.4551,1.4551,1.4551,1.4551,1.4551,1.4551,1.4551,1.4492,1.4492,1.4492,1.4492,1.4492,1.4492,1.4424,1.4424,1.4424,1.4365,1.4365,1.4365,1.4365,1.4307,1.4307,1.4365,0,0,0,0,0,0,0,0,0,0,0,0,0,0,0,0,0,0,0,0,0,0,0,0,0,0,0,0,0,0,0,0
1.2568,1.2568,1.2617,1.2617,1.2617,1.2617,1.2617,1.2666,1.2666,1.2666,1.2666,1.2715,1.2715,1.2715,1.2764,1.2861,1.2861,1.2861,1.2861,1.291,1.291,1.291,1.2959,1.2959,1.3008,1.3008,1.3057,1.3057,1.3057,1.3105,1.3105,1.3105,1.3105,1.3164,1.3164,1.3164,1.3213,1.3213,1.3262,1.3262,1.3262,1.332,1.332,1.332,1.332,1.3369,1.3369,1.3428,1.3428,1.3428,1.3428,1.3477,1.3477,1.3535,1.3477,1.3535,1.3477,1.3584,1.3584,1.3584,1.3643,1.3643,1.3643,1.3701,1.3701,1.3701,1.3701,1.3701,1.3701,1.375,1.375,1.375,1.375,1.3809,1.3926,1.3984,1.3984,1.3984,1.3984,1.4043,1.4043,1.4043,1.4043,1.4043,1.4043,1.4043,1.4043,1.4102,1.4102,1.416,1.416,1.4219,1.4219,1.4219,1.4277,1.4277,1.4277,1.4277,1.4336,1.4336,1.4336,1.4404,1.4404,1.4404,1.4463,1.4463,1.4463,1.4463,1.4521,1.4521,1.4521,1.4521,1.4521,1.459,1.459,1.459,1.4648,1.4648,1.4717,1.4717,1.4717,1.4775,1.4775,1.4775,1.4785,1.4785,1.4844,1.4844,1.4844,1.4912,1.4912,1.4912,1.4912,1.498,1.5049,1.5049,1.5107,1.5107,1.5107,1.5107,1.5117,1.5176,1.5176,1.5176,1.5254,1.5254,1.5322,1.5322,1.5322,1.5322,1.5322,1.5391,1.5391,1.5391,1.5391,1.5459,1.5459,1.5527,1.5527,1.5527,1.5527,1.5605,1.5605,1.5605,1.5605,1.5605,1.5605,1.5674,1.5674,1.5674,1.5674,1.5674,1.5752,1.5752,1.582,1.582,1.5898,1.5898,1.5898,1.5898,1.5977,1.5977,1.5977,1.5977,1.5977,1.5977,1.5977,1.6055,1.6123,1.6123,1.6123,1.6123,1.6123,1.6279,1.6279,1.6279,1.6279,1.6357,1.6357,1.6357,1.6445,1.6445,1.6445,1.6523,1.6523,1.6602,1.6602,1.6602,1.6602,1.6689,1.6689,1.6602,1.6689,1.6689,0,1.292,1.2969,1.2969,1.292,1.292,1.292,1.292,1.292,1.292,1.292,1.2871,1.2871,1.2871,1.2871,1.2822,1.2822,1.2822,1.2822,1.2822,1.2822,1.2822,1.2822,1.2822,1.2822,1.2822,1.2773,1.2773,1.2773,1.2725,1.2725,1.2725,1.2725,1.2725,1.2725,1.2822,1.2822,1.2871,1.2871,1.2871,1.2871,1.2871,1.2822,1.2822,1.2822,1.2871,1.2871,1.2822,1.2822,1.2822,1.2783,1.2783,1.2783,1.2783,1.2783,1.2832,1.2832,1.2832,1.2832,1.2832,1.2832,1.2832,1.2832,1.2832,1.2832,1.2832,1.2832,1.2832,1.2832,1.2832,1.2832,1.2832,1.2832,1.2832,1.2832,1.2783,1.2783,1.2832,1.2832,1.2832,1.2832,1.2881,1.2832,1.2832,1.2832,1.2881,1.2832,1.2832,1.2832,1.2832,1.2783,1.2783,1.2783,1.2832,1.2832,1.2832,1.2832,1.2832,1.2832,1.2832,1.2783,1.2783,1.2783,1.2783,1.2783,1.2832,1.2832,1.2783,1.2832,1.2832,1.2832,1.2832,1.2832,1.2832,1.2783,1.2783,1.2783,1.2783,1.2783,1.2783,1.2783,1.2783,1.2783,1.2783,1.2783,1.2783,1.2783,1.2783,1.2783,1.2783,1.2783,1.2783,1.2783,1.2783,1.2783,1.2783,1.2783,1.2783,1.2783,1.2783,1.2783,1.2783,1.2783,1.2734,1.2783,1.2783,1.2783,1.2783,1.2783,1.2783,1.2783,1.2783,1.2832,1.2783,1.2783,1.2783,1.2783,1.2783,1.2783,1.2783,1.2783,1.2783,1.2783,1.2783,1.2783,1.2783,1.2783,1.2783,1.2734,1.2734,1.2734,1.2686,1.2734,1.2734,1.2734,1.2734,1.2734,1.2734,1.2734,1.2734,1.2695,1.2695,1.2695,1.2695,1.2695,1.2695,1.2695,1.2695,1.2646,1.2646,1.2646,1.2646,1.2646,1.2646,1.2598,0,0,0,0,0,0,0,0,0,0,0,0,0,0,0,0,0,0,0,0,0,0,0,0,0,0,1.5068,1.5,1.5,1.4932,1.4932,1.4932,1.4932,1.4873,1.4873,1.4873,1.4873,1.4805,1.4736,1.4736,1.4736,1.4736,1.4678,1.4678,1.4678,1.4678,1.4678,1.4678,1.4678,1.4609,1.4609,1.4609,1.4609,1.4551,1.4609,1.4551,1.4551,1.4551,1.4551,1.4551,1.4551,1.4492,1.4492,1.4424,1.4424,1.4424,1.4424,1.4424,1.4424,1.4365,1.4365,1.4365,1.4307,1.4307,1.4365,0,0,0,0,0,0,0,0,0,0,0,0,0,0,0,0,0,0,0,0,0,0,0,0,0,0,0,0,0,0,0,0
1.2568,1.2617,1.2617,1.2617,1.2617,1.2617,1.2617,1.2666,1.2666,1.2666,1.2666,1.2715,1.2715,1.2764,1.2764,1.2861,1.2861,1.291,1.291,1.291,1.291,1.291,1.2959,1.2959,1.3008,1.3008,1.3057,1.3057,1.3057,1.3105,1.3105,1.3105,1.3105,1.3164,1.3164,1.3164,1.3213,1.3213,1.3262,1.3262,1.3262,1.332,1.332,1.3369,1.332,1.3369,1.3369,1.3428,1.3428,1.3428,1.3428,1.3477,1.3477,1.3535,1.3535,1.3535,1.3535,1.3584,1.3584,1.3584,1.3584,1.3643,1.3643,1.3701,1.3701,1.3701,1.3701,1.375,1.375,1.375,1.375,1.3809,1.3809,1.3867,1.3926,1.3984,1.3984,1.3984,1.3984,1.4043,1.4043,1.4043,1.4043,1.4043,1.4043,1.4043,1.4043,1.4102,1.4102,1.416,1.4219,1.4219,1.4219,1.4277,1.4277,1.4277,1.4336,1.4336,1.4336,1.4336,1.4336,1.4404,1.4404,1.4463,1.4463,1.4463,1.4463,1.4521,1.4521,1.4521,1.4521,1.4521,1.459,1.459,1.4648,1.4648,1.4648,1.4648,1.4717,1.4717,1.4717,1.4717,1.4785,1.4785,1.4785,1.4785,1.4844,1.4844,1.4844,1.4912,1.4912,1.4912,1.498,1.498,1.5049,1.5049,1.5117,1.5117,1.5117,1.5117,1.5186,1.5186,1.5186,1.5254,1.5254,1.5254,1.5322,1.5322,1.5322,1.5322,1.5322,1.5391,1.5391,1.5391,1.5391,1.5459,1.5459,1.5459,1.5527,1.5527,1.5605,1.5605,1.5605,1.5605,1.5605,1.5605,1.5674,1.5674,1.5674,1.5674,1.5752,1.5752,1.5752,1.582,1.582,1.582,1.5898,1.5898,1.5898,1.5977,1.5977,1.5977,1.5977,1.5977,1.5977,1.6055,1.6055,1.6055,1.6123,1.6123,1.6123,1.6201,1.6201,1.6279,1.6279,1.6279,1.6367,1.6367,1.6367,1.6357,1.6445,1.6445,1.6523,1.6523,1.6523,1.6602,1.6602,1.6602,1.6602,1.6689,1.6689,1.6689,1.6689,1.6689,0,0,1.2969,1.2969,1.292,1.292,1.2969,1.292,1.2969,1.292,1.292,1.2871,1.2871,1.2871,1.2871,1.2871,1.2822,1.2822,1.2822,1.2822,1.2822,1.2822,1.2773,1.2773,1.2822,1.2822,1.2822,1.2773,1.2773,1.2773,1.2773,1.2725,1.2734,1.2734,1.2773,1.2822,1.2871,1.2822,1.2871,1.2871,1.2871,1.2871,1.2871,1.2871,1.2822,1.2871,1.2881,1.2832,1.2832,1.2832,1.2783,1.2783,1.2783,1.2783,1.2832,1.2832,1.2832,1.2832,1.2832,1.2832,1.2832,1.2832,1.2832,1.2832,1.2832,1.2832,1.2881,1.2881,1.2832,1.2832,1.2832,1.2832,1.2832,1.2832,1.2832,1.2832,1.2832,1.2832,1.2881,1.2881,1.2881,1.2881,1.2881,1.2881,1.2881,1.2881,1.2881,1.2832,1.2832,1.2832,1.2832,1.2832,1.2832,1.2832,1.2832,1.2832,1.2881,1.2832,1.2832,1.2832,1.2783,1.2783,1.2783,1.2783,1.2783,1.2832,1.2832,1.2832,1.2783,1.2783,1.2832,1.2783,1.2783,1.2783,1.2783,1.2783,1.2783,1.2783,1.2783,1.2783,1.2783,1.2783,1.2783,1.2783,1.2783,1.2783,1.2783,1.2783,1.2783,1.2783,1.2783,1.2783,1.2783,1.2783,1.2783,1.2783,1.2783,1.2783,1.2783,1.2734,1.2734,1.2734,1.2734,1.2734,1.2734,1.2734,1.2783,1.2783,1.2783,1.2783,1.2783,1.2783,1.2783,1.2783,1.2783,1.2783,1.2783,1.2783,1.2783,1.2783,1.2783,1.2783,1.2783,1.2783,1.2783,1.2783,1.2783,1.2783,1.2734,1.2734,1.2734,1.2695,1.2734,1.2734,1.2734,1.2734,1.2734,1.2695,1.2695,1.2734,1.2695,1.2646,1.2695,1.2646,1.2695,1.2695,1.2695,1.2695,1.2646,1.2646,1.2646,1.2646,1.2598,1.2646,1.2598,0,0,0,0,0,0,0,0,0,0,0,0,0,0,0,0,0,0,0,0,0,0,0,0,0,1.5068,1.5068,1.5068,1.5,1.4932,1.4932,1.4932,1.4932,1.4873,1.4873,1.4873,1.4873,1.4805,1.4736,1.4736,1.4678,1.4678,1.4678,1.4678,1.4678,1.4678,1.4678,1.4678,1.4678,1.4619,1.4619,1.4619,1.4551,1.4551,1.4551,1.4551,1.4551,1.4492,1.4492,1.4492,1.4492,1.4492,1.4492,1.4492,1.4424,1.4434,1.4434,1.4434,1.4434,1.4365,1.4365,1.4365,1.4307,1.4307,1.4365,0,0,0,0,0,0,0,0,0,0,0,0,0,0,0,0,0,0,0,0,0,0,0,0,0,0,0,0,0,0,0,0
1.2617,1.2617,1.2617,1.2617,1.2617,1.2617,1.2666,1.2666,1.2666,1.2666,1.2715,1.2715,1.2715,1.2764,1.2764,1.2861,1.2861,1.291,1.291,1.291,1.291,1.291,1.2959,1.3008,1.3008,1.3057,1.3057,1.3057,1.3115,1.3115,1.3115,1.3115,1.3115,1.3164,1.3164,1.3213,1.3213,1.3213,1.3262,1.3262,1.332,1.332,1.332,1.3369,1.3369,1.3428,1.3428,1.3428,1.3428,1.3428,1.3477,1.3477,1.3535,1.3535,1.3535,1.3535,1.3535,1.3584,1.3535,1.3584,1.3584,1.3584,1.3701,1.3701,1.3701,1.3701,1.375,1.375,1.375,1.375,1.375,1.3809,1.3809,1.3867,1.3984,1.3984,1.3984,1.3984,1.3984,1.4043,1.4043,1.4043,1.4043,1.4043,1.4043,1.4043,1.4043,1.4102,1.416,1.416,1.4219,1.4219,1.4219,1.4277,1.4277,1.4277,1.4336,1.4336,1.4336,1.4336,1.4404,1.4404,1.4463,1.4463,1.4463,1.4463,1.4463,1.4531,1.4531,1.4521,1.4521,1.459,1.459,1.459,1.4648,1.4648,1.4648,1.4717,1.4717,1.4717,1.4717,1.4717,1.4785,1.4785,1.4785,1.4785,1.4844,1.4844,1.4912,1.4912,1.4912,1.498,1.498,1.498,1.5049,1.5117,1.5117,1.5117,1.5117,1.5117,1.5186,1.5186,1.5186,1.5186,1.5254,1.5254,1.5322,1.5322,1.5322,1.5322,1.5391,1.5391,1.5391,1.5391,1.5391,1.5459,1.5459,1.5459,1.5527,1.5527,1.5605,1.5605,1.5605,1.5605,1.5605,1.5605,1.5674,1.5674,1.5674,1.5674,1.5752,1.5752,1.582,1.582,1.5898,1.5898,1.5898,1.5977,1.5977,1.5977,1.5977,1.5977,1.5977,1.5977,1.6055,1.6055,1.6055,1.6123,1.6133,1.6201,1.6133,1.6201,1.6201,1.6279,1.6279,1.6279,1.6367,1.6367,1.6367,1.6367,1.6445,1.6523,1.6523,1.6523,1.6602,1.6602,1.6602,1.6602,1.6689,1.6689,1.6689,1.6689,1.6689,1.6768,0,0,0,1.2969,1.2969,1.2969,1.2969,1.2969,1.2969,1.292,1.2871,1.2871,1.2871,1.2871,1.2871,1.2871,1.2822,1.2822,1.2871,1.2822,1.2822,1.2822,1.2773,1.2822,1.2822,1.2822,1.2822,1.2773,1.2773,1.2773,1.2773,1.2773,1.2773,1.2773,1.2773,1.2822,1.2871,1.2871,1.2871,1.2881,1.2881,1.2881,1.2881,1.2881,1.2832,1.2881,1.2881,1.2881,1.2832,1.2832,1.2783,1.2832,1.2783,1.2783,1.2832,1.2832,1.2832,1.2832,1.2832,1.2832,1.2832,1.2832,1.2832,1.2832,1.2832,1.2832,1.2832,1.2881,1.2881,1.2832,1.2832,1.2832,1.2832,1.2832,1.2832,1.2832,1.2832,1.2832,1.2881,1.2881,1.2881,1.2881,1.2881,1.2881,1.2881,1.2881,1.2881,1.2881,1.2832,1.2881,1.2832,1.2832,1.2832,1.2881,1.2881,1.2881,1.2832,1.2832,1.2832,1.2783,1.2832,1.2783,1.2783,1.2783,1.2832,1.2832,1.2832,1.2832,1.2783,1.2783,1.2783,1.2783,1.2783,1.2783,1.2783,1.2783,1.2783,1.2783,1.2783,1.2783,1.2783,1.2783,1.2783,1.2783,1.2783,1.2783,1.2783,1.2783,1.2783,1.2783,1.2783,1.2783,1.2783,1.2783,1.2783,1.2783,1.2783,1.2783,1.2783,1.2734,1.2734,1.2783,1.2783,1.2734,1.2734,1.2734,1.2734,1.2734,1.2734,1.2734,1.2734,1.2734,1.2783,1.2783,1.2783,1.2783,1.2783,1.2783,1.2783,1.2783,1.2783,1.2783,1.2783,1.2783,1.2783,1.2783,1.2783,1.2734,1.2734,1.2734,1.2734,1.2734,1.2734,1.2734,1.2734,1.2734,1.2744,1.2695,1.2695,1.2695,1.2646,1.2646,1.2646,1.2646,1.2695,1.2695,1.2695,1.2695,1.2646,1.2646,1.2646,1.2646,1.2646,1.2646,1.2646,0,0,0,0,0,0,0,0,0,0,0,0,0,0,0,0,0,0,0,0,0,0,0,0,1.5,0,1.5,1.5,1.4932,1.4932,1.4932,1.4932,1.4932,1.4873,1.4873,1.4873,1.4873,1.4805,1.4746,1.4746,1.4746,1.4678,1.4678,1.4678,1.4678,1.4678,1.4619,1.4678,1.4619,1.4619,1.4619,1.4619,1.4551,1.4551,1.4551,1.4551,1.4551,1.4551,1.4492,1.4492,1.4551,1.4492,1.4492,1.4492,1.4492,1.4434,1.4434,1.4434,1.4434,1.4365,1.4365,1.4365,1.4365,1.4365,1.4365,0,0,0,0,0,0,0,0,0,0,0,0,0,0,0,0,0,0,0,0,0,0,0,0,0,0,0,0,0,0,0,0
1.2617,1.2617,1.2617,1.2617,1.2617,1.2617,1.2666,1.2666,1.2666,1.2666,1.2715,1.2715,1.2764,1.2764,1.2764,1.2861,1.291,1.291,1.291,1.291,1.291,1.2959,1.2959,1.3008,1.3057,1.3057,1.3057,1.3115,1.3115,1.3115,1.3115,1.3115,1.3164,1.3164,1.3164,1.3213,1.3213,1.3262,1.3262,1.3262,1.332,1.332,1.332,1.3369,1.3369,1.3428,1.3428,1.3428,1.3428,1.3428,1.3477,1.3477,1.3535,1.3535,1.3535,1.3535,1.3535,1.3584,1.3535,1.3643,1.3643,1.3701,1.3701,1.3701,1.3701,1.3701,1.375,1.375,1.375,1.3809,1.3809,1.3809,1.3809,1.3867,1.3926,1.3984,1.3984,1.4043,1.4043,1.4043,1.4043,1.4043,1.4102,1.4043,1.4043,1.4043,1.4043,1.4102,1.416,1.416,1.4219,1.4219,1.4277,1.4277,1.4277,1.4277,1.4346,1.4346,1.4346,1.4346,1.4404,1.4404,1.4404,1.4463,1.4463,1.4463,1.4463,1.4531,1.4531,1.4531,1.459,1.459,1.4658,1.4658,1.4717,1.4717,1.4717,1.4717,1.4717,1.4717,1.4717,1.4717,1.4785,1.4785,1.4785,1.4785,1.4844,1.4844,1.4912,1.4912,1.4912,1.498,1.498,1.498,1.5049,1.5117,1.5117,1.5117,1.5117,1.5117,1.5186,1.5186,1.5186,1.5254,1.5254,1.5254,1.5322,1.5322,1.5322,1.5322,1.5391,1.5391,1.5391,1.5391,1.5459,1.5459,1.5459,1.5537,1.5537,1.5605,1.5605,1.5605,1.5605,1.5605,1.5605,1.5605,1.5674,1.5674,1.5674,1.5674,1.5752,1.582,1.5898,1.5898,1.5898,1.5898,1.5977,1.5977,1.5977,1.5977,1.5977,1.5977,1.5977,1.5977,1.6055,1.6055,1.6055,1.6133,1.6201,1.6211,1.6133,1.6211,1.6211,1.6289,1.6289,1.6367,1.6367,1.6367,1.6445,1.6445,1.6523,1.6523,1.6523,1.6602,1.6602,1.6602,1.6689,1.6689,1.6689,1.6689,1.6689,1.6689,1.6768,0,0,0,0,1.2969,1.2969,1.2969,1.2969,1.2969,1.2979,1.292,1.292,1.2871,1.2871,1.2871,1.2871,1.2871,1.2822,1.2822,1.2822,1.2822,1.2822,1.2822,1.2783,1.2822,1.2822,1.2822,1.2822,1.2822,1.2822,1.2822,1.2783,1.2783,1.2783,1.2734,1.2783,1.2832,1.2881,1.2881,1.2881,1.2881,1.2881,1.2881,1.2881,1.2881,1.2881,1.2881,1.2881,1.2881,1.2881,1.2881,1.2881,1.2832,1.2832,1.2783,1.2832,1.2832,1.2832,1.2832,1.2832,1.2832,1.2832,1.2832,1.2832,1.2832,1.2832,1.2881,1.2832,1.2832,1.2832,1.2832,1.2832,1.2832,1.2832,1.2832,1.2832,1.2832,1.2832,1.2832,1.2881,1.2881,1.2881,1.2881,1.2881,1.2881,1.2881,1.2881,1.2881,1.2881,1.2832,1.2881,1.2832,1.2832,1.2832,1.2881,1.2881,1.2881,1.2881,1.2832,1.2832,1.2832,1.2832,1.2783,1.2783,1.2832,1.2832,1.2832,1.2832,1.2832,1.2783,1.2783,1.2783,1.2783,1.2783,1.2783,1.2783,1.2783,1.2783,1.2783,1.2783,1.2783,1.2783,1.2783,1.2783,1.2783,1.2783,1.2783,1.2783,1.2783,1.2783,1.2783,1.2783,1.2783,1.2783,1.2734,1.2783,1.2783,1.2783,1.2734,1.2734,1.2734,1.2734,1.2783,1.2734,1.2734,1.2734,1.2734,1.2783,1.2734,1.2734,1.2734,1.2734,1.2734,1.2783,1.2783,1.2783,1.2783,1.2783,1.2783,1.2783,1.2783,1.2783,1.2783,1.2783,1.2783,1.2783,1.2783,1.2744,1.2744,1.2744,1.2744,1.2744,1.2695,1.2695,1.2744,1.2744,1.2744,1.2744,1.2695,1.2695,1.2695,1.2646,1.2646,1.2646,1.2646,1.2646,1.2695,1.2695,1.2646,1.2646,1.2646,1.2646,1.2646,1.2646,1.2646,0,0,0,0,0,0,0,0,0,0,0,0,0,0,0,0,0,0,0,0,0,0,0,0,0,1.4941,1.4941,1.4941,1.5,1.4941,1.4941,1.4941,1.4941,1.4941,1.4873,1.4873,1.4873,1.4805,1.4805,1.4746,1.4678,1.4746,1.4678,1.4678,1.4678,1.4678,1.4678,1.4619,1.4619,1.4619,1.4619,1.4619,1.4619,1.4619,1.4551,1.4551,1.4551,1.4551,1.4551,1.4551,1.4492,1.4551,1.4492,1.4492,1.4492,1.4492,1.4434,1.4434,1.4434,1.4434,1.4434,1.4434,1.4365,1.4365,1.4365,1.4365,0,0,0,0,0,0,0,0,0,0,0,0,0,0,0,0,0,0,0,0,0,0,0,0,0,0,0,0,0,0,0,0
1.2617,1.2617,1.2617,1.2617,1.2617,1.2617,1.2666,1.2666,1.2666,1.2666,1.2715,1.2764,1.2764,1.2764,1.2812,1.291,1.291,1.291,1.291,1.291,1.2959,1.2959,1.2959,1.3008,1.3057,1.3057,1.3057,1.3115,1.3115,1.3115,1.3115,1.3115,1.3164,1.3164,1.3213,1.3213,1.3213,1.3271,1.3271,1.3271,1.332,1.332,1.3369,1.3369,1.3369,1.3428,1.3428,1.3428,1.3428,1.3428,1.3477,1.3535,1.3535,1.3535,1.3535,1.3535,1.3535,1.3584,1.3535,1.3584,1.3643,1.3643,1.3701,1.3701,1.3701,1.3701,1.376,1.376,1.376,1.376,1.3809,1.3867,1.3867,1.3926,1.3984,1.3984,1.3984,1.3984,1.4043,1.4043,1.4043,1.4043,1.4102,1.4102,1.4102,1.4102,1.4102,1.4102,1.416,1.4219,1.4277,1.4277,1.4277,1.4277,1.4277,1.4346,1.4346,1.4346,1.4346,1.4404,1.4404,1.4404,1.4463,1.4463,1.4463,1.4463,1.4531,1.4531,1.4531,1.4531,1.459,1.459,1.4658,1.4658,1.4658,1.4717,1.4717,1.4717,1.4717,1.4717,1.4717,1.4785,1.4785,1.4785,1.4785,1.4785,1.4844,1.4912,1.4912,1.4912,1.498,1.498,1.498,1.498,1.5049,1.5117,1.5117,1.5117,1.5186,1.5186,1.5186,1.5186,1.5186,1.5254,1.5254,1.5254,1.5322,1.5322,1.5322,1.5391,1.5391,1.5391,1.5391,1.5391,1.5459,1.5459,1.5459,1.5537,1.5537,1.5605,1.5605,1.5605,1.5605,1.5605,1.5674,1.5605,1.5674,1.5674,1.5674,1.5752,1.583,1.583,1.5898,1.5898,1.5898,1.5898,1.5977,1.5977,1.5977,1.5977,1.6055,1.5977,1.6055,1.6055,1.6055,1.6055,1.6055,1.6133,1.6211,1.6211,1.6133,1.6211,1.6211,1.6289,1.6367,1.6367,1.6367,1.6445,1.6445,1.6445,1.6523,1.6602,1.6602,1.6602,1.6611,1.6611,1.6689,1.6689,1.6689,1.6689,1.6689,1.6689,1.6689,0,0,0,0,1.292,1.2979,1.3027,1.2979,1.2979,1.2979,1.292,1.2871,1.2871,1.2871,1.2871,1.2871,1.2871,1.2871,1.2871,1.2881,1.2832,1.2832,1.2832,1.2832,1.2832,1.2832,1.2832,1.2832,1.2832,1.2832,1.2832,1.2832,1.2783,1.2783,1.2783,1.2783,1.2832,1.2881,1.2881,1.2881,1.2881,1.2881,1.2881,1.2881,1.2881,1.2881,1.2881,1.2881,1.2881,1.2881,1.2881,1.2881,1.2881,1.2832,1.2832,1.2832,1.2832,1.2832,1.2881,1.2832,1.2832,1.2881,1.2832,1.2881,1.2832,1.2881,1.2832,1.2832,1.2832,1.2881,1.2832,1.2832,1.2832,1.2832,1.2832,1.2832,1.2832,1.2881,1.2881,1.2881,1.2881,1.2881,1.2881,1.2881,1.2881,1.2881,1.2881,1.2881,1.2881,1.2832,1.2832,1.2832,1.2832,1.2832,1.2881,1.2881,1.2881,1.2881,1.2832,1.2832,1.2783,1.2832,1.2783,1.2783,1.2783,1.2783,1.2832,1.2832,1.2832,1.2783,1.2783,1.2783,1.2783,1.2783,1.2783,1.2783,1.2783,1.2783,1.2783,1.2783,1.2783,1.2783,1.2783,1.2783,1.2783,1.2783,1.2783,1.2783,1.2783,1.2783,1.2783,1.2783,1.2783,1.2783,1.2734,1.2734,1.2783,1.2783,1.2734,1.2734,1.2734,1.2734,1.2783,1.2734,1.2734,1.2734,1.2734,1.2783,1.2734,1.2734,1.2734,1.2734,1.2734,1.2783,1.2783,1.2783,1.2783,1.2783,1.2783,1.2783,1.2783,1.2783,1.2783,1.2783,1.2783,1.2793,1.2744,1.2744,1.2744,1.2744,1.2744,1.2744,1.2695,1.2695,1.2744,1.2744,1.2695,1.2695,1.2695,1.2695,1.2695,1.2646,1.2646,1.2646,1.2646,1.2646,1.2646,1.2646,1.2646,1.2646,1.2646,1.2646,1.2598,1.2598,1.2598,1.2598,0,0,0,0,0,0,0,0,0,0,0,0,0,0,0,0,0,0,0,0,0,0,0,0,1.4941,1.5,1.5,1.5,1.4941,1.4941,1.4873,1.4873,1.4873,1.4873,1.4873,1.4873,1.4805,1.4805,1.4746,1.4678,1.4678,1.4678,1.4678,1.4678,1.4678,1.4678,1.4619,1.4619,1.4619,1.4619,1.4619,1.4619,1.4619,1.4619,1.4551,1.4551,1.4551,1.4551,1.4551,1.4492,1.4551,1.4492,1.4492,1.4492,1.4492,1.4434,1.4434,1.4434,1.4434,1.4434,1.4434,1.4434,1.4365,1.4365,1.4434,0,0,0,0,0,0,0,0,0,0,0,0,0,0,0,0,0,0,0,0,0,0,0,0,0,0,0,0,0,0,0,0
1.2617,1.2617,1.2617,1.2617,1.2617,1.2666,1.2666,1.2666,1.2666,1.2715,1.2715,1.2764,1.2764,1.2764,1.2812,1.291,1.291,1.291,1.291,1.291,1.2959,1.2959,1.3008,1.3008,1.3057,1.3057,1.3057,1.3115,1.3115,1.3115,1.3115,1.3115,1.3115,1.3164,1.3164,1.3213,1.3213,1.3271,1.3271,1.3271,1.332,1.332,1.3369,1.3369,1.3369,1.3428,1.3428,1.3428,1.3477,1.3428,1.3477,1.3535,1.3535,1.3535,1.3535,1.3535,1.3594,1.3594,1.3594,1.3594,1.3643,1.3643,1.3701,1.3701,1.3701,1.3701,1.376,1.376,1.3809,1.376,0,1.3867,1.3867,1.3926,1.3984,1.3984,1.3984,1.3984,1.3984,1.4043,1.4043,1.4043,1.4102,1.4102,1.4043,1.4102,1.4102,1.416,1.4219,1.4219,1.4277,1.4277,1.4277,1.4277,1.4277,1.4346,1.4346,1.4346,1.4404,1.4404,1.4404,1.4463,1.4463,1.4463,1.4463,1.4463,1.4531,1.4531,1.4531,1.459,1.459,1.4658,1.4658,1.4658,1.4717,1.4717,1.4717,1.4717,1.4717,1.4717,1.4717,1.4785,1.4785,1.4785,1.4854,1.4912,1.4912,1.498,1.498,1.498,1.498,1.498,1.498,1.498,1.5049,1.5117,1.5117,1.5117,1.5117,1.5186,1.5186,1.5186,1.5186,1.5254,1.5254,1.5322,1.5322,1.5322,1.5391,1.5391,1.5391,1.5391,1.5391,1.5459,1.5459,1.5459,1.5459,1.5537,1.5537,1.5605,1.5605,1.5605,1.5605,1.5605,1.5684,1.5684,1.5684,1.5684,1.5752,1.5752,1.583,1.583,1.5898,1.5898,1.5898,1.5977,1.5977,1.5977,1.5977,1.6055,1.6055,1.6055,1.6055,1.6055,1.6055,1.6055,1.6055,1.6133,1.6211,1.6211,1.6133,1.6211,1.6211,1.6289,1.6367,1.6367,1.6367,1.6445,1.6445,1.6445,1.6523,1.6611,1.6611,1.6611,1.6689,1.6689,1.6689,1.6689,1.6689,1.6689,1.6689,1.6689,1.6689,0,0,0,1.3027,1.292,1.292,1.3027,1.2979,1.2979,1.2979,1.293,1.2881,1.2881,1.2881,1.2881,1.2881,1.2881,1.2881,1.2881,1.2881,1.2832,1.2832,1.2832,1.2832,1.2832,1.2881,1.2832,1.2832,1.2832,1.2832,1.2832,1.2832,1.2783,1.2783,1.2734,1.2783,1.2832,1.2881,1.2881,1.2881,1.2881,1.2881,1.2881,1.2881,1.2881,1.2881,1.2881,1.2881,1.2881,1.2881,1.2881,1.2881,1.2881,1.2832,1.2832,1.2832,1.2832,1.2832,1.2881,1.2832,1.2832,1.2832,1.2832,1.2832,1.2832,1.2832,1.2881,1.2832,1.2881,1.2881,1.2881,1.2881,1.2832,1.2832,1.2881,1.2832,1.2832,1.2881,1.2881,1.2881,1.2881,1.2881,1.2881,1.2881,1.2881,1.2881,1.2881,1.2881,1.2881,1.2832,1.2832,1.2832,1.2832,1.2832,1.2881,1.2881,1.2881,1.2881,1.2832,1.2832,1.2783,1.2832,1.2783,1.2783,1.2783,1.2783,1.2832,1.2832,1.2832,1.2783,1.2783,1.2783,1.2783,1.2783,1.2783,1.2783,1.2783,1.2783,1.2783,1.2783,1.2783,1.2783,1.2783,1.2783,1.2783,1.2783,1.2783,1.2783,1.2783,1.2783,1.2783,1.2783,1.2783,1.2734,1.2734,1.2734,1.2783,1.2783,1.2734,1.2734,1.2734,1.2734,1.2783,1.2783,1.2783,1.2734,1.2783,1.2783,1.2744,1.2744,1.2744,1.2744,1.2744,1.2783,1.2783,1.2783,1.2783,1.2783,1.2793,1.2793,1.2793,1.2793,1.2793,1.2744,1.2744,1.2793,1.2744,1.2744,1.2793,1.2793,1.2744,1.2744,1.2744,1.2744,1.2744,1.2744,1.2695,1.2695,1.2695,1.2744,1.2695,1.2646,1.2646,1.2646,1.2646,1.2646,1.2646,1.2646,1.2646,1.2646,1.2646,1.2646,1.2598,1.2598,1.2646,1.2646,0,0,0,0,0,0,0,0,0,0,0,0,0,0,0,0,0,0,0,0,0,0,0,0,1.4941,1.4941,1.4941,1.5,1.4941,1.4941,1.4873,1.4873,1.4873,1.4873,1.4873,1.4873,1.4873,1.4873,1.4805,1.4746,1.4678,1.4678,1.4678,1.4678,1.4619,1.4619,1.4619,1.4619,1.4619,1.4619,1.4619,1.4619,1.4619,1.4619,1.4619,1.4619,1.4551,1.4551,1.4551,1.4551,1.4551,1.4492,1.4492,1.4492,1.4492,1.4434,1.4434,1.4434,1.4434,1.4434,1.4434,1.4375,1.4375,1.4375,1.4375,0,0,0,0,0,0,0,0,0,0,0,0,0,0,0,0,0,0,0,0,0,0,0,0,0,0,0,0,0,0,0,0
1.2617,1.2617,1.2617,1.2666,1.2666,1.2666,1.2666,1.2715,1.2715,1.2715,1.2764,1.2812,1.2812,1.2812,1.2812,1.291,1.291,1.291,1.291,1.2959,1.2959,1.2959,1.3008,1.3066,1.3066,1.3066,1.3066,1.3115,1.3115,1.3115,1.3115,1.3115,1.3115,1.3164,1.3213,1.3213,1.3271,1.3271,1.3271,1.3271,1.332,1.332,1.332,1.3369,1.3369,1.3428,1.3428,1.3477,1.3477,1.3477,1.3477,1.3535,1.3535,1.3535,1.3535,1.3535,1.3594,1.3594,1.3594,1.3594,1.3643,1.3643,1.3701,1.3701,1.3701,1.3701,1.376,1.376,1.3809,1.3809,1.3809,1.3867,1.3867,1.3926,1.3984,1.3984,1.3984,1.3984,1.4043,1.4043,1.4043,1.4043,1.4102,1.4102,1.416,1.4102,1.416,1.416,1.4219,1.4219,1.4277,1.4277,1.4277,1.4277,1.4277,1.4346,1.4346,1.4346,1.4404,1.4404,1.4463,1.4463,1.4463,1.4463,1.4463,1.4463,1.4531,1.4531,1.4531,1.459,1.459,1.4658,1.4658,1.4717,1.4717,1.4717,1.4717,1.4717,1.4717,1.4785,1.4785,1.4785,1.4785,1.4785,1.4854,1.4854,1.4912,1.498,1.498,1.498,1.498,1.498,1.498,1.498,1.5117,1.5117,1.5117,1.5117,1.5117,1.5186,1.5186,1.5254,1.5254,1.5254,1.5322,1.5322,1.5322,1.5391,1.5391,1.5391,1.5391,1.5391,1.5391,1.5459,1.5459,1.5459,1.5537,1.5537,1.5537,1.5605,1.5605,1.5605,1.5605,1.5684,1.5684,1.5684,1.5684,1.5684,1.5752,1.5752,1.583,1.5898,1.5898,1.5898,1.5898,1.5977,1.5977,1.5977,1.5977,1.6055,1.6055,1.6055,1.6055,1.6133,1.6133,1.6133,1.6055,1.6133,1.6211,1.6211,1.6133,1.6211,1.6211,1.6367,1.6367,1.6367,1.6445,1.6445,1.6445,1.6523,1.6523,1.6611,1.6611,1.6611,1.6611,1.6611,1.6689,1.6689,1.6689,1.6689,1.6689,1.6689,1.6689,0,0,0,1.3027,1.3027,1.3027,1.3027,1.3027,1.2979,1.2979,1.293,1.293,1.293,1.2881,1.2881,1.2881,1.2881,1.2881,1.2881,1.2881,1.2832,1.2832,1.2881,1.2881,1.2881,1.2881,1.2881,1.2832,1.2832,1.2832,1.2832,1.2832,1.2832,1.2783,1.2783,1.2783,1.2881,1.2881,1.2881,1.2881,1.2881,1.2881,1.2881,1.2881,1.2881,1.2881,1.2881,1.2881,1.2881,1.2881,1.293,1.2881,1.2881,1.2881,1.2832,1.2832,1.2832,1.2832,1.2881,1.2881,1.2881,1.2881,1.2881,1.2881,1.2881,1.2881,1.2881,1.2832,1.2881,1.2881,1.2881,1.2881,1.2881,1.2881,1.2881,1.2832,1.2881,1.2881,1.2881,1.2881,1.2881,1.2881,1.2881,1.2881,1.2881,1.2881,1.2881,1.2881,1.2881,1.2832,1.2832,1.2832,1.2832,1.2832,1.2881,1.2881,1.2881,1.2832,1.2832,1.2832,1.2783,1.2832,1.2783,1.2783,1.2783,1.2832,1.2832,1.2832,1.2832,1.2783,1.2832,1.2783,1.2832,1.2783,1.2783,1.2783,1.2783,1.2783,1.2783,1.2783,1.2783,1.2783,1.2783,1.2783,1.2783,1.2783,1.2783,1.2783,1.2734,1.2783,1.2783,1.2783,1.2783,1.2783,1.2734,1.2783,1.2783,1.2783,1.2734,1.2734,1.2734,1.2783,1.2783,1.2783,1.2783,1.2744,1.2744,1.2744,1.2744,1.2744,1.2744,1.2744,1.2744,1.2793,1.2793,1.2793,1.2793,1.2793,1.2793,1.2793,1.2793,1.2793,1.2793,1.2793,1.2744,1.2793,1.2744,1.2793,1.2793,1.2793,1.2793,1.2744,1.2744,1.2744,1.2793,1.2744,1.2744,1.2744,1.2695,1.2695,1.2695,1.2646,1.2695,1.2695,1.2646,1.2646,1.2646,1.2646,1.2646,1.2646,1.2646,1.2646,1.2646,1.2598,1.2646,0,0,0,0,0,0,0,0,0,0,0,0,0,0,0,0,0,0,0,0,0,0,0,0,0,1.5,1.5,1.501,1.4941,1.4941,1.4941,1.4873,1.4873,1.4873,1.4873,1.4873,1.4873,1.4873,1.4873,1.4805,1.4805,1.4678,1.4746,1.4678,1.4619,1.4619,1.4619,1.4619,1.4619,1.4619,1.4619,1.4619,1.4619,1.4619,1.4619,1.4619,1.4619,1.4619,1.4551,1.4551,1.4551,1.4551,1.4492,1.4492,1.4492,1.4492,1.4492,1.4492,1.4434,1.4434,1.4434,1.4434,1.4375,1.4375,1.4375,1.4375,0,0,0,0,0,0,0,0,0,0,0,0,0,0,0,0,0,0,0,0,0,0,0,0,0,0,0,0,0,0,0,0
1.2617,1.2617,1.2617,1.2666,1.2666,1.2666,1.2666,1.2715,1.2715,1.2764,1.2764,1.2812,1.2812,1.2812,1.2861,1.291,1.291,1.291,1.2959,1.2959,1.2959,1.3008,1.3008,1.3066,1.3066,1.3066,1.3115,1.3115,1.3115,1.3115,1.3115,1.3115,1.3115,1.3164,1.3213,1.3271,1.3271,1.3271,1.3271,1.332,1.332,1.332,1.3369,1.3369,1.3369,1.3428,1.3428,1.3477,1.3477,1.3477,1.3477,1.3535,1.3535,1.3535,1.3594,1.3594,1.3594,1.3594,1.3643,1.3643,1.3643,1.3643,1.3701,1.3701,1.3701,1.376,1.376,1.376,1.3809,1.3809,1.3867,1.3867,1.3867,1.3926,1.3984,1.3984,1.3984,1.4043,1.4043,1.4043,1.4043,1.4102,1.4102,1.416,1.416,1.4102,1.416,1.4219,1.4219,1.4277,1.4287,1.4287,1.4287,1.4287,1.4287,1.4346,1.4346,1.4346,1.4404,1.4404,1.4463,1.4463,1.4463,1.4463,1.4463,1.4531,1.4531,1.4531,1.4531,1.459,1.459,1.4658,1.4717,1.4717,1.4717,1.4717,1.4717,1.4717,1.4717,1.4785,1.4785,1.4785,1.4785,1.4785,1.4854,1.4912,1.4912,1.498,1.498,1.498,1.498,1.498,1.498,1.5049,1.5117,1.5117,1.5117,1.5117,1.5186,1.5186,1.5186,1.5254,1.5254,1.5322,1.5322,1.5322,1.5322,1.5391,1.5391,1.5391,1.5391,1.5391,1.5391,1.5459,1.5459,1.5459,1.5537,1.5537,1.5537,1.5605,1.5605,1.5605,1.5605,1.5684,1.5684,1.5684,1.5684,1.5752,1.5752,1.583,1.583,1.583,1.5898,1.5898,1.5898,1.5977,1.5977,1.5977,1.5977,1.6055,1.6055,1.6055,1.6055,1.6133,1.6133,1.6133,1.6133,1.6133,1.6211,1.6211,1.6211,1.6211,1.6211,1.6367,1.6367,1.6367,1.6445,1.6445,1.6523,1.6523,1.6523,1.6611,1.6611,1.6611,1.6689,1.6611,1.6689,1.6689,1.6689,1.6689,1.6689,1.6689,1.6689,0,0,0,1.3027,1.3027,1.3027,1.3027,1.3027,1.3027,1.293,1.293,1.2881,1.2881,1.2881,1.2832,1.2832,1.2881,1.2881,1.2881,1.2881,1.2832,1.2832,1.2881,1.2832,1.2832,1.2832,1.2832,1.2832,1.2832,1.2832,1.2832,1.2832,1.2832,1.2783,1.2783,1.2783,1.2832,1.2881,1.2881,1.2881,1.2881,1.2881,1.2881,1.2881,1.2881,1.2881,1.2881,1.2881,1.2881,1.2881,1.293,1.2881,1.2881,1.2881,1.2832,1.2832,1.2832,1.2832,1.2881,1.2881,1.2832,1.2881,1.2881,1.2881,1.2881,1.2881,1.2881,1.2881,1.2881,1.2881,1.2881,1.2881,1.2881,1.2881,1.2881,1.2832,1.2832,1.2881,1.2881,1.2881,1.2881,1.2881,1.2881,1.2881,1.2881,1.2881,1.2881,1.2881,1.2881,1.2832,1.2832,1.2832,1.2832,1.2832,1.293,1.2881,1.2881,1.2832,1.2832,1.2832,1.2783,1.2832,1.2783,1.2832,1.2832,1.2832,1.2832,1.2832,1.2832,1.2783,1.2832,1.2783,1.2783,1.2783,1.2783,1.2783,1.2783,1.2783,1.2783,1.2783,1.2832,1.2783,1.2832,1.2783,1.2783,1.2783,1.2783,1.2783,1.2783,1.2783,1.2783,1.2783,1.2783,1.2783,1.2744,1.2783,1.2783,1.2783,1.2783,1.2744,1.2783,1.2783,1.2783,1.2793,1.2793,1.2744,1.2744,1.2744,1.2744,1.2695,1.2744,1.2744,1.2744,1.2793,1.2793,1.2793,1.2793,1.2793,1.2793,1.2793,1.2793,1.2793,1.2793,1.2793,1.2744,1.2744,1.2744,1.2793,1.2793,1.2793,1.2793,1.2744,1.2744,1.2793,1.2744,1.2744,1.2744,1.2744,1.2744,1.2744,1.2695,1.2695,1.2695,1.2695,1.2646,1.2695,1.2646,1.2695,1.2646,1.2646,1.2646,1.2646,1.2598,1.2598,0,0,0,0,0,0,0,0,0,0,0,0,0,0,0,0,0,0,0,0,0,0,0,0,0,0,1.501,1.501,1.501,1.4941,1.4941,1.4941,1.4941,1.4873,1.4873,1.4873,1.4873,1.4873,1.4873,1.4873,1.4873,1.4814,1.4814,1.4746,1.4619,1.4619,1.4619,1.4619,1.4619,1.4678,1.4678,1.4619,1.4678,1.4619,1.4619,1.4619,1.4619,1.4619,1.4619,1.4561,1.4561,1.4561,1.4561,1.4492,1.4434,1.4434,1.4434,1.4434,1.4434,1.4434,1.4434,1.4434,1.4434,1.4375,1.4375,1.4375,1.4375,0,0,0,0,0,0,0,0,0,0,0,0,0,0,0,0,0,0,0,0,0,0,0,0,0,0,0,0,0,0,0,0
1.2627,1.2627,1.2627,1.2666,1.2666,1.2666,1.2715,1.2715,1.2764,1.2764,1.2812,1.2812,1.2812,1.2812,1.2861,1.291,1.291,1.2959,1.2959,1.2959,1.2959,1.3008,1.3066,1.3066,1.3066,1.3115,1.3115,1.3115,1.3115,1.3115,1.3115,1.3164,1.3164,1.3213,1.3213,1.3271,1.3271,1.3271,1.3271,1.3271,1.332,1.332,1.332,1.3379,1.3379,1.3428,1.3428,1.3486,1.3486,1.3486,1.3535,1.3535,1.3535,1.3594,1.3594,1.3594,1.3643,1.3643,1.3643,1.3643,1.3643,1.3643,1.3643,1.3701,1.3701,1.376,1.376,1.376,1.3818,1.3818,1.3867,1.3867,1.3926,1.3926,1.3984,1.3984,1.4043,1.4043,1.4043,1.4043,1.4102,1.4102,1.4102,1.416,1.416,1.416,1.416,1.4219,1.4219,1.4287,1.4287,1.4287,1.4287,1.4287,1.4287,1.4346,1.4346,1.4346,1.4346,1.4404,1.4463,1.4463,1.4463,1.4463,1.4463,1.4531,1.4531,1.4531,1.4531,1.459,1.459,1.4658,1.4717,1.4717,1.4717,1.4717,1.4717,1.4785,1.4785,1.4785,1.4785,1.4785,1.4785,1.4785,1.4854,1.4912,1.4912,1.498,1.498,1.498,1.498,1.498,1.498,1.5049,1.5117,1.5117,1.5117,1.5117,1.5186,1.5186,1.5254,1.5254,1.5322,1.5322,1.5322,1.5322,1.5391,1.5391,1.5391,1.5391,1.5391,1.5391,1.5391,1.5469,1.5469,1.5469,1.5537,1.5537,1.5537,1.5605,1.5605,1.5605,1.5605,1.5684,1.5684,1.5684,1.5752,1.5752,1.5752,1.583,1.583,1.5898,1.5898,1.5898,1.5898,1.5977,1.5977,1.5977,1.5977,1.6055,1.6055,1.6055,1.6055,1.6133,1.6133,1.6133,1.6133,1.6133,1.6211,1.6211,1.6211,1.6211,1.6289,1.6367,1.6367,1.6445,1.6445,1.6445,1.6523,1.6523,1.6523,1.6611,1.6611,1.6689,1.6689,1.6611,1.6689,1.6689,1.6689,1.6689,1.6689,1.6689,1.6689,0,0,1.3027,1.3027,1.2979,1.2979,1.3027,1.3027,1.2979,1.293,1.2881,1.2881,1.2881,1.2881,1.2832,1.2832,1.2832,1.2881,1.2881,1.2881,1.2832,1.2832,1.2832,1.2832,1.2832,1.2832,1.2832,1.2832,1.2832,1.2832,1.2832,1.2832,1.2832,1.2783,1.2783,1.2783,1.2881,1.2881,1.2881,1.2881,1.2881,1.2881,1.2881,1.2881,1.2881,1.2881,1.2881,1.2881,1.2881,1.2881,1.293,1.2881,1.2881,1.2881,1.2881,1.2832,1.2832,1.2832,1.2881,1.2881,1.2881,1.2881,1.2881,1.2881,1.2881,1.2881,1.2881,1.2881,1.2881,1.2881,1.2881,1.2832,1.2881,1.2832,1.2881,1.2832,1.2832,1.2832,1.2832,1.2832,1.2832,1.2881,1.2881,1.2881,1.2832,1.2881,1.2832,1.2832,1.2881,1.2881,1.2881,1.2881,1.2832,1.2832,1.293,1.2881,1.2881,1.2881,1.2832,1.2832,1.2832,1.2832,1.2832,1.2832,1.2832,1.2832,1.2832,1.2832,1.2832,1.2783,1.2832,1.2783,1.2832,1.2783,1.2783,1.2783,1.2783,1.2783,1.2783,1.2783,1.2832,1.2783,1.2783,1.2783,1.2783,1.2783,1.2783,1.2783,1.2783,1.2783,1.2783,1.2783,1.2783,1.2783,1.2783,1.2783,1.2793,1.2793,1.2793,1.2744,1.2793,1.2793,1.2793,1.2793,1.2793,1.2744,1.2744,1.2744,1.2695,1.2695,1.2744,1.2744,1.2744,1.2793,1.2793,1.2793,1.2793,1.2793,1.2793,1.2793,1.2793,1.2793,1.2793,1.2793,1.2793,1.2793,1.2744,1.2744,1.2793,1.2793,1.2793,1.2744,1.2744,1.2793,1.2793,1.2744,1.2744,1.2744,1.2744,1.2744,1.2695,1.2695,1.2695,1.2695,1.2695,1.2695,1.2646,1.2646,1.2695,1.2646,1.2646,1.2646,1.2744,1.2695,0,0,0,0,0,0,0,0,0,0,0,0,0,0,0,0,0,0,0,0,0,0,0,0,0,1.4941,1.4873,1.4941,1.501,1.4941,1.4941,1.4941,1.4941,1.4941,1.4873,1.4873,1.4873,1.4873,1.4873,1.4873,1.4873,1.4814,1.4814,1.4746,1.4678,1.4678,1.4678,1.4678,1.4678,1.4678,1.4678,1.4678,1.4619,1.4619,1.4619,1.4619,1.4619,1.4561,1.4619,1.4561,1.4561,1.4561,1.4492,1.4434,1.4434,1.4434,1.4434,1.4434,1.4434,1.4434,1.4434,1.4434,1.4434,1.4375,1.4375,1.4375,1.4434,0,0,0,0,0,0,0,0,0,0,0,0,0,0,0,0,0,0,0,0,0,0,0,0,0,0,0,0,0,0,0,0
1.2627,1.2627,1.2627,1.2666,1.2666,1.2666,1.2715,1.2715,1.2764,1.2812,1.2812,1.2812,1.2812,1.2812,1.2861,1.291,1.291,1.291,1.291,1.291,1.2959,1.2959,1.3018,1.3066,1.3066,1.3115,1.3115,1.3115,1.3115,1.3115,1.3115,1.3164,1.3164,1.3213,1.3271,1.3271,1.3271,1.3271,1.3271,1.332,1.332,1.332,1.3379,1.3379,1.3428,1.3428,1.3428,1.3486,1.3486,1.3486,1.3535,1.3535,1.3535,1.3594,1.3594,1.3594,1.3643,1.3643,1.3643,1.3643,1.3643,1.3701,1.3701,1.3701,1.3701,1.3701,1.376,1.376,1.376,1.3818,1.3867,1.3867,1.3926,1.3926,1.3984,1.3984,1.4043,1.4043,1.4043,1.4043,1.4102,1.4102,1.4102,1.416,1.416,1.416,1.4219,1.4219,1.4219,1.4287,1.4287,1.4287,1.4287,1.4287,1.4346,1.4346,1.4346,1.4346,1.4404,1.4404,1.4463,1.4473,1.4473,1.4531,1.4531,1.4531,1.4531,1.4531,1.459,1.459,1.459,1.4658,1.4717,1.4717,1.4717,1.4785,1.4717,1.4785,1.4785,1.4785,1.4785,1.4785,1.4785,1.4854,1.4854,1.4912,1.4922,1.498,1.498,1.498,1.498,1.498,1.498,1.5049,1.5117,1.5117,1.5117,1.5186,1.5186,1.5254,1.5254,1.5254,1.5322,1.5322,1.5322,1.5322,1.5391,1.5391,1.5391,1.5391,1.5391,1.5469,1.5469,1.5469,1.5537,1.5537,1.5537,1.5605,1.5605,1.5605,1.5605,1.5605,1.5605,1.5605,1.5684,1.5684,1.5752,1.5752,1.583,1.583,1.5898,1.5898,1.5908,1.5908,1.5977,1.5977,1.5977,1.5977,1.5977,1.6055,1.6055,1.6133,1.6133,1.6133,1.6133,1.6133,1.6211,1.6211,1.6211,1.6211,1.6211,1.6289,1.6289,1.6367,1.6445,1.6445,1.6445,1.6523,1.6523,1.6611,1.6611,1.6611,1.6611,1.6689,1.6689,1.6689,1.6689,1.6777,1.6777,1.6689,1.6689,1.6689,1.6689,0,0,0,1.3027,1.2979,1.3027,1.3027,1.3027,1.3027,1.293,1.2881,1.2881,1.293,1.2881,1.2832,1.2832,1.2881,1.2881,1.2881,1.2881,1.2832,1.2832,1.2832,1.2832,1.2832,1.2832,1.2832,1.2832,1.2832,1.2832,1.2832,1.2832,1.2832,1.2783,1.2783,1.2832,1.2832,1.2881,1.2881,1.2881,1.2881,1.2881,1.2881,1.2881,1.2881,1.2881,1.2881,1.2881,1.2881,1.2881,1.2881,1.2881,1.2881,1.2881,1.2881,1.2881,1.2881,1.2832,1.2881,1.2881,1.2881,1.2881,1.2881,1.2881,1.2881,1.2881,1.2881,1.2881,1.2881,1.2881,1.2881,1.2881,1.2881,1.2832,1.2832,1.2832,1.2832,1.2832,1.2832,1.2832,1.2832,1.2832,1.2881,1.2881,1.2881,1.2881,1.2832,1.2881,1.2881,1.2881,1.2881,1.2881,1.2832,1.2832,1.2881,1.2881,1.2881,1.2881,1.2832,1.2832,1.2832,1.2832,1.2832,1.2832,1.2832,1.2832,1.2832,1.2832,1.2832,1.2783,1.2783,1.2783,1.2783,1.2783,1.2783,1.2783,1.2783,1.2783,1.2783,1.2783,1.2832,1.2793,1.2793,1.2793,1.2793,1.2793,1.2842,1.2793,1.2793,1.2793,1.2793,1.2793,1.2793,1.2793,1.2793,1.2793,1.2793,1.2793,1.2793,1.2793,1.2793,1.2793,1.2793,1.2793,1.2793,1.2793,1.2744,1.2744,1.2695,1.2744,1.2744,1.2744,1.2744,1.2793,1.2793,1.2793,1.2793,1.2793,1.2793,1.2793,1.2793,1.2793,1.2793,1.2793,1.2793,1.2793,1.2744,1.2744,1.2793,1.2793,1.2793,1.2744,1.2793,1.2793,1.2793,1.2793,1.2793,1.2744,1.2744,1.2744,1.2744,1.2695,1.2695,1.2695,1.2695,1.2695,1.2646,1.2646,1.2695,1.2646,1.2646,1.2646,1.2744,0,0,0,0,0,0,0,0,0,0,0,0,0,0,0,0,0,0,0,0,0,0,0,0,0,0,0,1.4941,1.501,1.501,1.501,1.501,1.4941,1.4941,1.4941,1.4941,1.4873,1.4873,1.4873,1.4873,1.4873,1.4814,1.4814,1.4814,1.4746,1.4678,1.4746,1.4688,1.4688,1.4688,1.4688,1.4688,1.4688,1.4619,1.4619,1.4619,1.4619,1.4619,1.4561,1.4619,1.4619,1.4619,1.4561,1.4492,1.4492,1.4434,1.4434,1.4434,1.4434,1.4434,1.4434,1.4434,1.4434,1.4434,1.4375,1.4375,1.4375,1.4434,0,0,0,0,0,0,0,0,0,0,0,0,0,0,0,0,0,0,0,0,0,0,0,0,0,0,0,0,0,0,0,0
1.2627,1.2627,1.2666,1.2666,1.2666,1.2715,1.2715,1.2764,1.2812,1.2812,1.2812,1.2812,1.2812,1.2812,1.2861,1.291,1.291,1.291,1.291,1.291,1.2959,1.2959,1.3066,1.3066,1.3066,1.3115,1.3115,1.3115,1.3115,1.3115,1.3164,1.3164,1.3164,1.3223,1.3271,1.3271,1.3271,1.3271,1.332,1.332,1.332,1.332,1.3379,1.3379,1.3428,1.3428,1.3428,1.3486,1.3486,1.3486,1.3535,1.3535,1.3535,1.3535,1.3535,1.3594,1.3643,1.3643,1.3643,1.3643,1.3643,1.3701,1.3701,1.3701,1.3701,1.376,1.376,1.376,1.376,1.3818,1.3818,1.3867,1.3926,1.3926,1.3984,1.3984,1.4043,1.4043,1.4043,1.4043,1.4102,1.4102,1.416,1.416,1.416,1.416,1.4219,1.4219,1.4287,1.4287,1.4287,1.4287,1.4287,1.4287,1.4346,1.4346,1.4404,1.4404,1.4404,1.4404,1.4473,1.4473,1.4473,1.4473,1.4531,1.4531,1.459,1.4531,1.459,1.459,1.4658,1.4717,1.4717,1.4717,1.4717,1.4785,1.4785,1.4785,1.4785,1.4785,1.4785,1.4785,1.4785,1.4854,1.4854,1.4922,1.4922,1.498,1.498,1.498,1.498,1.498,1.498,1.5049,1.5117,1.5117,1.5117,1.5186,1.5254,1.5254,1.5322,1.5322,1.5322,1.5322,1.5322,1.5391,1.5391,1.5391,1.5391,1.5469,1.5469,1.5469,1.5469,1.5469,1.5537,1.5537,1.5605,1.5605,1.5605,1.5605,1.5605,1.5684,1.5684,1.5684,1.5684,1.5752,1.5752,1.5752,1.583,1.583,1.5908,1.5908,1.5908,1.5908,1.5977,1.5977,1.5977,1.5977,1.5977,1.6055,1.6055,1.6133,1.6133,1.6133,1.6133,1.6211,1.6211,1.6211,1.6211,1.6211,1.6211,1.6289,1.6289,1.6367,1.6445,1.6445,1.6445,1.6445,1.6533,1.6611,1.6611,1.6611,1.6611,1.6689,1.6689,1.6689,1.6777,1.6777,1.6777,1.6777,1.6689,1.6689,1.6689,0,0,1.3027,1.3027,1.2979,1.2979,1.2979,1.3027,1.2979,1.293,1.293,1.2881,1.293,1.2881,1.2881,1.2881,1.2881,1.2881,1.2881,1.2832,1.2881,1.2832,1.2832,1.2832,1.2832,1.2832,1.2881,1.2881,1.2881,1.2832,1.2832,1.2832,1.2832,1.2832,1.2783,0,1.2881,1.2881,1.2881,1.2881,1.2881,1.2881,1.2881,1.2881,1.2881,1.2881,1.2881,1.2881,1.2881,1.2881,1.2881,1.2881,1.2881,1.2881,1.2881,1.2881,1.2881,1.2881,1.2881,1.2881,1.2881,1.2881,1.2881,1.2881,1.2881,1.2881,1.2881,1.2881,1.2881,1.2881,1.2881,1.2881,1.2881,1.2881,1.2832,1.2881,1.2832,1.2832,1.2832,1.2832,1.2832,1.2881,1.2881,1.2832,1.2832,1.2881,1.2832,1.2881,1.2881,1.2881,1.2881,1.2881,1.2881,1.2832,1.293,1.293,1.293,1.2881,1.2881,1.2881,1.2832,1.2832,1.2832,1.2832,1.2832,1.2832,1.2832,1.2832,1.2832,1.2783,1.2783,1.2783,1.2783,1.2783,1.2783,1.2793,1.2793,1.2793,1.2793,1.2793,1.2793,1.2793,1.2793,1.2793,1.2793,1.2793,1.2793,1.2793,1.2793,1.2793,1.2793,1.2793,1.2793,1.2793,1.2793,1.2793,1.2793,1.2793,1.2793,1.2793,1.2793,1.2793,1.2793,1.2793,1.2793,1.2793,1.2744,1.2744,1.2744,1.2744,1.2744,1.2744,1.2744,1.2793,1.2793,1.2793,1.2793,1.2793,1.2793,1.2793,1.2793,1.2793,1.2793,1.2793,1.2793,1.2793,1.2744,1.2744,1.2793,1.2793,1.2793,1.2744,1.2793,1.2793,1.2793,1.2793,1.2793,1.2793,1.2744,1.2744,1.2744,1.2744,1.2744,1.2695,1.2695,1.2695,1.2695,1.2695,1.2695,1.2646,1.2646,1.2646,1.2695,0,0,0,0,0,0,0,0,0,0,0,0,0,0,0,0,0,0,0,0,0,0,0,0,0,0,0,0,1.501,1.501,1.4941,1.501,1.4941,1.4941,1.4941,1.4873,1.4873,1.4873,1.4873,1.4873,1.4873,1.4814,1.4814,1.4814,1.4814,1.4746,1.4746,1.4746,1.4688,1.4688,1.4688,1.4688,1.4688,1.4619,1.4619,1.4619,1.4619,1.4619,1.4619,1.4619,1.4619,1.4619,1.4619,1.4492,1.4492,1.4434,1.4434,1.4434,1.4434,1.4434,1.4434,1.4434,1.4434,1.4434,1.4375,1.4375,1.4375,1.4434,0,0,0,0,0,0,0,0,0,0,0,0,0,0,0,0,0,0,0,0,0,0,0,0,0,0,0,0,0,0,0,0
1.2627,1.2627,1.2676,1.2676,1.2676,1.2715,1.2764,1.2764,1.2812,1.2812,1.2812,1.2812,1.2861,1.2861,1.2861,1.291,1.291,1.291,1.2969,1.2969,1.2969,1.3018,1.3066,1.3066,1.3066,1.3115,1.3115,1.3115,1.3164,1.3164,1.3164,1.3223,1.3223,1.3271,1.3271,1.3271,1.3271,1.3271,1.332,1.332,1.332,1.332,1.3379,1.3379,1.3428,1.3428,1.3428,1.3486,1.3486,1.3486,1.3535,1.3535,1.3535,1.3594,1.3594,1.3594,1.3652,1.3652,1.3652,1.3652,1.3701,1.3701,1.3701,1.3701,1.376,1.376,1.376,1.376,1.376,1.3818,1.3818,1.3926,1.3926,1.3926,1.3984,1.4043,1.4043,1.4043,1.4043,1.4043,1.4102,1.416,1.416,1.4229,1.4229,1.4229,1.4229,1.4229,1.4287,1.4287,1.4287,1.4287,1.4287,1.4287,1.4346,1.4346,1.4404,1.4404,1.4404,1.4404,1.4473,1.4473,1.4473,1.4531,1.4531,1.4531,1.459,1.459,1.459,1.459,1.4658,1.4727,1.4727,1.4727,1.4727,1.4785,1.4785,1.4785,1.4785,1.4785,1.4785,1.4785,1.4785,1.4854,1.4854,1.4922,1.498,1.498,1.498,1.498,1.498,1.498,1.498,1.5049,1.5117,1.5117,1.5186,1.5186,1.5254,1.5254,1.5322,1.5322,1.5322,1.5322,1.5322,1.54,1.54,1.54,1.5469,1.5469,1.5469,1.5469,1.5537,1.5537,1.5537,1.5537,1.5605,1.5605,1.5605,1.5605,1.5684,1.5684,1.5684,1.5684,1.5752,1.5752,1.5752,1.583,1.583,1.583,1.583,1.5908,1.5908,1.5908,1.5908,1.5977,1.5977,1.5977,1.5977,1.6055,1.6133,1.6133,1.6133,1.6133,1.6133,1.6211,1.6211,1.6211,1.6211,1.6289,1.6289,1.6289,1.6289,1.6445,1.6445,1.6445,1.6445,1.6533,1.6533,1.6611,1.6611,1.6611,1.6611,1.6689,1.6689,1.6689,1.6777,1.6777,1.6777,1.6777,1.6777,1.6689,1.6689,0,0,1.3027,1.2979,1.2979,1.2979,1.2979,1.293,1.2979,1.2881,1.2881,1.2881,1.2881,1.2881,1.2832,1.2881,1.2832,1.2881,1.2832,1.2832,1.2881,1.2881,1.2832,1.2881,1.2832,1.2881,1.2832,1.2832,1.2832,1.2832,1.2832,1.2832,1.2832,1.2832,1.2783,1.2832,1.2881,1.2832,1.2881,1.2881,1.2881,1.2881,1.2881,1.2881,1.2881,1.2881,1.2881,1.2881,1.2881,1.2881,1.2881,1.2881,1.2881,1.2881,1.2881,1.2881,1.2881,1.2881,1.2881,1.2881,1.2881,1.2881,1.2881,1.2881,1.2881,1.2881,1.2881,1.2881,1.2881,1.2881,1.2881,1.2881,1.2881,1.2832,1.2832,1.2832,1.2832,1.2832,1.2832,1.2881,1.2832,1.2881,1.2881,1.2832,1.2881,1.2881,1.2832,1.2881,1.2881,1.2881,1.2881,1.2881,1.2881,1.2881,1.293,1.293,1.293,1.2881,1.2881,1.2881,1.2832,1.2832,1.2832,1.2832,1.2832,1.2832,1.2832,1.2832,1.2832,1.2793,1.2793,1.2793,1.2793,1.2793,1.2793,1.2793,1.2793,1.2793,1.2793,1.2793,1.2793,1.2793,1.2793,1.2793,1.2793,1.2793,1.2842,1.2793,1.2793,1.2793,1.2793,1.2793,1.2793,1.2793,1.2793,1.2793,1.2793,1.2793,1.2793,1.2793,1.2793,1.2793,1.2793,1.2793,1.2793,1.2793,1.2744,1.2744,1.2744,1.2744,1.2744,1.2744,1.2744,1.2793,1.2793,1.2793,1.2793,1.2793,1.2793,1.2793,1.2793,1.2793,1.2793,1.2793,1.2793,1.2793,1.2793,1.2793,1.2793,1.2793,1.2793,1.2744,1.2793,1.2793,1.2793,1.2793,1.2793,1.2793,1.2744,1.2744,1.2744,1.2744,1.2744,1.2695,1.2695,1.2695,1.2695,1.2695,1.2695,1.2646,1.2646,1.2646,1.2695,0,0,0,0,0,0,0,0,0,0,0,0,0,0,0,0,0,0,0,0,0,0,0,0,0,0,0,1.5146,1.501,1.501,1.4941,1.501,1.4941,1.4941,1.4941,1.4941,1.4873,1.4873,1.4873,1.4873,1.4873,1.4814,1.4814,1.4814,1.4746,1.4746,1.4746,1.4746,1.4688,1.4688,1.4688,1.4688,1.4688,1.4619,1.4619,1.4688,1.4619,1.4619,1.4619,1.4619,1.4619,1.4619,1.4619,1.4492,1.4492,1.4434,1.4434,1.4434,1.4434,1.4375,1.4434,1.4434,1.4434,1.4375,1.4375,1.4375,1.4375,1.4434,0,0,0,0,0,0,0,0,0,0,0,0,0,0,0,0,0,0,0,0,0,0,0,0,0,0,0,0,0,0,0,0
1.2676,1.2676,1.2676,1.2676,1.2715,1.2715,1.2764,1.2764,1.2812,1.2812,1.2812,1.2812,1.2861,1.2861,1.2861,1.291,1.291,1.2969,1.2969,1.2969,1.2969,1.3018,1.3066,1.3066,1.3115,1.3115,1.3164,1.3164,1.3164,1.3164,1.3223,1.3223,1.3223,1.3271,1.3271,1.3271,1.3271,1.3271,1.332,1.332,1.3379,1.3379,1.3379,1.3428,1.3428,1.3428,1.3428,1.3486,1.3486,1.3535,1.3535,1.3535,1.3535,1.3594,1.3594,1.3652,1.3652,1.3652,1.3652,1.3652,1.3701,1.3701,1.3701,1.3701,1.376,1.376,1.376,1.376,1.376,1.3818,1.3818,1.3926,1.3926,1.3984,1.4043,1.4043,1.4043,1.4043,1.4043,1.4102,1.4102,1.416,1.416,1.416,1.416,1.4229,1.4229,1.4229,1.4229,1.4287,1.4287,1.4287,1.4287,1.4287,1.4346,1.4346,1.4404,1.4404,1.4404,1.4404,1.4473,1.4473,1.4473,1.4531,1.4531,1.4531,1.46,1.46,1.46,1.4658,1.4658,1.4727,1.4727,1.4727,1.4727,1.4785,1.4785,1.4785,1.4785,1.4785,1.4785,1.4785,1.4785,1.4854,1.4854,1.4922,1.4922,1.498,1.498,1.498,1.498,1.5049,1.5049,1.5049,1.5117,1.5186,1.5186,1.5254,1.5254,1.5254,1.5322,1.5322,1.5322,1.5322,1.54,1.54,1.54,1.54,1.5469,1.5469,1.5469,1.5537,1.5537,1.5537,1.5537,1.5615,1.5615,1.5615,1.5615,1.5615,1.5684,1.5684,1.5684,1.5684,1.5762,1.583,1.583,1.583,1.583,1.583,1.583,1.5908,1.5908,1.5908,1.5908,1.5977,1.5986,1.5986,1.5986,1.6055,1.6133,1.6133,1.6133,1.6211,1.6211,1.6211,1.6211,1.6211,1.6289,1.6289,1.6289,1.6289,1.6289,1.6445,1.6445,1.6533,1.6533,1.6533,1.6611,1.6611,1.6611,1.6611,1.6689,1.6689,1.6689,1.6689,1.6777,1.6777,1.6865,1.6865,1.6777,1.6777,1.6777,1.6777,0,1.3027,1.3027,1.3027,1.2979,1.2979,1.293,1.293,1.293,1.2881,1.2881,1.2881,1.2881,1.2881,1.2881,1.2881,1.2881,1.2881,1.2832,1.2881,1.2881,1.2881,1.2881,1.2881,1.2881,1.2881,1.2881,1.2832,1.2832,1.2832,1.2832,1.2832,1.2832,1.2832,1.2832,1.2881,1.2881,1.2881,1.2881,1.2881,1.2881,1.2881,1.2881,1.2881,1.2881,1.2881,1.2881,1.2881,1.2881,1.2881,1.2881,1.2881,1.2881,1.2881,1.2881,1.2881,1.2881,1.293,1.2881,1.2881,1.2881,1.2881,1.293,1.2881,1.2881,1.2881,1.2881,1.2881,1.2881,1.2881,1.2881,1.2881,1.2832,1.2832,1.2832,1.2832,1.2832,1.2832,1.2832,1.2832,1.2881,1.2881,1.2832,1.2881,1.2881,1.2832,1.2881,1.2881,1.2881,1.2881,1.2881,1.2881,1.2881,1.293,1.293,1.293,1.2939,1.2881,1.2881,1.2881,1.2881,1.2832,1.2832,1.2842,1.2842,1.2842,1.2842,1.2842,1.2793,1.2793,1.2793,1.2793,1.2793,1.2793,1.2793,1.2793,1.2793,1.2793,1.2793,1.2793,1.2793,1.2793,1.2793,1.2793,1.2793,1.2842,1.2842,1.2842,1.2842,1.2842,1.2793,1.2793,1.2793,1.2793,1.2793,1.2793,1.2793,1.2793,1.2793,1.2793,1.2793,1.2793,1.2793,1.2793,1.2744,1.2744,1.2744,1.2744,1.2744,1.2744,1.2744,1.2744,1.2793,1.2793,1.2793,1.2793,1.2793,1.2793,1.2793,1.2793,1.2793,1.2793,1.2793,1.2793,1.2793,1.2793,1.2793,1.2793,1.2793,1.2744,1.2744,1.2793,1.2793,1.2793,1.2793,1.2793,1.2793,1.2793,1.2793,1.2744,1.2744,1.2744,1.2744,1.2695,1.2744,1.2695,1.2695,1.2695,1.2646,1.2646,1.2646,1.2695,1.2793,0,0,0,0,0,0,0,0,0,0,0,0,0,0,0,0,0,0,0,0,0,0,0,0,0,0,1.5078,1.501,1.501,1.4941,1.501,1.501,1.4941,1.4941,1.4941,1.4941,1.4941,1.4873,1.4873,1.4873,1.4873,1.4814,1.4814,1.4814,1.4746,1.4746,1.4688,1.4688,1.4688,1.4688,1.4688,1.4688,1.4619,1.4619,1.4619,1.4619,1.4619,1.4619,1.4619,1.4619,1.4619,1.4619,1.4502,1.4502,1.4434,1.4434,1.4434,1.4434,1.4375,1.4434,1.4434,1.4434,1.4375,1.4434,1.4375,1.4375,1.4434,0,0,0,0,0,0,0,0,0,0,0,0,0,0,0,0,0,0,0,0,0,0,0,0,0,0,0,0,0,0,0,0
1.2676,1.2676,1.2676,1.2676,1.2725,1.2725,1.2764,1.2764,1.2812,1.2812,1.2812,1.2812,1.2861,1.2861,1.2861,1.292,1.292,1.2969,1.2969,1.2969,1.2969,1.3018,1.3066,1.3066,1.3115,1.3115,1.3164,1.3164,1.3164,1.3223,1.3223,1.3271,1.3271,1.3271,1.3271,1.3271,1.3271,1.3271,1.332,1.332,1.332,1.3379,1.3379,1.3428,1.3486,1.3428,1.3486,1.3486,1.3486,1.3535,1.3535,1.3535,1.3594,1.3594,1.3594,1.3652,1.3652,1.3652,1.3652,1.3652,1.3701,1.3701,1.3701,1.3701,1.376,1.376,1.376,1.376,1.376,1.3818,1.3818,1.3877,1.3936,1.3994,1.4043,1.4043,1.4043,1.4043,1.4043,1.4111,1.417,1.417,1.417,1.417,1.417,1.4229,1.4229,1.4229,1.4287,1.4287,1.4287,1.4287,1.4346,1.4287,1.4346,1.4346,1.4404,1.4404,1.4404,1.4473,1.4473,1.4473,1.4531,1.4531,1.4531,1.46,1.4658,1.4658,1.4658,1.4658,1.4727,1.4727,1.4727,1.4727,1.4727,1.4785,1.4785,1.4785,1.4785,1.4785,1.4785,1.4785,1.4785,1.4854,1.4854,1.4922,1.4922,1.499,1.499,1.499,1.5049,1.5049,1.5049,1.5049,1.5117,1.5186,1.5186,1.5254,1.5322,1.5322,1.5322,1.5322,1.5322,1.5322,1.54,1.54,1.54,1.54,1.5469,1.5469,1.5469,1.5537,1.5537,1.5537,1.5537,1.5615,1.5615,1.5615,1.5615,1.5615,1.5684,1.5684,1.5684,1.5684,1.5762,1.583,1.583,1.583,1.583,1.583,1.5908,1.5908,1.5908,1.5908,1.5986,1.5986,1.5986,1.6055,1.6055,1.6055,1.6133,1.6133,1.6133,1.6211,1.6211,1.6211,1.6211,1.6289,1.6289,1.6289,1.6289,1.6289,1.6367,1.6445,1.6533,1.6533,1.6533,1.6611,1.6611,1.6611,1.6611,1.6611,1.6699,1.6699,1.6699,1.6699,1.6777,1.6777,1.6865,1.6865,1.6777,1.6777,1.6777,1.6865,0,1.3027,1.3027,1.3027,1.3027,1.2979,1.2979,1.2979,1.293,1.2881,1.2881,1.2881,1.2881,1.2881,1.2881,1.2881,1.2881,1.2832,1.2832,1.2832,1.2832,1.2881,1.2881,1.2881,1.2881,1.2881,1.2881,1.2832,1.2832,1.2832,1.2832,1.2832,1.2832,1.2832,1.2881,1.2881,1.2881,1.2881,1.2881,1.2881,1.2881,1.2881,1.2881,1.2881,1.2881,1.2881,1.2881,1.2881,1.2881,1.2881,1.2881,1.2881,1.2881,1.2881,1.2881,1.2881,1.2881,1.293,1.2881,1.2881,1.2881,1.2881,1.2881,1.2881,1.2881,1.2881,1.2881,1.2881,1.2881,1.2881,1.2881,1.2832,1.2832,1.2832,1.2832,1.2832,1.2832,1.2832,1.2832,1.2881,1.2881,1.2881,1.2832,1.2832,1.2881,1.2832,1.2881,1.2832,1.2881,1.2881,1.2881,1.2881,1.2881,1.2939,1.2939,1.2939,1.2939,1.2891,1.2891,1.2891,1.2891,1.2842,1.2842,1.2842,1.2842,1.2842,1.2842,1.2842,1.2793,1.2793,1.2793,1.2793,1.2793,1.2793,1.2793,1.2793,1.2793,1.2793,1.2793,1.2793,1.2793,1.2793,1.2793,1.2793,1.2793,1.2842,1.2842,1.2842,1.2842,1.2842,1.2842,1.2793,1.2793,1.2793,1.2793,1.2793,1.2793,1.2793,1.2793,1.2793,1.2793,1.2793,1.2793,1.2793,1.2744,1.2744,1.2744,1.2744,1.2744,1.2744,1.2744,1.2744,1.2793,1.2793,1.2793,1.2793,1.2793,1.2793,1.2793,1.2793,1.2793,1.2793,1.2793,1.2793,1.2793,1.2793,1.2793,1.2793,1.2793,1.2793,1.2744,1.2793,1.2793,1.2793,1.2793,1.2793,1.2793,1.2793,1.2793,1.2744,1.2744,1.2744,1.2744,1.2744,1.2744,1.2695,1.2695,1.2646,1.2646,1.2646,1.2695,1.2695,0,0,0,0,0,0,0,0,0,0,0,0,0,0,0,0,0,0,0,0,0,0,0,0,0,0,0,1.5078,1.5078,1.501,1.501,1.501,1.501,1.4941,1.4941,1.4941,1.4941,1.4941,1.4883,1.4883,1.4883,1.4883,1.4814,1.4814,1.4814,1.4746,1.4746,1.4746,1.4746,1.4688,1.4688,1.4688,1.4688,1.4688,1.4619,1.4619,1.4619,1.4619,1.4619,1.4619,1.4619,1.4561,1.4561,1.4502,1.4502,1.4434,1.4434,1.4434,1.4434,1.4375,1.4375,1.4434,1.4434,1.4375,1.4375,1.4375,1.4375,1.4434,0,0,0,0,0,0,0,0,0,0,0,0,0,0,0,0,0,0,0,0,0,0,0,0,0,0,0,0,0,0,0,0
1.2676,1.2676,1.2676,1.2676,1.2725,1.2725,1.2773,1.2773,1.2812,1.2822,1.2822,1.2822,1.2871,1.2871,1.2871,1.292,1.292,1.2969,1.2969,1.2969,1.3018,1.3066,1.3066,1.3066,1.3115,1.3115,1.3164,1.3164,1.3164,1.3223,1.3271,1.3271,1.3271,1.3271,1.3271,1.332,1.332,1.332,1.332,1.332,1.3379,1.3379,1.3379,1.3428,1.3486,1.3486,1.3486,1.3486,1.3535,1.3535,1.3535,1.3535,1.3594,1.3594,1.3594,1.3652,1.3652,1.3652,1.3652,1.3652,1.3701,1.3701,1.3701,1.3701,1.376,1.376,1.376,1.376,1.376,1.3818,1.3818,1.3818,1.3936,1.3994,1.4053,1.4053,1.4053,1.4053,1.4053,1.4111,1.417,1.417,1.417,1.4229,1.4229,1.4229,1.4229,1.4229,1.4287,1.4287,1.4287,1.4287,1.4346,1.4346,1.4346,1.4404,1.4404,1.4404,1.4473,1.4473,1.4473,1.4531,1.4531,1.4531,1.4531,1.46,1.4658,1.4658,1.4658,1.4727,1.4727,1.4727,1.4727,1.4727,1.4727,1.4785,1.4785,1.4785,1.4785,1.4854,1.4785,1.4854,1.4785,1.4854,1.4854,1.4922,1.4922,1.4922,1.499,1.499,1.5049,1.5049,1.5049,1.5049,1.5117,1.5186,1.5186,1.5254,1.5322,1.5332,1.5332,1.5332,1.5332,1.54,1.54,1.54,1.54,1.54,1.5469,1.5469,1.5537,1.5537,1.5537,1.5537,1.5615,1.5615,1.5615,1.5615,1.5615,1.5684,1.5684,1.5684,1.5684,1.5762,1.5762,1.583,1.583,1.583,1.583,1.5908,1.5908,1.5908,1.5986,1.5986,1.5986,1.5986,1.5986,1.6055,1.6055,1.6055,1.6133,1.6211,1.6211,1.6211,1.6211,1.6211,1.6211,1.6289,1.6289,1.6289,1.6289,1.6367,1.6367,1.6455,1.6533,1.6533,1.6533,1.6611,1.6611,1.6611,1.6611,1.6699,1.6699,1.6699,1.6699,1.6777,1.6777,1.6865,1.6865,1.6865,1.6865,1.6865,1.6777,1.6777,0,1.3076,1.3027,1.3027,1.2979,1.2979,1.2979,1.2979,1.293,1.2881,1.2881,1.2881,1.2832,1.2832,1.2832,1.2832,1.2832,1.2832,1.2832,1.2832,1.2832,1.2832,1.2832,1.2832,1.2832,1.2881,1.2881,1.2832,1.2832,1.2832,1.2832,1.2832,1.2832,1.2832,1.2881,1.2881,1.2881,1.2881,1.2881,1.2881,1.2881,1.2881,1.2881,1.2881,1.2881,1.2881,1.2881,1.2881,1.2881,1.2881,1.2881,1.2881,1.2881,1.2881,1.2881,1.2881,1.2881,1.2881,1.2881,1.2881,1.2881,1.2881,1.2881,1.2881,1.2881,1.2881,1.2881,1.2881,1.2881,1.2881,1.2881,1.2881,1.2832,1.2832,1.2832,1.2832,1.2881,1.2832,1.2881,1.2881,1.2881,1.2891,1.2842,1.2842,1.2891,1.2842,1.2832,1.2832,1.2832,1.2891,1.2891,1.2891,1.2891,1.2939,1.2939,1.2939,1.2939,1.2891,1.2891,1.2891,1.2891,1.2842,1.2842,1.2842,1.2842,1.2842,1.2842,1.2842,1.2793,1.2793,1.2793,1.2793,1.2793,1.2793,1.2793,1.2793,1.2793,1.2793,1.2793,1.2793,1.2793,1.2793,1.2793,1.2793,1.2793,1.2842,1.2842,1.2842,1.2842,1.2842,1.2842,1.2793,1.2793,1.2793,1.2793,1.2793,1.2793,1.2793,1.2793,1.2793,1.2793,1.2793,1.2793,1.2793,1.2793,1.2744,1.2793,1.2793,1.2744,1.2744,1.2744,1.2744,1.2793,1.2793,1.2793,1.2793,1.2793,1.2793,1.2793,1.2793,1.2793,1.2793,1.2793,1.2793,1.2793,1.2793,1.2793,1.2793,1.2793,1.2744,1.2744,1.2744,1.2793,1.2744,1.2793,1.2793,1.2793,1.2793,1.2793,1.2744,1.2744,1.2744,1.2744,1.2744,1.2744,1.2695,1.2695,1.2656,1.2656,1.2656,1.2656,1.2695,1.2695,0,0,0,0,0,0,0,0,0,0,0,0,0,0,0,0,0,0,0,0,0,0,0,0,0,1.5215,1.5078,1.5078,1.501,1.501,1.501,1.501,1.4941,1.4941,1.4941,1.4941,1.4941,1.4883,1.4883,1.4814,1.4814,1.4814,1.4814,1.4814,1.4814,1.4814,1.4746,1.4746,1.4746,1.4746,1.4746,1.4688,1.4688,1.4688,1.4619,1.4619,1.4619,1.4619,1.4619,1.4619,1.4561,1.4561,1.4502,1.4502,1.4502,1.4434,1.4434,1.4434,1.4434,1.4375,1.4434,1.4375,1.4375,1.4375,1.4375,1.4375,1.4434,0,0,0,0,0,0,0,0,0,0,0,0,0,0,0,0,0,0,0,0,0,0,0,0,0,0,0,0,0,0,0,0
1.2676,1.2676,1.2676,1.2725,1.2725,1.2773,1.2773,1.2773,1.2822,1.2822,1.2822,1.2822,1.2871,1.2871,1.2871,1.292,1.292,1.2969,1.2969,1.2969,1.3018,1.3066,1.3066,1.3066,1.3115,1.3164,1.3164,1.3174,1.3223,1.3223,1.3271,1.3271,1.3271,1.3271,1.333,1.333,1.333,1.333,1.333,1.3379,1.3379,1.3428,1.3428,1.3428,1.3486,1.3486,1.3486,1.3486,1.3535,1.3545,1.3545,1.3545,1.3594,1.3594,1.3594,1.3652,1.3652,1.3652,1.3652,1.3652,1.3701,1.3701,1.376,1.376,1.376,1.376,1.376,1.376,1.376,1.3818,1.3818,1.3877,1.3877,1.3936,1.4053,1.4053,1.4053,1.4053,1.4053,1.417,1.417,1.417,1.4229,1.4229,1.4229,1.4229,1.4229,1.4229,1.4287,1.4287,1.4346,1.4346,1.4414,1.4414,1.4414,1.4414,1.4473,1.4473,1.4473,1.4473,1.4473,1.4531,1.4531,1.4531,1.46,1.46,1.4658,1.4658,1.4658,1.4727,1.4727,1.4727,1.4727,1.4727,1.4727,1.4727,1.4785,1.4785,1.4785,1.4854,1.4854,1.2139,1.2139,1.2139,1.2139,1.4922,1.4922,1.499,1.499,1.499,1.5059,1.5059,1.5059,1.5059,1.5117,1.5254,1.5254,1.5332,1.5332,1.5332,1.5332,1.5332,1.5332,1.54,1.54,1.54,1.54,1.54,1.5469,1.5537,1.5537,1.5537,1.5615,1.5615,1.5615,1.5615,1.5615,1.5615,1.5615,1.5684,1.5684,1.5684,1.5684,1.5762,1.583,1.583,1.583,1.5908,1.5908,1.5908,1.5908,1.5908,1.5986,1.5986,1.5986,1.5986,1.6055,1.6055,1.6055,1.6133,1.6133,1.6211,1.6211,1.6211,1.6211,1.6211,1.6289,1.6289,1.6289,1.6289,1.6367,1.6367,1.6367,1.6455,1.6533,1.6533,1.6533,1.6611,1.6611,1.6611,1.6611,1.6699,1.6699,1.6699,1.6777,1.6777,1.6865,1.6865,1.6865,1.6865,1.6865,1.6865,1.6865,1.6777,0,1.3027,1.3027,1.3027,1.2979,1.2979,1.2979,1.293,1.2881,1.2881,1.2881,1.2832,1.2832,1.2832,1.2832,1.2832,1.2832,1.2832,1.2832,1.2832,1.2832,1.2832,1.2832,1.2832,1.2832,1.2881,1.2881,1.2832,1.2832,1.2832,1.2832,1.2832,1.2832,1.2832,1.2881,1.2881,1.2881,1.2881,1.2881,1.2881,1.2881,1.2881,1.2881,1.293,1.2881,1.2881,1.293,1.293,1.293,1.293,1.2881,1.2881,1.2881,1.2881,1.2881,1.2881,1.2881,1.2881,1.2881,1.2881,1.2881,1.2881,1.2881,1.2881,1.2881,1.2881,1.2881,1.2939,1.2881,1.2881,1.2881,1.2881,1.2881,1.2891,1.2891,1.2891,1.2891,1.2891,1.2891,1.2891,1.2891,1.2891,1.2891,1.2842,1.2891,1.2891,1.2842,1.2891,1.2891,1.2891,1.2891,1.2891,1.2891,1.2939,1.2939,1.2939,1.2939,1.2891,1.2891,1.2891,1.2891,1.2842,1.2842,1.2842,1.2842,1.2842,1.2842,1.2793,1.2793,1.2793,1.2793,1.2793,1.2793,1.2793,1.2793,1.2793,1.2793,1.2793,1.2793,1.2793,1.2793,1.2793,1.2793,1.2842,1.2842,1.2842,1.2891,1.2842,1.2842,1.2842,1.2842,1.2793,1.2793,1.2793,1.2793,1.2793,1.2793,1.2793,1.2793,1.2793,1.2793,1.2793,1.2793,1.2793,1.2793,1.2744,1.2744,1.2744,1.2744,1.2744,1.2744,1.2744,1.2793,1.2793,1.2793,1.2793,1.2793,1.2793,1.2793,1.2793,1.2793,1.2842,1.2842,1.2793,1.2793,1.2793,1.2793,1.2793,1.2793,1.2744,1.2744,1.2744,1.2793,1.2793,1.2793,1.2793,1.2793,1.2793,1.2744,1.2744,1.2744,1.2744,1.2744,1.2744,1.2695,1.2695,1.2695,1.2656,1.2656,1.2656,1.2656,1.2656,1.2695,1.2793,0,0,0,0,0,0,0,0,0,0,0,0,0,0,0,0,0,0,0,0,0,0,0,0,1.5146,1.5078,1.5078,1.501,1.501,1.501,1.4941,1.4941,1.4941,1.4941,1.4941,1.4941,1.4883,1.4883,1.4883,1.4883,1.4814,1.4814,1.4814,1.4814,1.4746,1.4746,1.4746,1.4746,1.4746,1.4688,1.4688,1.4688,1.4688,1.4688,1.4619,1.4619,1.4619,1.4619,1.4619,1.4619,1.4561,1.4561,1.4561,1.4502,1.4434,1.4434,1.4434,1.4434,1.4375,1.4434,1.4375,1.4375,1.4375,1.4375,1.4375,1.4434,0,0,0,0,0,0,0,0,0,0,0,0,0,0,0,0,0,0,0,0,0,0,0,0,0,0,0,0,0,0,0,0
1.2676,1.2676,1.2676,1.2725,1.2725,1.2773,1.2773,1.2773,1.2822,1.2822,1.2822,1.2822,1.2822,1.2871,1.2871,1.292,1.292,1.2969,1.2969,1.2969,1.3018,1.3066,1.3066,1.3066,1.3115,1.3115,1.3174,1.3174,1.3223,1.3223,1.3271,1.3271,1.3271,1.3271,1.3271,1.333,1.333,1.333,1.333,1.333,1.3379,1.3379,1.3428,1.3428,1.3428,1.3486,1.3486,1.3486,1.3545,1.3545,1.3545,1.3545,1.3594,1.3594,1.3652,1.3652,1.3652,1.3701,1.3701,1.3711,1.3711,1.376,1.376,1.376,1.376,1.3818,1.376,1.376,1.3818,1.3877,1.3877,1.3877,1.3936,1.3936,1.3994,1.3994,1.4053,1.4053,1.4053,1.417,1.417,1.4229,1.4229,1.4229,1.4229,1.4229,1.4229,1.4287,1.4287,1.4287,1.4287,1.4346,1.4414,1.4414,1.4414,1.4414,1.4414,1.4473,1.4473,1.4473,1.4531,1.4531,1.4531,1.4531,1.46,1.4658,1.4727,1.4727,1.4727,1.4727,1.4727,1.4727,1.4727,1.4727,1.4727,1.4727,1.4785,1.4785,1.4785,1.2051,1.209,1.209,1.209,1.209,1.209,1.2139,1.2178,1.2178,1.499,1.499,1.5059,1.5059,1.5059,1.5059,1.5127,1.5264,1.5264,1.5264,1.5332,1.5332,1.5332,1.5332,1.5332,1.54,1.54,1.54,1.54,1.54,1.5469,1.5537,1.5537,1.5537,1.5615,1.5615,1.5615,1.5615,1.5615,1.5615,1.5615,1.5684,1.5684,1.5684,1.5762,1.5762,1.583,1.583,1.583,1.5908,1.5908,1.5908,1.5908,1.5908,1.5986,1.5986,1.5986,1.5986,1.6064,1.6064,1.6064,1.6133,1.6133,1.6133,1.6211,1.6211,1.6211,1.6211,1.6289,1.6289,1.6289,1.6289,1.6289,1.6289,1.6377,1.6533,1.6533,1.6611,1.6611,1.6611,1.6611,1.6611,1.6611,1.6699,1.6699,1.6699,1.6777,1.6777,1.6865,1.6865,1.6865,1.6865,1.6865,1.6865,1.6865,1.6699,1.3027,1.3027,1.3027,1.3027,1.2979,1.2979,1.2979,1.293,1.2881,1.2881,1.2881,1.2881,1.2832,1.2832,1.2881,1.2881,1.2832,1.2832,1.2832,1.2881,1.2832,1.2832,1.2832,1.2832,1.2832,1.2832,1.2832,1.2832,1.2832,1.2832,1.2832,1.2832,1.2832,1.2832,1.2881,1.2881,1.2881,1.2881,1.2881,1.2881,1.2881,1.2881,1.2881,1.2881,1.2881,1.293,1.2881,1.2881,1.2881,1.2881,1.2881,1.2881,1.2881,1.2881,1.2881,1.2881,1.2881,1.2881,1.2881,1.2881,1.2881,1.2881,1.2881,1.2881,1.2881,1.2881,1.2939,1.2939,1.2891,1.2939,1.2891,1.2891,1.2891,1.2891,1.2891,1.2891,1.2891,1.2891,1.2891,1.2891,1.2891,1.2891,1.2842,1.2842,1.2842,1.2842,1.2842,1.2842,1.2891,1.2891,1.2891,1.2891,1.2891,1.2939,1.2939,1.2939,1.2939,1.2891,1.2891,1.2891,1.2891,1.2842,1.2842,1.2842,1.2842,1.2842,1.2842,1.2842,1.2842,1.2793,1.2793,1.2793,1.2793,1.2793,1.2842,1.2793,1.2793,1.2793,1.2793,1.2793,1.2793,1.2793,1.2793,1.2842,1.2842,1.2842,1.2842,1.2842,1.2842,1.2842,1.2842,1.2793,1.2793,1.2793,1.2793,1.2793,1.2793,1.2793,1.2793,1.2793,1.2793,1.2793,1.2793,1.2793,1.2793,1.2744,1.2744,1.2744,1.2744,1.2744,1.2744,1.2744,1.2793,1.2793,1.2793,1.2793,1.2793,1.2793,1.2793,1.2793,1.2793,1.2793,1.2793,1.2793,1.2793,1.2793,1.2793,1.2793,1.2793,1.2793,1.2793,1.2744,1.2793,1.2793,1.2793,1.2793,1.2793,1.2793,1.2744,1.2744,1.2744,1.2744,1.2744,1.2744,1.2744,1.2695,1.2695,1.2695,1.2656,1.2656,1.2656,1.2656,1.2705,0,0,0,0,0,0,0,0,0,0,0,0,0,0,0,0,0,0,0,0,0,0,0,0,0,1.5146,1.5078,1.5078,1.501,1.501,1.501,1.4941,1.4941,1.4941,1.4941,1.4941,1.4941,1.4883,1.4883,1.4883,1.4883,1.4814,1.4814,1.4814,1.4814,1.4814,1.4746,1.4746,1.4756,1.4756,1.4688,1.4688,1.4688,1.4688,1.4629,1.4629,1.4629,1.4629,1.4629,1.4629,1.4561,1.4561,1.4561,1.4561,1.4502,1.4434,1.4434,1.4434,1.4434,1.4434,1.4434,1.4375,1.4375,1.4443,1.4375,1.4443,1.4443,0,0,0,0,0,0,0,0,0,0,0,0,0,0,0,0,0,0,0,0,0,0,0,0,0,0,0,0,0,0,0,0
1.2676,1.2676,1.2676,1.2725,1.2773,1.2773,1.2773,1.2773,1.2822,1.2822,1.2822,1.2822,1.2822,1.2871,1.2871,1.292,1.2969,1.2969,1.2969,1.3018,1.3018,1.3066,1.3066,1.3115,1.3115,1.3174,1.3174,1.3174,1.3223,1.3223,1.3271,1.3271,1.3271,1.3271,1.3271,1.3271,1.333,1.333,1.333,1.333,1.3379,1.3438,1.3438,1.3438,1.3438,1.3486,1.3486,1.3545,1.3545,1.3545,1.3545,1.3545,1.3594,1.3652,1.3652,1.3652,1.3711,1.3711,1.3711,1.3711,1.3711,1.376,1.376,1.376,1.376,1.3818,1.3818,1.376,1.3818,0,1.3877,1.3877,1.3936,1.3936,1.4053,1.4053,1.4053,1.4053,1.4111,1.417,1.417,1.417,1.4229,1.4229,1.4229,1.4229,1.4229,1.4229,1.4287,1.4287,1.4287,1.4346,1.4414,1.4414,1.4473,1.4473,1.4473,1.4473,1.4473,1.4473,1.4531,1.4531,1.4531,1.4531,1.46,1.4727,1.4727,1.4727,1.4727,1.4727,1.4658,1.4727,1.2178,1.2178,1.209,1.2051,1.2051,1.2051,1.209,1.2051,1.2051,1.2051,1.2051,1.209,1.209,1.2139,1.2178,1.2178,1.2178,0,1.5059,1.499,1.5059,1.5059,1.5195,1.5264,1.5264,1.5264,1.5332,1.5332,1.5332,1.5332,1.5332,1.54,1.54,1.54,1.54,1.5469,1.5537,1.5537,1.5615,1.5615,1.5615,1.5615,1.5615,1.5615,1.5615,1.5615,1.5615,1.5684,1.5684,1.5684,1.5762,1.5762,1.583,1.583,1.5908,1.5908,1.5908,1.5908,1.5908,1.5908,1.5986,1.5986,1.5986,1.5986,1.6064,1.6064,1.6064,1.6133,1.6143,1.6143,1.6211,1.6211,1.6211,1.6289,1.6289,1.6299,1.6377,1.6299,1.6299,1.6299,1.6377,1.6533,1.6533,1.6611,1.6611,1.6611,1.6611,1.6611,1.6699,1.6699,1.6699,1.6699,1.6777,1.6777,1.6777,1.6865,1.6865,1.6865,1.6865,1.6865,1.6865,1.6777,1.3027,1.3027,1.3027,1.3027,1.3027,1.3027,1.2979,1.293,1.293,1.2881,1.2881,1.2881,1.2832,1.2881,1.2881,1.2881,1.2832,1.2832,1.2832,1.2832,1.2832,1.2832,1.2832,1.2832,1.2832,1.2832,1.2832,1.2832,1.2832,1.2832,1.2832,1.2832,1.2832,1.2832,1.2881,1.2881,1.2881,1.2881,1.2881,1.2881,1.2881,1.2881,1.2881,1.2881,1.293,1.2881,1.2881,1.2881,1.2881,1.2881,1.2881,1.2881,1.2881,1.2881,1.2881,1.2881,1.2881,1.2881,1.2881,1.2891,1.2891,1.2891,1.2891,1.2891,1.2891,1.2939,1.2939,1.2939,1.2939,1.2939,1.2891,1.2891,1.2891,1.2891,1.2891,1.2891,1.2891,1.2891,1.2891,1.2891,1.2891,1.2842,1.2842,1.2842,1.2842,1.2842,1.2842,1.2842,1.2891,1.2891,1.2891,1.2891,1.2891,1.2939,1.2939,1.2939,1.2891,1.2891,1.2891,1.2891,1.2842,1.2842,1.2842,1.2842,1.2842,1.2842,1.2842,1.2842,1.2842,1.2842,1.2842,1.2842,1.2842,1.2842,1.2842,1.2793,1.2793,1.2793,1.2793,1.2793,1.2793,1.2793,1.2793,1.2842,1.2842,1.2842,1.2842,1.2842,1.2842,1.2842,1.2842,1.2793,1.2793,1.2793,1.2793,1.2793,1.2793,1.2793,1.2793,1.2793,1.2744,1.2793,1.2793,1.2793,1.2793,1.2744,1.2744,1.2744,1.2744,1.2744,1.2744,1.2744,1.2793,1.2793,1.2793,1.2793,1.2793,1.2793,1.2793,1.2793,1.2793,1.2793,1.2793,1.2793,1.2793,1.2793,1.2793,1.2793,1.2793,1.2793,1.2793,1.2744,1.2744,1.2793,1.2793,1.2793,1.2793,1.2793,1.2744,1.2744,1.2744,1.2744,1.2744,1.2744,1.2705,1.2705,1.2705,1.2705,1.2656,1.2656,1.2656,1.2656,1.2705,0,0,0,0,0,0,0,0,0,0,0,0,0,0,0,0,0,0,0,0,0,0,0,0,0,1.5215,1.5146,1.501,1.501,1.501,1.501,1.501,1.501,1.4941,1.4941,1.4941,1.4941,1.4883,1.4883,1.4883,1.4883,1.4814,1.4814,1.4814,1.4814,1.4756,1.4756,1.4756,1.4756,1.4756,1.4688,1.4688,1.4629,1.4688,1.4629,1.4629,1.4629,1.4629,1.4629,1.4629,1.4561,1.4561,1.4561,1.4561,1.4502,1.4443,1.4443,1.4443,1.4443,1.4443,1.4443,1.4375,1.4375,1.4443,1.4443,1.4443,1.4443,0,0,0,0,0,0,0,0,0,0,0,0,0,0,0,0,0,0,0,0,0,0,0,0,0,0,0,0,0,0,0,0
1.2676,1.2676,1.2725,1.2725,1.2773,1.2773,1.2773,1.2773,1.2822,1.2822,1.2822,1.2822,1.2822,1.2871,1.2871,1.2969,1.2969,1.3018,1.3066,1.3066,1.3066,1.3066,1.3066,1.3115,1.3115,1.3174,1.3174,1.3223,1.3223,1.3223,1.3271,1.3271,1.3271,1.3271,1.3271,1.3271,1.333,1.333,1.333,1.333,1.3379,1.3438,1.3438,1.3438,1.3438,1.3486,1.3486,1.3486,1.3545,1.3545,1.3545,1.3594,1.3594,1.3652,1.3652,1.3652,1.3711,1.3711,1.3711,1.3711,1.376,1.376,1.376,1.376,1.3818,1.3818,1.3818,1.3818,1.3818,1.3877,1.3936,1.3936,1.3936,1.3994,1.4053,1.4053,1.4053,1.4111,1.4111,1.4111,1.417,1.417,1.4229,1.4229,1.4229,1.4229,1.4229,1.4229,1.4287,1.4287,1.4287,1.4287,1.4414,1.4473,1.4473,1.4473,1.4473,1.4473,1.4473,1.4473,1.4531,1.4473,1.4531,1.4531,1.1885,1.1885,1.1924,1.1924,1.1924,1.1924,1.2002,1.2051,1.2051,1.2012,1.2012,1.2051,1.2012,1.2051,1.209,1.2051,1.2051,1.209,1.209,1.2139,1.2139,1.2139,1.2178,1.2139,1.2178,1.2178,1.2139,0,1.5059,1.5059,1.5127,1.5264,1.5264,1.5264,1.5332,1.5332,1.5332,1.5332,1.54,1.54,1.54,1.54,1.54,1.5469,1.5537,1.5547,1.5615,1.5615,1.5615,1.5615,1.5615,1.5615,1.5615,1.5615,1.5615,1.5684,1.5762,1.5684,1.5762,1.583,1.583,1.583,1.5908,1.5908,1.5908,1.5908,1.5908,1.5986,1.5986,1.5986,1.5986,1.5986,1.6064,1.6064,1.6064,1.6143,1.6221,1.6221,1.6221,1.6221,1.6299,1.6299,1.6299,1.6299,1.6377,1.6299,1.6299,1.6377,1.6377,1.6533,1.6533,1.6611,1.6611,1.6611,1.6699,1.6699,1.6699,1.6699,1.6699,1.6777,1.6777,1.6777,1.6777,1.6865,1.6777,1.6865,1.6865,1.6865,1.6865,1.6787,1.3027,1.3027,1.3027,1.3027,1.3027,1.3027,1.2979,1.293,1.293,1.2881,1.2881,1.2881,1.2832,1.2832,1.2832,1.2832,1.2832,1.2832,1.2832,1.2832,1.2832,1.2832,1.2832,1.2881,1.2832,1.2881,1.2832,1.2832,1.2832,1.2832,1.2881,1.2832,1.2832,1.2832,1.293,1.2881,1.293,1.2881,1.2881,1.2881,1.2881,1.2881,1.2881,1.2881,1.2881,1.2881,1.2881,1.2881,1.2881,1.2881,1.2881,1.2891,1.2891,1.2891,1.2891,1.2891,1.2891,1.2891,1.2891,1.2891,1.2891,1.2891,1.2891,1.2891,1.2891,1.2939,1.2939,1.2939,1.2939,1.2939,1.2939,1.2891,1.2891,1.2891,1.2891,1.2891,1.2891,1.2891,1.2891,1.2891,1.2891,1.2891,1.2842,1.2842,1.2842,1.2842,1.2842,1.2842,1.2842,1.2891,1.2891,1.2842,1.2842,1.2891,1.2939,1.2939,1.2891,1.2891,1.2891,1.2891,1.2891,1.2842,1.2891,1.2891,1.2891,1.2891,1.2842,1.2842,1.2842,1.2842,1.2842,1.2842,1.2842,1.2842,1.2842,1.2842,1.2793,1.2793,1.2793,1.2793,1.2793,1.2793,1.2793,1.2842,1.2842,1.2842,1.2842,1.2842,1.2842,1.2842,1.2793,1.2793,1.2793,1.2793,1.2793,1.2793,1.2793,1.2793,1.2744,1.2744,1.2744,1.2793,1.2793,1.2744,1.2744,1.2744,1.2744,1.2744,1.2744,1.2744,1.2744,1.2744,1.2793,1.2793,1.2793,1.2793,1.2793,1.2793,1.2793,1.2793,1.2793,1.2793,1.2793,1.2793,1.2793,1.2793,1.2793,1.2744,1.2744,1.2744,1.2744,1.2744,1.2744,1.2744,1.2744,1.2744,1.2744,1.2744,1.2793,1.2705,1.2705,1.2744,1.2744,1.2705,1.2705,1.2705,1.2705,1.2705,1.2705,1.2656,1.2656,1.2656,0,0,0,0,0,0,0,0,0,0,0,0,0,0,0,0,0,0,0,0,0,0,0,0,0,0,1.5215,1.5146,1.5146,1.501,1.501,1.501,1.501,1.501,1.4951,1.4951,1.4951,1.4951,1.4951,1.4883,1.4883,1.4883,1.4814,1.4814,1.4756,1.4756,1.4756,1.4756,1.4688,1.4688,1.4688,1.4688,1.4688,1.4629,1.4688,1.4629,1.4629,1.4629,1.4629,1.4629,1.4629,1.4629,1.4561,1.4561,1.4561,1.4561,1.4502,1.4502,1.4502,1.4502,1.4502,1.4502,1.4443,1.4443,1.4443,1.4443,1.4443,1.4443,0,0,0,0,0,0,0,0,0,0,0,0,0,0,0,0,0,0,0,0,0,0,0,0,0,0,0,0,0,0,0,0
1.2725,1.2725,1.2725,1.2822,1.2822,1.2773,1.2773,1.2773,1.2822,1.2822,1.2822,1.2822,1.2822,1.2871,1.2871,1.2969,1.3018,1.3066,1.3066,1.3066,1.3066,1.3066,1.3066,1.3115,1.3115,1.3174,1.3174,1.3174,1.3223,1.3223,1.3271,1.3271,1.3271,1.3271,1.3271,1.333,1.333,1.333,1.333,1.3379,1.3379,1.3438,1.3438,1.3438,1.3438,1.3486,1.3486,1.3545,1.3545,1.3545,1.3545,1.3594,1.3594,1.3652,1.3652,1.3652,1.3711,1.3711,1.3711,1.3711,1.3711,1.376,1.376,1.376,1.376,1.3818,1.3818,1.3818,1.3877,1.3877,1.3936,1.3936,1.3936,1.3994,1.4053,1.4053,1.4053,1.4111,1.4111,1.4111,1.417,1.4229,1.4229,1.4229,1.4229,1.4287,1.4287,1.4287,1.4287,1.4287,1.4287,1.4287,1.4287,1.4414,1.4473,1.4473,1.4473,1.4473,1.4473,1.4473,1.4541,1.1836,1.1836,1.1836,1.1885,1.1885,1.1885,1.1885,1.1885,1.1885,1.1963,1.2012,1.2012,1.2012,1.2012,1.2012,1.2051,1.2051,1.2051,1.2051,1.2051,1.209,1.209,1.2139,1.209,1.2139,1.2139,1.2139,1.2139,1.2178,1.2139,0,0,0,1.5127,1.5264,1.5264,1.5332,1.5332,1.54,1.5332,1.54,1.54,1.54,1.54,1.54,1.5469,1.5469,1.5547,1.5615,1.5615,1.5615,1.5615,1.5615,1.5615,1.5615,1.5615,1.5684,1.5684,1.5684,1.5762,1.5762,1.5762,1.584,1.584,1.584,1.584,1.5908,1.5908,1.5986,1.5986,1.5986,1.5986,1.5986,1.5986,1.6064,1.6064,1.6064,1.6143,1.6143,1.6221,1.6221,1.6221,1.6299,1.6299,1.6299,1.6299,1.6299,1.6377,1.6299,1.6299,1.6377,1.6377,1.6533,1.6533,1.6621,1.6621,1.6699,1.6699,1.6699,1.6699,1.6699,1.6777,1.6777,1.6777,1.6865,1.6865,1.6865,1.6865,1.6865,1.6865,1.6865,1.6953,0,1.3027,1.3027,1.3027,1.3027,1.3037,1.3037,1.2979,1.293,1.293,1.2881,1.2881,1.2832,1.2832,1.2832,1.2832,1.2832,1.2832,1.2832,1.2832,1.2832,1.2832,1.2832,1.2881,1.2881,1.2881,1.2881,1.2832,1.2832,1.2832,1.2881,1.2881,1.2881,1.2832,1.2832,1.2881,1.2881,1.2939,1.2891,1.2881,1.2881,1.2881,1.2881,1.2881,1.2881,1.2939,1.2891,1.2891,1.2891,1.2891,1.2891,1.2891,1.2891,1.2891,1.2891,1.2891,1.2891,1.2891,1.2891,1.2891,1.2891,1.2891,1.2891,1.2891,1.2891,1.2891,1.2891,1.2939,1.2939,1.2939,1.2939,1.2939,1.2891,1.2891,1.2891,1.2891,1.2891,1.2891,1.2891,1.2891,1.2891,1.2891,1.2891,1.2842,1.2842,1.2842,1.2842,1.2842,1.2842,1.2842,1.2842,1.2891,1.2842,1.2842,1.2891,1.2891,1.2939,1.2891,1.2891,1.2891,1.2891,1.2842,1.2842,1.2891,1.2891,1.2891,1.2891,1.2891,1.2891,1.2891,1.2891,1.2891,1.2891,1.2891,1.2842,1.2842,1.2842,1.2793,1.2793,1.2842,1.2793,1.2793,1.2793,1.2793,1.2793,1.2793,1.2793,1.2793,1.2793,1.2793,1.2793,1.2842,1.2793,1.2793,1.2793,1.2793,1.2793,1.2793,1.2793,1.2744,1.2744,1.2744,1.2793,1.2793,1.2744,1.2744,1.2744,1.2744,1.2744,1.2744,1.2744,1.2744,1.2744,1.2793,1.2793,1.2793,1.2793,1.2793,1.2793,1.2793,1.2793,1.2793,1.2793,1.2793,1.2793,1.2793,1.2793,1.2793,1.2744,1.2793,1.2744,1.2744,1.2744,1.2744,1.2744,1.2744,1.2744,1.2754,1.2754,1.2754,1.2754,1.2705,1.2744,1.2744,1.2705,1.2705,1.2705,1.2705,1.2705,1.2656,1.2656,1.2656,1.2656,1.2705,0,0,0,0,0,0,0,0,0,0,0,0,0,0,0,0,0,0,0,0,0,0,0,0,0,1.5146,1.5146,1.5146,1.501,1.501,1.501,1.501,1.501,1.4951,1.4951,1.4951,1.4951,1.4951,1.4883,1.4883,1.4883,1.4883,1.4814,1.4814,1.4814,1.4814,1.4756,1.4756,1.4756,1.4688,1.4688,1.4688,1.4688,1.4688,1.4629,1.4629,1.4629,1.4629,1.4629,1.4629,1.4629,1.4629,1.4561,1.4561,1.4561,1.4502,1.4502,1.4502,1.4502,1.4502,1.4502,1.4443,1.4443,1.4443,1.4443,1.4443,1.4443,0,0,0,0,0,0,0,0,0,0,0,0,0,0,0,0,0,0,0,0,0,0,0,0,0,0,0,0,0,0,0,0
1.2725,1.2725,1.2773,1.2773,1.2822,1.2822,1.2822,1.2822,1.2871,1.2871,1.2871,1.2871,1.2871,1.2871,1.292,1.3018,1.2969,1.3018,1.3066,1.3066,1.3066,1.3115,1.3125,1.3125,1.3125,1.3125,1.3174,1.3174,1.3223,1.3271,1.3271,1.3271,1.333,1.3271,1.3271,1.333,1.333,1.333,1.333,1.333,1.3379,1.3486,1.3486,1.3438,1.3486,1.3486,1.3545,1.3545,1.3545,1.3545,1.3545,1.3594,1.3652,1.3652,1.3652,1.3652,1.3711,1.3711,1.3711,1.3711,1.3711,1.376,1.376,1.376,1.3818,1.3818,1.3818,1.3877,1.3877,1.3877,1.3936,1.3936,1.3936,1.3994,1.4053,1.4053,1.4053,1.4053,1.4111,1.417,1.4229,1.4229,1.4229,1.4287,1.4287,1.4287,1.4287,1.4287,1.4287,1.4287,1.4287,1.168,1.4287,0,1.1719,1.1758,1.1797,1.1797,1.1836,1.1836,1.1836,1.1836,1.1836,1.1836,1.1836,1.1885,1.1885,1.1885,1.1885,1.1924,1.1963,1.2012,1.2012,1.2012,1.2012,1.2012,1.2051,1.2051,1.2051,1.2051,1.2051,1.2051,1.209,1.209,1.209,1.209,1.21,1.21,1.2139,1.2139,1.2139,0,0,0,1.5264,1.5332,1.5332,1.5332,1.5332,1.54,1.54,1.54,1.54,1.54,1.54,1.54,1.54,1.5469,1.5547,1.5547,1.5615,1.5615,1.5615,1.5615,1.5684,1.5684,1.5684,1.5684,1.5684,1.5684,1.5762,1.5762,1.5762,1.584,1.584,1.5908,1.5908,1.5908,1.5908,1.5986,1.5986,1.5986,1.5986,1.5986,1.6064,1.6064,1.6064,1.6143,1.6143,1.6221,1.6221,1.6221,1.6299,1.6299,1.6299,1.6299,1.6299,1.6299,1.6377,1.6299,1.6299,1.6377,1.6377,1.6533,1.6533,1.6621,1.6621,1.6699,1.6699,1.6699,1.6699,1.6787,1.6787,1.6787,1.6787,1.6865,1.6865,1.6953,1.6865,1.6953,1.6865,1.6865,0,0,1.3086,1.3086,1.3037,1.3037,1.3037,1.3037,1.2979,1.293,1.293,1.2881,1.2881,1.2881,1.2881,1.2832,1.2832,1.2832,1.2832,1.2832,1.2832,1.2832,1.2832,1.2832,1.2881,1.2881,1.2881,1.2881,1.2881,1.2881,1.2881,1.2881,1.2891,1.2891,1.2842,1.2842,1.2891,1.2891,1.2891,1.2891,1.2891,1.2891,1.2891,1.2891,1.2891,1.2891,1.2939,1.2939,1.2891,1.2891,1.2891,1.2891,1.2891,1.2891,1.2891,1.2891,1.2891,1.2891,1.2891,1.2891,1.2891,1.2891,1.2891,1.2891,1.2891,1.2891,1.2891,1.2891,1.2891,1.2939,1.2939,1.2939,1.2939,1.2891,1.2891,1.2891,1.2891,1.2891,1.2891,1.2891,1.2891,1.2891,1.2891,1.2891,1.2842,1.2891,1.2842,1.2891,1.2842,1.2842,1.2842,1.2842,1.2842,1.2842,1.2793,1.2842,1.2891,1.2939,1.2891,1.2891,1.2891,1.2891,1.2891,1.2842,1.2842,1.2891,1.2891,1.2891,1.2891,1.2891,1.2891,1.2891,1.2891,1.2891,1.2891,1.2842,1.2842,1.2793,1.2793,1.2842,1.2842,1.2842,1.2793,1.2793,1.2793,1.2793,1.2793,1.2793,1.2793,1.2793,1.2793,1.2793,1.2842,1.2793,1.2793,1.2793,1.2793,1.2793,1.2793,1.2793,1.2793,1.2793,1.2793,1.2793,1.2793,1.2793,1.2793,1.2744,1.2744,1.2744,1.2744,1.2744,1.2744,1.2744,1.2793,1.2793,1.2793,1.2793,1.2793,1.2793,1.2793,1.2793,1.2793,1.2793,1.2793,1.2793,1.2793,1.2793,1.2793,1.2744,1.2793,1.2754,1.2754,1.2754,1.2793,1.2793,1.2754,1.2754,1.2793,1.2793,1.2754,1.2754,1.2754,1.2754,1.2754,1.2754,1.2754,1.2705,1.2705,1.2705,1.2656,1.2656,1.2656,1.2656,0,0,0,0,0,0,0,0,0,0,0,0,0,0,0,0,0,0,0,0,0,0,0,0,0,0,1.5146,1.5146,1.5078,1.501,1.501,1.501,1.501,1.501,1.4951,1.4951,1.4951,1.4951,1.4951,1.4883,1.4883,1.4883,1.4814,1.4814,1.4814,1.4814,1.4814,1.4756,1.4756,1.4756,1.4688,1.4688,1.4688,1.4688,1.4629,1.4629,1.4629,1.4629,1.4629,1.4629,1.4629,1.4629,1.4629,1.4561,1.4561,1.4561,1.4502,1.4502,1.4502,1.4502,1.4502,1.4502,1.4443,1.4443,1.4375,1.4443,1.4443,1.4502,0,0,0,0,0,0,0,0,0,0,0,0,0,0,0,0,0,0,0,0,0,0,0,0,0,0,0,0,0,0,0,0
1.2725,1.2725,1.2725,1.2773,1.2822,1.2822,1.2822,1.2822,1.2822,1.2871,1.2871,1.2871,1.2871,1.292,1.292,1.3018,1.3018,1.3066,1.3066,1.3066,1.3066,1.3125,1.3125,1.3125,1.3125,1.3125,1.3174,1.3223,1.3223,1.3223,1.3271,1.333,1.333,1.333,1.333,1.3271,1.333,1.333,1.333,1.333,1.3438,1.3486,1.3486,1.3438,1.3486,1.3486,1.3545,1.3545,1.3545,1.3545,1.3545,1.3594,1.3652,1.3652,1.3652,1.3652,1.3711,1.3711,1.3711,1.3711,1.377,1.377,1.377,1.377,1.3818,1.3877,1.3877,1.3877,1.3877,1.3936,1.3936,1.3936,1.3936,1.3994,1.4053,1.4053,1.4053,1.4053,1.4053,1.4053,1.417,1.4229,1.4229,1.4229,1.4229,1.4287,1.4229,1.1719,1.4287,1.1719,1.1719,1.1719,1.168,1.1719,1.1719,1.1719,1.1758,1.1797,1.1797,1.1797,1.1797,1.1797,1.1836,1.1836,1.1836,1.1885,1.1885,1.1885,1.1885,1.1885,1.1924,1.1924,1.1963,1.1963,1.1963,1.2012,1.2012,1.2012,1.2051,1.2051,1.2051,1.2051,1.2051,1.2051,1.21,1.2051,1.21,1.2051,1.21,1.21,1.2051,0,0,0,1.5264,1.5264,1.5332,1.5332,1.5332,1.5332,1.54,1.54,1.54,1.54,1.54,1.54,1.54,1.5469,1.5469,1.5615,1.5615,1.5615,1.5684,1.5615,1.5693,1.5693,1.5693,1.5693,1.5693,1.5693,1.5762,1.5762,1.5762,1.584,1.584,1.5908,1.5908,1.5908,1.5908,1.5986,1.5986,1.5986,1.5986,1.5986,1.6064,1.6064,1.6064,1.6064,1.6143,1.6221,1.6221,1.6221,1.6221,1.6299,1.6299,1.6299,1.6299,1.6299,1.6377,1.6377,1.6377,1.6377,1.6377,1.6533,1.6533,1.6621,1.6621,1.6699,1.6699,1.6699,1.6699,1.6787,1.6787,1.6787,1.6865,1.6865,1.6865,1.6953,1.6953,1.6953,1.6953,1.6953,0,1.3086,1.3086,1.3037,1.3037,1.3037,1.3037,1.3037,1.2988,1.293,1.293,1.2881,1.2881,1.2881,1.2881,1.2881,1.2832,1.2832,1.2832,1.2832,1.2832,1.2832,1.2832,1.2832,1.2881,1.2891,1.2891,1.2891,1.2891,1.2891,1.2891,1.2891,1.2891,1.2842,1.2842,1.2842,1.2939,1.2939,1.2891,1.2891,1.2891,1.2891,1.2891,1.2891,1.2891,1.2891,1.2891,1.2891,1.2939,1.2939,1.2891,1.2891,1.2891,1.2891,1.2891,1.2891,1.2891,1.2891,1.2891,1.2891,1.2891,1.2891,1.2891,1.2891,1.2891,1.2891,1.2891,1.2891,1.2891,1.2939,1.2939,1.2939,1.2939,1.2891,1.2891,1.2891,1.2891,1.2891,1.2842,1.2891,1.2891,1.2891,1.2891,1.2891,1.2842,1.2891,1.2842,1.2842,1.2891,1.2842,1.2842,1.2842,1.2891,1.2842,1.2842,1.2891,1.2891,1.2939,1.2939,1.2939,1.2891,1.2891,1.2891,1.2891,1.2842,1.2891,1.2891,1.2939,1.2891,1.2891,1.2891,1.2891,1.2891,1.2891,1.2842,1.2793,1.2793,1.2793,1.2793,1.2793,1.2793,1.2842,1.2842,1.2793,1.2793,1.2842,1.2842,1.2793,1.2793,1.2793,1.2793,1.2793,1.2793,1.2793,1.2793,1.2793,1.2793,1.2793,1.2793,1.2793,1.2793,1.2793,1.2793,1.2793,1.2793,1.2793,1.2793,1.2744,1.2744,1.2744,1.2744,1.2744,1.2744,1.2744,1.2793,1.2793,1.2793,1.2793,1.2793,1.2793,1.2793,1.2793,1.2793,1.2793,1.2793,1.2793,1.2793,1.2793,1.2793,1.2754,1.2793,1.2793,1.2754,1.2803,1.2754,1.2754,1.2754,1.2754,1.2803,1.2803,1.2754,1.2754,1.2754,1.2754,1.2754,1.2754,1.2754,1.2705,1.2754,1.2754,1.2754,1.2705,1.2705,1.2705,0,0,0,0,0,0,0,0,0,0,0,0,0,0,0,0,0,0,0,0,0,0,0,0,0,0,1.5146,1.5215,1.5078,1.502,1.502,1.502,1.502,1.502,1.4951,1.4951,1.4951,1.4951,1.4951,1.4883,1.4883,1.4883,1.4814,1.4814,1.4756,1.4756,1.4756,1.4756,1.4756,1.4756,1.4756,1.4756,1.4688,1.4688,1.4688,1.4629,1.4629,1.4629,1.4629,1.4629,1.4629,1.4629,1.4629,1.4561,1.4561,1.4561,1.4502,1.4502,1.4502,1.4502,1.4502,1.4502,1.4443,1.4443,1.4443,1.4443,1.4443,1.4502,0,0,0,0,0,0,0,0,0,0,0,0,0,0,0,0,0,0,0,0,0,0,0,0,0,0,0,0,0,0,0,0
