0.85645,0.85889,0.85889,0.85645,0.85889,0.85693,0.85693,0.85889,0.85693,0.85889,0.85889,0.85889,0.85889,0.85889,0.85889,0.85889,0.86133,0.86328,0.86328,0.86572,0.86572,0.86768,0.86768,0.86768,0.86768,0.87012,0.87012,0.87207,0.87207,0.87647,0.87891,0.88135,0.88135,0.8833,0.88379,0.88574,0.88818,0.88818,0.89062,0.89746,0.90234,0.90723,0.90723,0.90967,0.90967,0.90967,0.90967,0.90967,0.90967,0.91211,0.91211,0.91211,0.91455,0.91455,0.91455,0.91699,0.91455,0.91455,0,0,0,1.1309,1.1309,1.1338,1.1338,1.1338,1.1309,1.1309,1.1309,1.1309,1.1338,1.1309,1.1309,1.1309,1.1309,1.1309,1.1348,1.1348,0,1.1416,1.1416,1.1416,1.1416,1.1416,1.1416,1.1416,1.1416,1.1416,1.1416,1.1416,1.1455,1.1455,1.1455,1.1455,1.1455,1.1455,1.1455,1.1455,1.1455,1.1494,1.1494,1.1572,1.1572,1.1611,1.166,1.166,1.166,1.166,1.1699,1.1699,1.1699,1.1699,1.1699,1.1699,1.1699,1.1699,1.1699,1.1699,1.1738,1.1738,1.1738,1.1738,1.1699,1.1699,1.1699,1.1699,1.166,1.166,1.1699,1.1699,1.1699,1.1699,1.1699,1.1738,1.1738,1.1738,1.1738,1.1738,1.1738,1.1777,1.1777,1.1777,1.1777,1.1777,1.1777,1.1777,1.1777,1.1777,1.1816,1.1816,1.1816,1.1816,1.1777,1.1777,1.1777,1.1777,1.1777,1.1777,1.1777,1.1777,1.1816,1.0908,1.0908,1.084,1.0742,1.0703,1.0635,1.0576,1.0537,1.0508,1.0508,1.0479,1.0479,1.0479,1.0479,1.0479,1.0508,1.0508,1.0508,1.0508,1.0508,1.0508,1.0508,1.0508,1.0508,1.0508,1.0508,1.0537,1.0537,1.0576,1.0576,1.0605,1.0645,1.0645,1.0645,1.0645,1.0645,1.0645,1.0674,1.0674,1.0674,1.0674,1.0674,1.0674,1.0674,1.0703,1.0703,1.0703,1.0703,1.0703,1.0742,1.0742,1.0771,0,1.1699,1.1699,1.1748,1.1748,1.1748,1.1699,1.1748,1.1748,1.1699,1.1699,1.166,1.1699,1.1699,1.1699,1.1699,1.1699,1.1699,1.1699,1.1699,1.1699,1.1699,1.1699,1.1699,1.1699,1.1699,1.1699,1.1699,1.1699,1.1699,1.1709,1.1748,1.1787,1.1787,1.1748,1.1787,1.1826,1.1826,1.1826,1.1787,1.1748,1.1748,1.1787,1.1748,1.1748,1.1748,1.1748,1.1748,1.1748,1.1748,1.1748,1.1787,1.1748,1.1787,1.1748,1.1787,1.1787,1.1787,1.1787,1.1787,1.1748,1.1748,1.1787,1.1787,1.1787,1.1787,1.1787,1.1787,1.1787,1.1787,1.1826,1.1787,1.1787,1.1787,1.1787,1.1787,1.1787,1.1787,1.1787,1.1787,1.1787,1.1787,1.1787,1.1787,1.1787,1.1787,1.1787,1.1787,1.1787,1.1787,1.1826,1.1826,1.1787,1.1826,1.1826,1.1826,1.1826,1.1826,1.1787,1.1787,1.1826,1.1875,1.1826,1.1826,1.1787,1.1826,1.1826,1.1826,1.1787,1.1826,1.1787,1.1787,1.1787,1.1787,1.1787,1.1748,1.1748,1.1748,1.1748,1.1748,1.1709,1.1748,1.1787,1.1787,1.1787,1.1787,1.1875,1.1875,1.1875,1.1914,1.1914,1.1953,1.1914,1.1953,1.1787,1.1748,1.1748,1.1748,1.1748,1.1787,1.1748,1.1748,1.1748,1.1709,1.1709,1.1709,1.1797,1.1797,1.1797,1.1797,1.1836,1.1836,1.1836,1.1836,1.1836,1.1875,1.1836,1.1875,1.1875,1.1875,1.1875,1.1875,1.1836,1.1836,1.1875,1.1836,1.1836,1.1836,1.1836,1.1836,1.1836,1.1836,1.1836,1.1836,1.1836,1.1836,1.1875,0,0,0,1.2129,1.2129,1.2129,1.2041,1.2041,1.2002,1.2002,1.2041,1.2002,1.2002,1.2002,1.0957,1.0928,1.0889,1.0889,1.0859,1.082,1.082,1.0791,1.0791,1.0752,1.0752,1.0752,1.0752,1.0791,1.0752,1.0723,1.0723,1.0723,1.0684,1.0684,1.0654,1.0654,1.0615,1.0615,1.0615,1.0557,1.0557,1.0518,1.0488,1.0488,1.0459,1.0459,1.0459,1.043,1.043,1.043,1.0391,1.0391,1.0361,1.0361,1.0332,1.0332,1.0303,1.0303,1.0303,1.0303,1.0273,1.0273,1.0234,1.0234,1.0205,1.0205,1.0205,1.0205,1.0205,1.0205,1.0176,1.0146,1.0146,1.0146,1.0146,1.0146,1.0117,1.0117,1.0117,1.0088,1.0088,1.0059,1.0059,1.0059,1.0059,1.0029,1.0029,1.0029,0.99707,0.99414,0.99414,0,0,0,0,0,0,0,0,0,0,0,0,0,0,0,0,0,0,0,0,0,0,0,0,0,0,0,0,0,0,0,0,0,0,0,0,0,0,0
0.85693,0.85693,0.85693,0.85693,0.85693,0.85693,0.85693,0.85693,0.85693,0.85693,0.85693,0.85889,0.85889,0.85693,0.85889,0.85889,0.86133,0.86328,0.86572,0.86572,0.86572,0.86572,0.86768,0.86768,0.86768,0.87012,0.87012,0.87207,0.87207,0.87695,0.87891,0.87891,0.88135,0.88379,0.88379,0.88379,0.88574,0.88818,0.89062,0.89746,0.8999,0.90723,0.90723,0.90723,0.90967,0.90967,0.90967,0.90967,0.91211,0.91211,0.91455,0.91211,0.91455,0.91455,0.91699,0.91699,0.87695,0.87891,0.88135,0.88135,0,0,1.1309,1.1338,1.1338,1.1338,1.1338,1.1348,1.1348,1.1348,1.1348,1.1348,1.1309,1.1309,1.1348,1.1348,1.1348,1.1377,1.1377,1.1416,1.1416,1.1416,1.1416,1.1416,1.1455,1.1416,1.1455,1.1455,1.1455,1.1455,1.1455,1.1455,1.1455,1.1455,1.1455,1.1455,1.1455,1.1455,1.1455,1.1494,1.1494,1.1533,1.1572,1.1621,1.1621,1.166,1.1621,1.1621,1.1621,1.1621,1.1621,1.1621,1.1621,1.1621,1.1621,1.1621,1.1621,1.1621,1.1621,1.166,1.166,1.166,1.166,1.166,1.166,1.166,1.166,1.166,1.1699,1.166,1.166,1.166,1.166,1.1699,1.166,1.1699,1.1699,1.1699,1.1699,1.1738,1.1738,1.1738,1.1738,1.1777,1.1777,1.1777,1.1777,1.1777,1.1777,1.1777,1.1777,1.1777,1.1777,1.1777,1.1777,1.1777,1.1777,1.1777,1.1777,1.1826,1.1826,1.1777,1.0947,1.0811,1.0742,1.0635,1.0605,1.0576,1.0537,1.0537,1.0508,1.0479,1.0479,1.0479,1.0479,1.0479,1.0508,1.0508,1.0508,1.0508,1.0508,1.0508,1.0508,1.0508,1.0537,1.0508,1.0537,1.0537,1.0576,1.0576,1.0576,1.0645,1.0645,1.0645,1.0645,1.0645,1.0645,1.0645,1.0674,1.0674,1.0674,1.0674,1.0674,1.0674,1.0703,1.0703,1.0742,1.0742,1.0742,1.0742,1.0771,1.0771,1.0771,1.0771,0,1.1699,1.1699,1.1699,1.1699,1.1699,1.1699,1.1699,1.1699,1.166,1.166,1.166,1.166,1.166,1.166,1.166,1.166,1.166,1.166,1.166,1.166,1.166,1.166,1.1709,1.1709,1.166,1.1709,1.1709,1.1709,1.1709,1.1709,1.1709,1.1709,1.1748,1.1748,1.1748,1.1826,1.1826,1.1787,1.1748,1.1787,1.1748,1.1748,1.1748,1.1748,1.1748,1.1748,1.1748,1.1748,1.1748,1.1748,1.1748,1.1748,1.1748,1.1748,1.1787,1.1748,1.1748,1.1748,1.1748,1.1748,1.1748,1.1748,1.1748,1.1787,1.1748,1.1787,1.1787,1.1787,1.1787,1.1787,1.1787,1.1875,1.1787,1.1748,1.1787,1.1748,1.1748,1.1748,1.1748,1.1748,1.1748,1.1748,1.1748,1.1748,1.1787,1.1787,1.1787,1.1787,1.1787,1.1787,1.1787,1.1826,1.1826,1.1826,1.1826,1.1787,1.1787,1.1748,1.1787,1.1787,1.1787,1.1787,1.1787,1.1836,1.1787,1.1787,1.1787,1.1787,1.1787,1.1787,1.1787,1.1787,1.1748,1.1748,1.1748,1.1748,1.1748,1.1748,1.1748,1.1748,1.1748,1.1787,1.1748,1.1836,1.1875,1.1875,0,0,0,1.1953,1.1953,1.1953,1.1797,1.1797,1.1748,1.1748,1.1748,1.1748,1.1748,1.1748,1.1748,1.1709,1.167,1.1748,1.1748,1.1797,1.1797,1.1748,1.1836,1.1836,1.1836,1.1836,1.1875,1.1875,1.1875,1.1875,1.1875,1.1875,1.1875,1.1875,1.1836,1.1836,1.1836,1.1836,1.1836,1.1797,1.1797,1.1797,1.1797,1.1836,1.1836,1.1836,1.1836,1.1836,1.1836,0,0,0,0,1.2002,1.2002,1.2002,1.2002,1.2002,1.1963,1.2002,1.2002,1.2002,1.0928,1.0928,1.0928,1.0889,1.0859,1.082,1.0791,1.0791,1.0791,1.0791,1.0752,1.0752,1.0752,1.0752,1.0791,1.0752,1.0723,1.0723,1.0684,1.0684,1.0654,1.0654,1.0615,1.0615,1.0625,1.0586,1.0557,1.0557,1.0518,1.0488,1.0459,1.043,1.043,1.043,1.043,1.043,1.0391,1.0391,1.0391,1.0361,1.0332,1.0332,1.0332,1.0303,1.0303,1.0303,1.0273,1.0273,1.0234,1.0234,1.0205,1.0205,1.0205,1.0205,1.0205,1.0205,1.0205,1.0176,1.0146,1.0146,1.0117,1.0117,1.0088,1.0088,1.0059,1.0059,1.0059,1.0059,1.0029,1.0029,1.0029,1.0029,1,1.0029,1,1,0.99414,0.99414,0,0,0,0,0,0,0,0,0,0,0,0,0,0,0,0,0,0,0,0,0,0,0,0,0,0,0,0,0,0,0,0,0,0,0,0,0,0,0
0.85693,0.85889,0.85693,0.85449,0.85693,0.85449,0.85449,0.85449,0.85449,0.85449,0.85693,0.85889,0.85889,0.85889,0.85889,0.85889,0.86133,0.86328,0.86572,0.86572,0.86572,0.86768,0.86768,0.86768,0.86768,0.87012,0.87012,0.87207,0.87207,0.87451,0.87695,0.87891,0.87891,0.88135,0.88135,0.88135,0.88379,0.88574,0.89062,0.89307,0.8999,0.90478,0.90723,0.90723,0.90967,0.90967,0.90967,0.90967,0.91211,0.91211,0.91455,0.91455,0.91455,0.91699,0.87256,0.87695,0.87695,0.87695,0.87695,0.8794,0.8794,0,0,0,1.1309,1.1348,1.1348,1.1377,1.1348,1.1348,1.1348,1.1348,1.1348,1.1348,1.1348,1.1348,1.1377,1.1387,1.1387,1.1416,1.1416,1.1416,1.1416,1.1416,1.1416,1.1416,1.1455,1.1455,1.1455,1.1455,1.1455,1.1455,1.1455,1.1455,1.1455,1.1455,1.1455,1.1455,1.1465,1.1494,1.1494,1.1533,1.1533,1.1582,1.1621,1.1621,1.1621,1.1621,1.1621,1.1621,1.1582,1.1582,1.1582,1.1582,1.1621,1.1621,1.1621,1.1621,1.1621,1.1621,1.1621,1.1621,1.1621,1.1621,1.1621,1.1621,1.1621,1.1621,1.1621,1.166,1.1621,1.166,1.1621,1.166,1.166,1.166,1.166,1.166,1.166,1.1699,1.1699,1.1699,1.1699,1.1738,1.1738,1.1738,1.1738,1.1738,1.1738,1.1777,1.1777,1.1738,1.1738,1.1738,1.1777,1.1777,1.1738,1.1738,1.1777,1.1777,1.1777,1.1826,1.0879,1.084,1.0742,1.0674,1.0605,1.0576,1.0576,1.0508,1.0508,1.0479,1.0479,1.0479,1.0479,1.0508,1.0508,1.0508,1.0508,1.0508,1.0508,1.0508,1.0508,1.0508,1.0537,1.0508,1.0537,1.0537,1.0576,1.0576,1.0605,1.0645,1.0645,1.0645,1.0645,1.0645,1.0645,1.0645,1.0674,1.0674,1.0674,1.0674,1.0674,1.0713,1.0713,1.0713,1.0742,1.0742,1.0742,1.0781,1.0781,1.0781,1.0781,1.0781,0,1.166,1.1699,1.1699,1.1699,1.166,1.1699,1.1699,1.166,1.166,1.166,1.166,1.166,1.166,1.1621,1.1621,1.166,1.1709,1.1621,1.1621,1.1621,1.166,1.166,1.166,1.167,1.1709,1.1709,1.1709,1.1709,1.166,1.1709,1.1709,1.1709,1.1748,1.1748,1.1748,1.1748,1.1748,1.1748,1.1787,1.1748,1.1748,1.1748,1.1748,1.1748,1.1748,1.1748,1.1748,1.1748,1.1748,1.1748,1.1748,1.1748,1.1748,1.1748,1.1748,1.1748,1.1748,1.1748,1.1748,1.1748,1.1748,1.1748,1.1748,1.1748,1.1748,1.1787,1.1787,1.1748,1.1787,1.1748,1.1748,1.1748,1.1748,1.1709,1.1748,1.1748,1.1748,1.1748,1.1748,1.1748,1.1748,1.1748,1.1748,1.1748,1.1748,1.1748,1.1748,1.1748,1.1748,1.1787,1.1787,1.1836,1.1836,1.1836,1.1875,1.1836,1.1787,1.1787,1.1787,1.1787,1.1787,1.1787,1.1787,1.1787,1.1787,1.1748,1.1748,1.1748,1.1787,1.1787,1.1748,1.1748,1.1748,1.1748,1.1748,1.1748,1.1748,1.1748,1.1748,1.1748,1.1748,1.1787,1.167,1.1836,1.1836,1.1875,0,0,0,0,0,0,1.1797,1.1797,1.1748,1.1748,1.1748,1.1797,1.1797,1.1748,1.1748,1.1709,1.1709,1.1709,1.1748,1.1709,1.1709,1.1748,1.1836,1.1875,1.1875,1.1836,1.1836,1.1836,1.1836,1.1875,1.1875,1.1875,1.1836,1.1836,1.1836,1.1836,1.1836,1.1836,1.1797,1.1797,1.1797,1.1758,1.1758,1.1836,1.1836,1.1836,1.1797,1.1836,1.1836,1.1797,1.1797,1.1797,1.1836,1.2002,1.2002,1.1963,1.1963,1.1963,1.1963,1.1963,1.1963,1.1963,1.0889,1.0889,1.0889,1.0859,1.082,1.082,1.0791,1.0791,1.0791,1.0752,1.0752,1.0752,1.0752,1.0752,1.0752,1.0752,1.0723,1.0684,1.0684,1.0684,1.0654,1.0654,1.0625,1.0625,1.0586,1.0586,1.0557,1.0518,1.0518,1.0488,1.0459,1.043,1.043,1.043,1.043,1.043,1.0391,1.0391,1.0391,1.0361,1.0361,1.0361,1.0361,1.0332,1.0303,1.0273,1.0273,1.0234,1.0234,1.0205,1.0205,1.0205,1.0176,1.0176,1.0176,1.0205,1.0176,1.0176,1.0146,1.0117,1.0117,1.0088,1.0088,1.0088,1.0059,1.0059,1.0059,1.0029,1.0029,1.0029,1.0029,1,1,1,1,1,0.99707,0.99707,0,0,0,0,0,0,0,0,0,0,0,0,0,0,0,0,0,0,0,0,0,0,0,0,0,0,0,0,0,0,0,0,0,0,0,0,0,0,0
0.85693,0.85693,0.85449,0.85449,0.85449,0.85254,0.85449,0.85449,0.85449,0.85449,0.85693,0.85693,0.85889,0.85889,0.85889,0.85889,0.85889,0.86328,0.86328,0.86328,0.86572,0.86572,0.86572,0.86572,0.86768,0.87012,0.87012,0.87012,0.87207,0.87451,0.87451,0.87695,0.87891,0.87891,0.88135,0.88135,0.88379,0.88379,0.88818,0.89062,0.8999,0.90723,0.90723,0.90723,0.90967,0.91211,0.90967,0.91211,0.91211,0.91455,0.91699,0.91699,0.91699,0.87256,0.87695,0.87451,0.87451,0.87451,0.87695,0.8794,0.8794,0.8794,0,0,0,1.1377,1.1377,1.1377,1.1377,1.1348,1.1387,1.1348,1.1348,1.1348,1.1348,1.1348,1.1387,1.1387,1.1416,1.1416,1.1416,1.1416,1.1426,1.1426,1.1455,1.1426,1.1455,1.1455,1.1455,1.1455,1.1455,1.1455,1.1465,1.1465,1.1465,1.1465,1.1465,1.1465,1.1465,1.1504,1.1504,1.1504,1.1504,1.1543,1.1582,1.1582,1.1582,1.1582,1.1582,1.1582,1.1543,1.1543,1.1582,1.1582,1.1582,1.1582,1.1582,1.1582,1.1582,1.1582,1.1582,1.1582,1.1582,1.1582,1.1582,1.1582,1.1582,1.1582,1.1582,1.1582,1.1582,1.1582,1.1582,1.1582,1.1582,1.1621,1.1621,1.1621,1.1621,1.166,1.166,1.166,1.166,1.1699,1.1699,1.1699,1.166,1.166,1.1738,1.1738,1.1738,1.1699,1.1738,1.1738,1.1699,1.166,1.166,1.1699,1.1699,1.1699,1.1826,1.1826,1.0947,1.0811,1.0742,1.0674,1.0635,1.0605,1.0576,1.0508,1.0508,1.0479,1.0479,1.0479,1.0479,1.0508,1.0508,1.0508,1.0508,1.0508,1.0508,1.0508,1.0508,1.0537,1.0537,1.0537,1.0537,1.0576,1.0576,1.0605,1.0605,1.0645,1.0645,1.0645,1.0645,1.0645,1.0645,1.0645,1.0674,1.0674,1.0674,1.0674,1.0713,1.0713,1.0713,1.0742,1.0742,1.0781,1.0781,1.0781,1.0781,1.0781,1.0781,1.0742,1.0742,0,1.1621,1.166,1.166,1.1621,1.1621,1.1709,1.1621,1.1621,1.1621,1.1582,1.1621,1.1621,1.1621,1.1582,1.166,1.1709,1.167,1.167,1.1621,1.1582,1.1621,1.1621,1.1621,1.167,1.167,1.167,1.167,1.167,1.167,1.167,1.167,1.1709,1.1748,1.1748,1.1748,1.1748,1.1709,1.1748,1.1709,1.1709,1.1709,1.1748,1.1748,1.1748,1.1748,1.1748,1.1748,1.1748,1.1748,1.1748,1.1748,1.1748,1.1748,1.1748,1.1748,1.1748,1.1709,1.1748,1.1748,1.1709,1.1709,1.1748,1.1748,1.167,1.1748,1.1748,1.1748,1.1748,1.1748,1.1709,1.1709,1.167,1.1709,1.1709,1.1748,1.1748,1.1748,1.1748,1.1748,1.1748,1.1748,1.1748,1.1748,1.1748,1.1748,1.1748,1.1748,1.1709,1.1748,1.1748,1.1787,1.1787,1.1787,1.1787,1.1787,1.1787,1.1787,1.1787,1.1787,1.1748,1.1748,1.1787,1.1787,1.1748,1.1748,1.1748,1.1748,1.1748,1.1748,1.1797,1.1797,1.1748,1.1748,1.1748,1.1748,1.1748,1.1709,1.1709,1.1709,1.1709,1.1748,1.167,1.1836,1.1875,1.1875,1.1836,0,1.1836,1.1836,0,0,0,0,1.1709,1.1748,1.1748,1.1748,1.1748,1.1748,1.1709,1.1709,1.1709,1.1709,1.1709,1.1709,1.1758,1.1709,1.1797,1.1797,1.1797,1.1797,1.1836,1.1836,1.1836,1.1836,1.1836,1.1836,1.1836,1.1836,1.1836,1.1797,1.1797,1.1797,1.1797,1.1758,1.1758,1.1758,1.1758,1.1797,1.1836,1.1797,1.1797,1.1797,1.1797,1.1797,1.1797,1.1797,1.1836,1.1836,1.1875,1.1924,1.1924,1.1924,1.1924,1.1924,1.1963,1.1963,1.0859,1.0859,1.0859,1.0859,1.082,1.082,1.0791,1.0791,1.0791,1.0752,1.0752,1.0752,1.0752,1.0752,1.0752,1.0752,1.0684,1.0684,1.0684,1.0654,1.0654,1.0625,1.0625,1.0586,1.0586,1.0586,1.0557,1.0527,1.0488,1.0488,1.0459,1.043,1.043,1.043,1.043,1.043,1.0391,1.0391,1.0391,1.0361,1.0391,1.0361,1.0361,1.0332,1.0303,1.0273,1.0273,1.0244,1.0244,1.0244,1.0205,1.0205,1.0205,1.0205,1.0176,1.0205,1.0176,1.0176,1.0117,1.0117,1.0117,1.0088,1.0059,1.0059,1.0059,1.0059,1.0029,1.0029,1,1.0029,1.0029,1,1,1,1,1,0.99707,0.99707,0,0,0,0,0,0,0,0,0,0,0,0,0,0,0,0,0,0,0,0,0,0,0,0,0,0,0,0,0,0,0,0,0,0,0,0,0,0,0
0.85693,0.85693,0.85449,0.85254,0.85254,0.85254,0.85254,0.85254,0.85449,0.85449,0.85449,0.85693,0.85889,0.85889,0.85693,0.85889,0.85889,0.86328,0.86133,0.86328,0.86572,0.86572,0.86572,0.86572,0.86572,0.87012,0.87012,0.87012,0.87012,0.87256,0.87451,0.87451,0.87695,0.87891,0.88135,0.88135,0.88379,0.88623,0.88818,0.89062,0.89795,0.90723,0.90723,0.90967,0.91211,0.91211,0.91211,0.91211,0.91455,0.91455,0.91699,0.91699,0.91943,0.87256,0.87451,0.87451,0.87451,0.87451,0.8794,0.8794,0.8794,0.8794,0.88135,0,0,0,1.1416,1.1416,1.1416,1.1387,1.1387,1.1348,1.1348,1.1348,1.1387,1.1348,1.1387,1.1387,1.1426,1.1426,1.1426,1.1426,1.1426,1.1426,1.1426,1.1426,1.1465,1.1426,1.1465,1.1426,1.1465,1.1426,1.1426,1.1465,1.1426,1.1465,1.1465,1.1465,1.1465,1.1465,1.1465,1.1504,1.1504,1.1504,1.1504,1.1543,1.1543,1.1543,1.1543,1.1543,1.1543,1.1543,1.1543,1.1543,1.1543,1.1543,1.1582,1.1582,1.1582,1.1543,1.1543,1.1543,1.1543,1.1582,1.1543,1.1543,1.1543,1.1543,1.1543,1.1582,1.1582,1.1543,1.1543,1.1543,1.1543,1.1582,1.1582,1.1582,1.1582,1.1621,1.1621,1.1621,1.1621,1.1621,1.1621,1.166,1.1621,1.1621,1.166,1.166,1.166,1.166,1.1699,1.166,1.166,1.166,1.166,1.166,1.1621,1.1055,1.0986,1.0986,1.0879,1.0879,1.0771,1.0674,1.0645,1.0605,1.0576,1.0508,1.0508,1.0508,1.0479,1.0508,1.0508,1.0508,1.0508,1.0508,1.0508,1.0508,1.0508,1.0508,1.0537,1.0547,1.0547,1.0547,1.0547,1.0576,1.0576,1.0605,1.0605,1.0645,1.0645,1.0645,1.0645,1.0645,1.0645,1.0645,1.0674,1.0674,1.0674,1.0674,1.0713,1.0713,1.0742,1.0742,1.0781,1.0781,1.0781,1.0811,1.0781,1.0781,1.0781,1.0742,1.0742,0,1.1582,1.1621,1.1621,1.1621,1.1621,1.1621,1.1621,1.1621,1.1621,1.1621,1.1582,1.1582,1.1709,1.1709,1.167,1.1709,1.167,1.167,1.1582,1.1582,1.1631,1.1631,1.1631,1.1582,1.167,1.1709,1.167,1.167,1.167,1.167,1.167,1.1709,1.1709,1.1748,1.1748,1.1748,1.1709,1.1748,1.1709,1.1709,1.1709,1.1709,1.1748,1.1709,1.1709,1.1709,1.1709,1.1748,1.1748,1.1748,1.1748,1.1709,1.1748,1.1748,1.1709,1.1748,1.1709,1.1748,1.1748,1.1709,1.1709,1.1748,1.1709,1.1748,1.1748,1.1748,1.1748,1.1748,1.1748,1.1748,1.1709,1.1709,1.1709,1.1748,1.1709,1.1748,1.1748,1.1709,1.1748,1.1748,1.1748,1.1709,1.1709,1.1748,1.1748,1.1748,1.1748,1.1709,1.1748,1.1787,1.1836,1.1787,1.1875,1.1836,1.1787,1.1787,1.1787,1.1836,1.1836,1.1836,1.1787,1.1787,1.1797,1.1748,1.1748,1.1748,1.1748,1.1748,1.1748,1.1748,1.1748,1.1748,1.1748,1.1748,1.1748,1.1748,1.1748,1.1748,1.1748,1.1748,1.1748,1.1797,1.1797,1.1836,1.1875,0,0,0,0,0,0,0,1.1797,1.1758,1.1758,1.1758,1.1797,1.1758,1.1758,1.1758,1.1758,1.1758,1.1758,1.1758,1.1758,1.1758,1.1758,1.1797,1.1797,1.1758,1.1758,1.1758,1.1797,1.1797,1.1797,1.1836,1.1836,1.1797,1.1797,1.1797,1.1797,1.1758,1.1758,1.1758,1.1758,1.1758,1.1758,1.1758,1.1797,1.1836,1.1797,1.1797,1.1836,1.1797,1.1797,1.1797,1.1797,1.1836,1.1836,1.1875,1.1875,1.1875,1.1924,1.1924,1.1875,1.1924,1.0859,1.0859,1.0859,1.0889,1.0859,1.0859,1.082,1.0791,1.0791,1.0791,1.0752,1.0752,1.0752,1.0723,1.0723,1.0752,1.0723,1.0684,1.0684,1.0654,1.0654,1.0654,1.0625,1.0586,1.0586,1.0586,1.0557,1.0557,1.0527,1.0527,1.0459,1.0459,1.043,1.043,1.043,1.043,1.043,1.043,1.043,1.0391,1.0391,1.04,1.04,1.0361,1.0361,1.0332,1.0303,1.0273,1.0244,1.0244,1.0244,1.0205,1.0205,1.0205,1.0205,1.0176,1.0205,1.0176,1.0117,1.0117,1.0117,1.0088,1.0088,1.0059,1.0059,1.0059,1.0029,1.0029,1,1,1,1,1,1,1,1,1,0.99707,0.99707,0,0,0,0,0,0,0,0,0,0,0,0,0,0,0,0,0,0,0,0,0,0,0,0,0,0,0,0,0,0,0,0,0,0,0,0,0,0,0
0.85449,0.85449,0.85254,0.85254,0.85254,0.85254,0.85254,0.85254,0.85254,0.85449,0.85498,0.85693,0.85693,0.85693,0.85693,0.85889,0.85889,0.86133,0.86133,0.86133,0.86572,0.86572,0.86572,0.86572,0.86572,0.86768,0.86768,0.86768,0.87012,0.87256,0.87256,0.87451,0.87451,0.87695,0.8794,0.88135,0.88379,0.88623,0.88818,0.89062,0.89307,0.90478,0.90723,0.91211,0.91455,0.91455,0.91455,0.91455,0.91455,0.91699,0.91699,0.91699,0.91699,0.87451,0.87451,0.87451,0.87451,0.87451,0.87451,0.88135,0.8794,0.8794,0.88135,0,0,0,0,1.1455,1.1426,1.1387,1.1387,1.1348,1.1348,1.1348,1.1348,1.1348,1.1348,1.1348,1.1387,1.1387,1.1387,1.1387,1.1387,1.1426,1.1426,1.1426,1.1465,1.1426,1.1426,1.1426,1.1465,1.1426,1.1426,1.1426,1.1426,1.1465,1.1465,1.1465,1.1465,1.1465,1.1465,1.1465,1.1465,1.1465,1.1465,1.1465,1.1504,1.1504,1.1504,1.1465,1.1465,1.1465,1.1504,1.1504,1.1504,1.1504,1.1543,1.1543,1.1543,1.1543,1.1543,1.1543,1.1543,1.1543,1.1504,1.1504,1.1504,1.1504,1.1504,1.1543,1.1543,1.1543,1.1504,1.1504,1.1504,1.1582,1.1582,1.1543,1.1582,1.1582,1.1582,1.1582,1.1582,1.1621,1.1582,1.1582,1.1621,1.1621,1.1621,1.1582,1.1582,1.1621,1.1621,1.1621,1.1621,1.1621,1.1582,1.1582,1.1621,1.1055,1.1016,1.1016,1.0947,1.0879,1.0811,1.0703,1.0645,1.0605,1.0576,1.0508,1.0508,1.0508,1.0508,1.0508,1.0508,1.0508,1.0508,1.0547,1.0547,1.0508,1.0508,1.0508,1.0547,1.0547,1.0547,1.0547,1.0576,1.0576,1.0576,1.0605,1.0576,1.0645,1.0645,1.0645,1.0645,1.0645,1.0674,1.0674,1.0674,1.0674,1.0674,1.0713,1.0713,1.0742,1.0742,1.0742,1.0781,1.0781,1.0781,1.0811,1.0811,1.0811,1.0781,1.0781,0,1.1543,1.1582,1.1621,1.1621,1.1621,1.1621,1.1621,1.1621,1.1621,1.1621,1.1582,1.1582,1.1582,1.1543,1.167,1.167,1.167,1.167,1.167,1.167,1.1631,1.1631,1.1631,1.1631,0,1.167,1.167,1.167,1.167,1.167,1.167,1.167,1.1709,1.1709,1.1748,1.1748,1.1748,1.1709,1.1709,1.1709,1.1709,1.1709,1.1709,1.1748,1.1748,1.1709,1.1709,1.1748,1.1748,1.1748,1.1709,1.1709,1.1709,1.1748,1.1748,1.1709,1.1709,1.1709,1.1709,1.1709,1.1709,1.1709,1.1709,1.1709,1.1709,1.1748,1.1748,1.1748,1.1748,1.1787,1.1748,1.1748,1.1709,1.1709,1.1709,1.1709,1.1748,1.1709,1.1748,1.1748,1.1748,1.1748,1.1748,1.1748,1.1748,1.1748,1.1748,1.1748,1.1709,1.1748,1.1748,1.1787,1.1787,1.1787,1.1836,1.1797,1.1797,1.1797,1.1797,1.1797,1.1797,1.1748,1.1748,1.1748,1.1748,1.1748,1.1709,1.1748,1.1748,1.1748,1.1748,1.1748,1.1748,1.1748,1.1748,1.1748,1.1748,1.1748,1.1748,1.1748,1.1758,1.1758,1.1797,1.1631,0,1.1797,1.1797,1.1797,1.1836,1.1758,1.1836,0,1.1797,1.1758,1.1797,1.1797,1.1797,1.1797,1.1797,1.1797,1.1758,1.1797,1.1797,1.1758,1.1758,1.1758,1.1758,1.1758,1.1797,1.1797,1.1758,1.1758,1.1719,1.1797,1.1797,1.1797,1.1797,1.1797,1.1797,1.1797,1.1797,1.1758,1.1758,1.1758,1.1758,1.1758,1.1758,1.1758,1.1758,1.1758,1.1797,1.1797,1.1797,1.1797,1.1836,1.1797,1.1797,1.1797,1.1797,1.1836,1.1836,1.1836,1.1836,1.1875,1.1875,1.1875,1.1875,1.1924,1.0859,1.0859,1.0859,1.0859,1.082,1.082,1.0791,1.0791,1.0791,1.0752,1.0752,1.0723,1.0723,1.0723,1.0723,1.0723,1.0684,1.0684,1.0654,1.0654,1.0625,1.0625,1.0586,1.0557,1.0557,1.0557,1.0557,1.0527,1.0527,1.0488,1.0459,1.0459,1.043,1.043,1.043,1.043,1.043,1.043,1.043,1.04,1.04,1.04,1.04,1.04,1.0361,1.0303,1.0303,1.0303,1.0273,1.0244,1.0244,1.0244,1.0205,1.0205,1.0176,1.0205,1.0176,1.0117,1.0088,1.0088,1.0059,1.0059,1.0059,1.0059,1.0029,1.0029,1,1,0.99707,1,1,1,0.99707,1,1,1,0.99707,0.99707,0,0,0,0,0,0,0,0,0,0,0,0,0,0,0,0,0,0,0,0,0,0,0,0,0,0,0,0,0,0,0,0,0,0,0,0,0,0,0
0.85059,0.85059,0.85059,0.85059,0.85059,0.85059,0.85254,0.85254,0.85254,0.85254,0.85498,0.85498,0.85693,0.85693,0.85693,0.85889,0.85889,0.86133,0.86133,0.86133,0.86328,0.86572,0.86572,0.86572,0.86572,0.86816,0.86816,0.86816,0.87012,0.87256,0.87256,0.87451,0.87451,0.87451,0.87695,0.8794,0.88379,0.88623,0.88818,0.89062,0.89307,0.90039,0.90478,0.91455,0.91699,0.91699,0.91699,0.91699,0.91699,0.91699,0.91699,0.91699,0.91699,0.8794,0.8794,0.8794,0.875,0.875,0.875,0.8794,0.87695,0.87695,0.88184,0.88379,0,0,0,1.1455,1.1426,1.1387,1.1348,1.1309,1.1309,1.1309,1.1309,1.1309,1.1309,1.1309,1.1348,1.1348,1.1348,1.1387,1.1387,1.1426,1.1426,1.1426,1.1426,1.1426,1.1426,1.1426,1.1426,1.1426,1.1426,1.1426,1.1426,1.1426,1.1426,1.1426,1.1465,1.1465,1.1465,1.1465,1.1465,1.1465,1.1465,1.1465,1.1426,1.1426,1.1426,1.1426,1.1426,1.1465,1.1465,1.1465,1.1465,1.1465,1.1504,1.1504,1.1543,1.1504,1.1504,1.1504,1.1504,1.1504,1.1504,1.1465,1.1465,1.1465,1.1465,1.1504,1.1504,1.1504,1.1504,1.1504,1.1504,1.1543,1.1543,1.1504,1.1543,1.1504,1.1543,1.1543,1.1543,1.1543,1.1543,1.1543,1.1543,1.1543,1.1543,1.1543,1.1543,1.1543,1.1582,1.1621,1.1621,1.1582,1.1582,1.1543,1.1504,1.1465,1.0947,1.0947,1.0918,1.0879,1.084,1.0742,1.0674,1.0605,1.0605,1.0547,1.0508,1.0508,1.0508,1.0508,1.0508,1.0508,1.0508,1.0547,1.0547,1.0547,1.0547,1.0547,1.0547,1.0576,1.0576,1.0547,1.0576,1.0576,1.0576,1.0605,1.0605,1.0645,1.0645,1.0645,1.0645,1.0645,1.0674,1.0674,1.0674,1.0674,1.0674,1.0713,1.0713,1.0742,1.0742,1.0742,1.0781,1.0781,1.0781,1.0811,1.0811,1.0811,0,1.1543,1.1543,1.1543,1.1582,1.1621,1.167,1.167,1.167,1.167,1.167,1.167,1.1631,1.1631,1.1631,1.1631,1.1631,1.1582,1.167,1.167,0,0,0,0,0,0,1.1631,0,0,1.1709,1.1709,1.1709,1.167,1.167,1.167,1.167,1.1709,1.1709,1.1748,1.1748,1.1748,1.1748,1.1709,1.167,1.167,1.1709,1.1709,1.1709,1.1709,1.1709,1.1709,1.1748,1.1748,1.1748,1.1748,1.1748,1.1748,1.1748,1.1748,1.1748,1.1709,1.1709,1.1709,1.1709,1.1709,1.1709,1.1709,1.1748,1.1748,1.1748,1.1748,1.1748,1.1748,1.1748,1.1748,1.1709,1.1709,1.1709,1.1709,1.1748,1.1709,1.1709,1.1748,1.1748,1.1748,1.1748,1.1748,1.1709,1.1748,1.1748,1.1748,1.1709,1.1709,1.1709,1.1797,1.1748,1.1797,1.1797,1.1797,1.1797,1.1797,1.1797,1.1797,1.1797,1.1748,1.1748,1.1748,1.1748,1.1709,1.1709,1.1748,1.1748,1.1748,1.1748,1.1748,1.1748,1.1758,1.1758,1.1758,1.1758,1.1758,1.1758,1.1758,1.1758,1.1758,1.1758,1.167,1.167,1.167,1.1758,1.1758,1.1797,1.1709,1.1709,1.1758,1.1758,1.1758,1.1758,1.1758,1.1797,1.1797,1.1758,1.1797,1.1758,1.1797,1.1797,1.1758,1.1758,1.1758,1.1758,1.1758,1.1797,1.1797,1.1797,1.1797,1.1797,1.1797,1.1797,1.1797,1.1797,1.1797,1.1797,1.1797,1.1797,1.1758,1.1758,1.1758,1.1758,1.1758,1.1758,1.1758,1.1758,1.1797,1.1797,1.1797,1.1797,1.1836,1.1836,1.1836,1.1797,1.1797,1.1797,1.1797,1.1797,1.1797,1.1836,1.1836,1.1836,1.1836,1.1885,1.0859,1.0859,1.0859,1.0859,1.0859,1.082,1.082,1.0791,1.0791,1.0791,1.0752,1.0752,1.0723,1.0684,1.0723,1.0723,1.0684,1.0684,1.0693,1.0654,1.0654,1.0625,1.0625,1.0586,1.0557,1.0557,1.0557,1.0527,1.0527,1.0488,1.0488,1.0459,1.0459,1.043,1.043,1.043,1.0459,1.043,1.043,1.043,1.043,1.04,1.04,1.04,1.04,1.0361,1.0332,1.0303,1.0273,1.0273,1.0244,1.0244,1.0244,1.0215,1.0244,1.0176,1.0215,1.0176,1.0117,1.0088,1.0088,1.0059,1.0059,1.0059,1.0059,1.0029,1.0029,1,1,0.99707,1,1,0.99707,0.99707,0.99707,0.99707,0.99707,0.99707,0.99414,0,0,0,0,0,0,0,0,0,0,0,0,0,0,0,0,0,0,0,0,0,0,0,0,0,0,0,0,0,0,0,0,0,0,0,0,0,0,0
0.85059,0.85059,0.85059,0.85059,0.85059,0.85059,0.85254,0.85059,0.85254,0.85254,0.85498,0.85693,0.85498,0.85498,0.85498,0.85693,0.85693,0.86133,0.86133,0.86133,0.86377,0.86377,0.86572,0.86572,0.86816,0.86816,0.86816,0.86816,0.87012,0.87012,0.87256,0.87256,0.87451,0.87451,0.87695,0.8794,0.88135,0.88623,0.88867,0.89062,0.89062,0.89551,0.90478,0.91699,0.91699,0.91992,0.91699,0.91699,0.91699,0.91699,0.91699,0.91748,0.875,0.8794,0.8794,0.875,0.875,0.875,0.875,0.88184,0.87695,0.87695,0.8794,0.88184,0,0,0,0,1.1426,1.1387,1.1309,1.1309,1.1309,1.1309,1.1309,1.1309,1.1309,1.1309,1.1348,1.1348,1.1348,1.1387,1.1387,1.1387,1.1387,1.1387,1.1426,1.1387,1.1387,1.1387,1.1387,1.1426,1.1426,1.1426,1.1426,1.1426,1.1426,1.1426,1.1426,1.1426,1.1426,1.1426,1.1426,1.1426,1.1426,1.1426,1.1426,1.1426,1.1426,1.1426,1.1426,1.1426,1.1426,1.1465,1.1465,1.1465,1.1465,1.1465,1.1465,1.1465,1.1465,1.1465,1.1465,1.1465,1.1465,1.1465,1.1465,1.1426,1.1426,1.1465,1.1465,1.1465,1.1465,1.1465,1.1465,1.1504,1.1504,1.1504,1.1504,1.1504,1.1504,1.1504,1.1504,1.1504,1.1543,1.1504,1.1504,1.1504,1.1504,1.1504,1.1504,1.1504,1.1504,1.1504,1.1504,1.1543,1.1504,1.1465,1.1426,1.1348,1.1055,1.0947,1.0918,1.0879,1.085,1.0742,1.0674,1.0645,1.0605,1.0547,1.0508,1.0508,1.0508,1.0508,1.0508,1.0547,1.0547,1.0547,1.0547,1.0547,1.0547,1.0547,1.0576,1.0576,1.0576,1.0576,1.0576,1.0605,1.0576,1.0605,1.0605,1.0645,1.0645,1.0645,1.0645,1.0645,1.0674,1.0674,1.0674,1.0674,1.0674,1.0713,1.0713,1.0742,1.0742,1.0742,1.0781,1.0781,1.0781,1.0811,1.0811,0,1.1543,1.1543,1.1543,1.1543,1.1582,1.1631,1.167,1.167,1.167,1.167,1.167,1.167,1.1631,1.1631,1.1631,1.1631,1.1631,1.1592,1.1631,1.1631,1.1631,0,0,0,0,1.1631,1.1631,1.167,0,1.1709,1.1709,1.167,1.167,1.167,1.167,1.167,1.167,1.1709,1.1709,1.1748,1.1748,1.1748,1.1709,1.1709,1.1709,1.1709,1.1709,1.1709,1.167,1.1709,1.1709,1.1709,1.1748,1.1709,1.1748,1.1748,1.1748,1.1748,1.1748,1.1709,1.1709,1.1709,1.1709,1.1709,1.1709,1.1709,1.1709,1.1709,1.1709,1.1709,1.1748,1.1748,1.1748,1.1748,1.1748,1.1709,1.1709,1.1709,1.1709,1.1748,1.1709,1.1709,1.1748,1.1748,1.1748,1.1748,1.1748,1.1709,1.1748,1.1709,1.1709,1.1709,1.1709,1.1709,1.1797,1.1797,1.1797,1.1797,1.1797,1.1797,1.1797,1.1797,1.1797,1.1797,1.1748,1.1709,1.1748,1.1748,1.1709,1.1758,1.1758,1.1758,1.1758,1.1758,1.1758,1.1758,1.1758,1.1709,1.1758,1.1797,1.1758,1.1758,1.1758,1.1758,1.1758,1.1758,1.167,1.167,1.167,1.1758,1.1719,1.1758,1.1758,1.1719,1.1758,1.1758,1.1758,1.1758,1.1719,1.1758,1.1758,1.1758,1.1758,1.1758,1.1758,1.1758,1.1758,1.1758,1.1758,1.1719,1.1758,1.1758,1.1758,1.1758,1.1758,1.1758,1.1758,1.1797,1.1797,1.1797,1.1797,1.1758,1.1797,1.1758,1.1758,1.1719,1.1758,1.1758,1.1758,1.1758,1.1758,1.1758,1.1797,1.1797,1.1797,1.1797,1.1797,1.1797,1.1797,1.1797,1.1797,1.1797,1.1797,1.1797,1.1797,1.1797,1.1836,1.1836,1.1836,1.1836,1.0859,1.0859,1.082,1.0859,1.082,1.082,1.082,1.0791,1.0791,1.0791,1.0752,1.0752,1.0723,1.0693,1.0723,1.0723,1.0693,1.0693,1.0693,1.0654,1.0625,1.0625,1.0586,1.0586,1.0557,1.0557,1.0557,1.0527,1.0527,1.0488,1.0459,1.0459,1.0459,1.043,1.043,1.043,1.0459,1.043,1.043,1.043,1.043,1.043,1.043,1.04,1.04,1.0361,1.0332,1.0303,1.0273,1.0273,1.0273,1.0244,1.0244,1.0244,1.0244,1.0215,1.0215,1.0176,1.0117,1.0088,1.0088,1.0088,1.0059,1.0059,1.0029,1.0029,1,1,1,0.99707,1,1,0.99707,0.99707,0.99707,0.99707,0.99707,0.99414,0,0,0,0,0,0,0,0,0,0,0,0,0,0,0,0,0,0,0,0,0,0,0,0,0,0,0,0,0,0,0,0,0,0,0,0,0,0,0,0
0.84863,0.85059,0.85059,0.84863,0.85059,0.85059,0.85059,0.85059,0.85254,0.85254,0.85254,0.85498,0.85498,0.85498,0.85498,0.85693,0.85693,0.86133,0.86133,0.86133,0.86377,0.86377,0.86377,0.86377,0.86572,0.86572,0.86572,0.86816,0.86816,0.87012,0.87256,0.87256,0.87256,0.87451,0.87695,0.8794,0.88135,0.88623,0.88867,0.88867,0.89062,0.89062,0.90967,0.91748,0.91992,0.91992,0.91992,0.91992,0.91748,0.91748,0.91748,0.87695,0.87695,0.8794,0.87695,0.8794,0.875,0.875,0.875,0.88184,0.87695,0.87695,0.8794,0.8794,0.88184,0,0,0,1.1426,1.1387,1.1309,1.1309,1.1309,1.1309,1.1309,1.127,1.127,1.127,1.1309,1.1309,1.1348,1.1348,1.1348,1.1387,1.1387,1.1387,1.1387,1.1387,1.1348,1.1387,1.1387,1.1387,1.1387,1.1387,1.1387,1.1387,1.1387,1.1426,1.1387,1.1426,1.1387,1.1426,1.1426,1.1426,1.1426,1.1426,1.1387,1.1387,1.1387,1.1387,1.1426,1.1387,1.1387,1.1426,1.1426,1.1426,1.1426,1.1426,1.1426,1.1426,1.1426,1.1426,1.1426,1.1426,1.1426,1.1426,1.1426,1.1426,1.1426,1.1426,1.1426,1.1426,1.1426,1.1426,1.1426,1.1465,1.1465,1.1465,1.1465,1.1465,1.1465,1.1465,1.1465,1.1465,1.1504,1.1504,1.1504,1.1504,1.1504,1.1504,1.1504,1.1504,1.1504,1.1504,1.1504,1.1504,1.1504,1.1426,1.1387,1.1348,1.1201,1.0986,1.0918,1.0879,1.085,1.0781,1.0713,1.0605,1.0605,1.0576,1.0547,1.0547,1.0547,1.0547,1.0547,1.0547,1.0547,1.0576,1.0576,1.0576,1.0576,1.0576,1.0576,1.0576,1.0576,1.0576,1.0576,1.0605,1.0605,1.0605,1.0605,1.0645,1.0674,1.0674,1.0674,1.0674,1.0674,1.0674,1.0713,1.0713,1.0713,1.0713,1.0713,1.0742,1.0781,1.0781,1.0781,1.0781,1.0781,1.0781,0,1.1582,1.1582,1.1582,1.1582,1.1592,1.1631,1.1631,1.167,1.1631,1.167,1.167,1.167,1.1631,1.1631,1.1631,1.1631,1.1631,1.1631,1.1592,1.1631,1.1631,1.1592,1.1631,1.1631,1.1592,1.1631,1.1631,0,1.1631,1.167,1.1709,1.167,1.167,1.167,1.167,1.167,1.167,1.167,1.1709,1.1709,1.1709,1.1709,1.1709,1.1709,1.167,1.167,1.167,1.1709,1.1709,1.167,1.167,1.1709,1.1709,1.1709,1.1709,1.1709,1.1748,1.1748,1.1748,1.1748,1.1709,1.1709,1.1709,1.1709,1.1709,1.1709,1.1709,1.1709,1.1709,1.1709,1.1709,1.1709,1.1709,1.1709,1.1748,1.1709,1.1709,1.167,1.1709,1.1709,1.1709,1.1709,1.1709,1.1709,1.1709,1.1748,1.1748,1.1748,1.1709,1.1709,1.1709,1.1709,1.1709,1.1709,1.1709,1.1797,1.1797,1.1797,1.1797,1.1797,1.1797,1.1797,1.1797,1.1797,1.1758,1.1758,1.1709,1.1709,1.1709,1.1709,1.1709,1.1758,1.1758,1.1758,1.1758,1.1758,1.1758,1.1758,1.1758,1.1758,1.1758,1.1758,1.1758,1.1758,1.1758,1.1758,1.1758,1.1719,1.1719,1.167,1.1719,1.1719,1.1719,1.1758,1.1719,1.1758,1.1758,1.1758,1.1719,1.1719,1.1758,1.1758,1.1719,1.1758,1.1719,1.1719,1.1719,1.1719,1.1719,1.1719,1.168,1.1719,1.1719,1.1719,1.1758,1.1719,1.1719,1.1758,1.1758,1.1758,1.1758,1.1758,1.1758,1.1758,1.1758,1.1758,1.1719,1.1719,1.1719,1.1758,1.1758,1.1758,1.1758,1.1797,1.1797,1.1797,1.1797,1.1797,1.1797,1.1797,1.1797,1.1758,1.1797,1.1797,1.1797,1.1797,1.1797,1.1797,1.1797,1.1797,1.1836,1.0859,1.0859,1.082,1.0859,1.082,1.082,1.082,1.0791,1.0791,1.0791,1.0752,1.0752,1.0723,1.0693,1.0693,1.0723,1.0693,1.0693,1.0693,1.0654,1.0625,1.0625,1.0586,1.0586,1.0557,1.0557,1.0557,1.0557,1.0527,1.0488,1.0459,1.0488,1.0459,1.0459,1.043,1.043,1.0459,1.043,1.043,1.043,1.043,1.043,1.04,1.04,1.04,1.0361,1.0332,1.0332,1.0303,1.0303,1.0273,1.0273,1.0273,1.0244,1.0244,1.0215,1.0215,1.0146,1.0117,1.0117,1.0088,1.0088,1.0059,1.0059,1.0029,1.0029,1,1,0.99707,0.99707,0.99707,0.99707,0.99707,0.99707,0.99707,0.99756,0.99756,0.99756,0.99756,0,0,0,0,0,0,0,0,0,0,0,0,0,0,0,0,0,0,0,0,0,0,0,0,0,0,0,0,0,0,0,0,0,0,0,0,0,0,0
0.84863,0.85059,0.84863,0.84863,0.84863,0.85059,0.85059,0.85059,0.85059,0.85254,0.85254,0.85254,0.85254,0.85254,0.85303,0.85498,0.85693,0.85938,0.85938,0.85938,0.86133,0.86377,0.86377,0.86377,0.86572,0.86572,0.86572,0.86816,0.86816,0.87012,0.87012,0.87256,0.87256,0.875,0.87695,0.8794,0.88379,0.88623,0.88867,0.88867,0.88867,0.89062,0.91504,0.91992,0.91992,0.91992,0.91992,0.91992,0.91992,0.91992,0.91992,0.875,0.875,0.875,0.875,0.875,0.875,0.875,0.875,0.8794,0.8794,0.87695,0.8794,0.8794,0.8794,0,0,0,0,1.127,1.127,1.123,1.127,1.127,1.127,1.127,1.127,1.127,1.1309,1.1309,1.1309,1.1309,1.1348,1.1348,1.1348,1.1348,1.1348,1.1348,1.1309,1.1348,1.1348,1.1348,1.1348,1.1387,1.1387,1.1387,1.1387,1.1387,1.1387,1.1387,1.1387,1.1387,1.1387,1.1387,1.1387,1.1387,1.1387,1.1387,1.1387,1.1387,1.1387,1.1387,1.1387,1.1387,1.1387,1.1387,1.1387,1.1387,1.1387,1.1387,1.1426,1.1387,1.1387,1.1426,1.1426,1.1387,1.1387,1.1387,1.1387,1.1387,1.1387,1.1387,1.1387,1.1387,1.1387,1.1426,1.1426,1.1426,1.1465,1.1465,1.1465,1.1426,1.1426,1.1465,1.1465,1.1465,1.1465,1.1465,1.1465,1.1465,1.1465,1.1465,1.1465,1.1465,1.1465,1.1465,1.1465,1.1387,1.1348,1.1279,1.1201,1.1201,1.0918,1.0879,1.085,1.0781,1.0713,1.0645,1.0605,1.0576,1.0547,1.0547,1.0547,1.0547,1.0547,1.0547,1.0576,1.0576,1.0605,1.0576,1.0576,1.0605,1.0605,1.0605,1.0615,1.0576,1.0576,1.0615,1.0615,1.0615,1.0615,1.0674,1.0674,1.0674,1.0674,1.0674,1.0674,1.0713,1.0713,1.0713,1.0713,1.0713,1.0742,1.0742,1.0781,1.0781,1.0781,1.0781,1.0781,1.0781,0,1.1592,1.1592,1.1592,1.1592,1.1592,1.1631,1.1631,1.1631,1.1631,1.1631,1.1631,1.1631,1.1631,1.1631,1.1631,1.1631,1.1631,1.1631,1.1631,1.1631,1.1631,1.1592,1.1592,1.1592,0,1.1631,1.1631,1.1631,1.1631,1.167,1.167,1.167,1.1631,1.167,1.167,1.1631,1.167,1.167,1.1709,1.1709,1.1709,1.1709,1.1709,1.1709,1.167,1.1631,1.1631,1.167,1.167,1.1631,1.167,1.167,1.1709,1.1709,1.1709,1.1709,1.1709,1.1709,1.1709,1.1709,1.1709,1.1709,1.1709,1.167,1.1709,1.167,1.1709,1.1709,1.167,1.167,1.1709,1.1709,1.167,1.167,1.1709,1.1709,1.1709,1.167,1.167,1.167,1.1709,1.167,1.167,1.1709,1.1709,1.1748,1.1748,1.1748,1.1709,1.1709,1.1709,1.1709,1.167,1.1709,1.1709,1.1758,1.1758,1.1797,1.1797,1.1797,1.1797,1.1797,1.1797,1.1758,1.1758,1.1758,1.1709,1.1709,1.1709,1.1709,1.167,1.167,1.1709,1.1709,1.1709,1.1709,1.1709,1.1719,1.1719,1.1758,1.1758,1.1758,1.1758,1.1758,1.1758,1.1758,1.1758,1.1719,1.1719,1.1719,1.1719,1.1719,1.1719,1.1719,1.1719,1.1719,1.1719,1.1719,1.168,1.168,1.1719,1.1719,1.1719,1.1719,1.1719,1.1719,1.1719,1.1719,1.1719,1.168,1.168,1.1719,1.1719,1.1719,1.1719,1.1719,1.1719,1.1719,1.1719,1.1758,1.1758,1.1758,1.1758,1.1719,1.1719,1.1719,1.1719,1.1719,1.1719,1.1719,1.1719,1.1758,1.1758,1.1758,1.1758,1.1758,1.1758,1.1758,1.1758,1.1758,1.1758,1.1758,1.1758,1.1758,1.1758,1.1758,1.1758,1.1758,1.1797,1.1797,1.082,1.0791,1.0791,1.0791,1.082,1.083,1.0791,1.0791,1.0791,1.0791,1.0791,1.0752,1.0762,1.0723,1.0693,1.0693,1.0693,1.0693,1.0693,1.0693,1.0654,1.0625,1.0625,1.0586,1.0586,1.0557,1.0557,1.0557,1.0557,1.0527,1.0527,1.0488,1.0488,1.0459,1.0459,1.0459,1.0459,1.0459,1.0459,1.043,1.043,1.04,1.04,1.0361,1.0361,1.0361,1.0332,1.0332,1.0332,1.0303,1.0303,1.0273,1.0273,1.0273,1.0273,1.0244,1.0215,1.0244,1.0215,1.0146,1.0117,1.0117,1.0088,1.0088,1.0059,1.0059,1.0029,1,1,0.99756,0.99463,0.99756,0.99756,0.99756,0.99756,0.99756,0.99756,0.99463,0.99463,0,0,0,0,0,0,0,0,0,0,0,0,0,0,0,0,0,0,0,0,0,0,0,0,0,0,0,0,0,0,0,0,0,0,0,0,0,0,0,0
0.84863,0.84863,0.84619,0.84619,0.84863,0.84863,0.85059,0.85059,0.85059,0.85303,0.85303,0.85303,0.85303,0.85303,0.85303,0.85498,0.85498,0.85693,0.85938,0.85938,0.86133,0.86377,0.86377,0.86377,0.86377,0.86377,0.86377,0.86572,0.81201,0.87012,0.81592,0.87256,0.87256,0.875,0.87695,0.88184,0.88379,0.88623,0.88623,0.88867,0.88623,0.88867,0.91748,0.91992,0.91992,0.91992,0.91992,0.91992,0.91748,0.91748,0.87256,0.875,0.875,0.875,0.875,0.875,0.875,0.875,0.875,0.87695,0.8794,0.8794,0.8794,0.88184,0,0,0,0,1.1162,1.123,1.127,1.123,1.123,1.123,1.124,1.124,1.124,1.124,1.127,1.127,1.1309,1.1309,1.1309,1.1309,1.1309,1.1309,1.1309,1.1309,1.1309,1.1309,1.1309,1.1309,1.1348,1.1348,1.1348,1.1348,1.1348,1.1309,1.1309,1.1309,1.1309,1.1309,1.1348,1.1348,1.1348,1.1348,1.1348,1.1348,1.1348,1.1348,1.1348,1.1348,1.1348,1.1387,1.1348,1.1348,1.1348,1.1348,1.1348,1.1387,1.1387,1.1387,1.1387,1.1387,1.1387,1.1348,1.1348,1.1348,1.1348,1.1348,1.1348,1.1348,1.1348,1.1348,1.1348,1.1387,1.1387,1.1426,1.1426,1.1426,1.1426,1.1426,1.1426,1.1426,1.1387,1.1426,1.1426,1.1426,1.1426,1.1426,1.1426,1.1426,1.1426,1.1426,1.1465,1.1465,1.1387,1.1387,1.1318,1.124,1.1201,1.1094,1.0918,1.0879,1.085,1.0811,1.0742,1.0645,1.0605,1.0605,1.0547,1.0547,1.0547,1.0547,1.0547,1.0576,1.0576,1.0576,1.0615,1.0615,1.0576,1.0615,1.0615,1.0615,1.0615,1.0576,1.0615,1.0615,1.0615,1.0645,1.0645,1.0674,1.0713,1.0713,1.0713,1.0713,1.0713,1.0713,1.0713,1.0713,1.0742,1.0742,1.0742,1.0781,1.0781,1.0781,1.0781,1.0781,1.0781,0,1.1631,1.1631,1.1592,1.1553,1.1592,1.1592,1.1592,1.1592,1.1631,1.1631,1.1631,1.1631,1.1631,1.1631,1.1631,1.1592,1.1631,1.1592,1.1631,1.1631,1.1631,1.1631,1.1592,1.1592,1.1592,1.1631,1.1631,1.1631,1.1553,1.1592,1.1553,1.167,1.167,1.1631,1.167,1.167,1.1631,1.167,1.167,1.1709,1.1709,1.1709,1.167,1.167,1.1709,1.1631,1.1631,1.1631,1.1631,1.1631,1.1631,1.167,1.167,1.1709,1.1709,1.1709,1.1709,1.1709,1.1709,1.1709,1.1709,1.1709,1.1709,1.1709,1.167,1.167,1.167,1.167,1.167,1.167,1.167,1.167,1.167,1.167,1.167,1.167,1.167,1.167,1.1631,1.1631,1.1631,1.1631,1.1631,1.1631,1.167,1.167,1.1709,1.1709,1.1709,1.1709,1.1709,1.1709,1.1709,1.167,1.167,1.1709,1.1758,1.1758,1.1758,1.1758,1.1758,1.1758,1.1758,1.1758,1.1758,1.1709,1.167,1.167,1.167,1.1709,1.167,1.167,1.167,1.167,1.167,1.167,1.167,1.167,1.167,1.1719,1.1719,1.1719,1.1758,1.1758,1.1758,1.1758,1.1719,1.1719,1.1719,1.1719,1.168,1.168,1.168,1.168,1.1719,1.168,1.168,1.168,1.1719,1.168,1.168,1.168,1.168,1.168,1.168,1.168,1.168,1.168,1.168,1.168,1.168,1.1641,1.168,1.168,1.168,1.168,1.168,1.168,1.1719,1.1719,1.1719,1.1719,1.1719,1.1719,1.1719,1.1719,1.1719,1.1719,1.168,1.168,1.1719,1.1719,1.1719,1.1719,1.1719,1.1758,1.1719,1.1719,1.1719,1.1719,1.1719,1.168,1.168,1.168,1.1719,1.168,1.1719,1.168,1.168,1.1719,1.168,1.1719,1.168,1.0791,1.0791,1.083,1.083,1.0791,1.0791,1.0791,1.0791,1.0791,1.0762,1.0762,1.0723,1.0693,1.0693,1.0693,1.0693,1.0693,1.0654,1.0654,1.0654,1.0625,1.0625,1.0596,1.0596,1.0557,1.0596,1.0557,1.0557,1.0527,1.0498,1.0498,1.0459,1.0459,1.043,1.0459,1.0459,1.043,1.04,1.0371,1.0332,1.0332,1.0332,1.0332,1.0332,1.0303,1.0303,1.0303,1.0303,1.0303,1.0273,1.0273,1.0273,1.0273,1.0244,1.0215,1.0244,1.0186,1.0146,1.0117,1.0117,1.0117,1.0088,1.0059,1.0059,1.0029,0.99756,0.99756,0.99756,0.99463,0.99756,0.99756,0.99756,0.99756,0.99756,0.99463,0.99463,0.99463,0,0,0,0,0,0,0,0,0,0,0,0,0,0,0,0,0,0,0,0,0,0,0,0,0,0,0,0,0,0,0,0,0,0,0,0,0,0,0,0
0.84619,0.84619,0.84619,0.84668,0.84668,0.84668,0.84863,0.85059,0.85059,0.85303,0.85303,0.85303,0.85303,0.85303,0.85303,0.85303,0.85498,0.85693,0.85938,0.85938,0.85938,0.86133,0.86377,0.86377,0.86377,0.81201,0.81201,0.81006,0.81201,0.81006,0.81006,0.81201,0.81201,0.81201,0.88184,0.88379,0.88623,0.88623,0.88623,0.88623,0.88379,0.88379,0.91992,0.91992,0.91992,0.91992,0.91992,0.91992,0.91748,0.8706,0.8706,0.87256,0.875,0.875,0.875,0.875,0.875,0.875,0.875,0.87744,0.88184,0.87744,0.8794,0.88184,0.88184,0,0,0,0,1.1162,1.1162,1.1201,1.1201,1.1201,1.1201,1.1201,1.1201,1.1201,1.124,1.124,1.124,1.124,1.124,1.124,1.127,1.127,1.127,1.127,1.127,1.127,1.1309,1.1309,1.1309,1.1309,1.1309,1.1309,1.1309,1.1309,1.127,1.127,1.1309,1.127,1.1309,1.1309,1.1309,1.1309,1.1309,1.1309,1.1309,1.1309,1.1309,1.1309,1.1309,1.1348,1.1309,1.1309,1.1309,1.1348,1.1348,1.1348,1.1387,1.1348,1.1348,1.1348,1.1348,1.1348,1.1309,1.1309,1.1318,1.1318,1.1318,1.1318,1.1318,1.1318,1.1318,1.1348,1.1348,1.1387,1.1387,1.1387,1.1387,1.1387,1.1387,1.1387,1.1387,1.1387,1.1387,1.1387,1.1387,1.1387,1.1387,1.1387,1.1387,1.1387,1.1387,1.1387,1.1357,1.1357,1.1279,1.124,1.124,1.1172,1.0918,1.0879,1.085,1.0811,1.0742,1.0674,1.0645,1.0605,1.0576,1.0576,1.0576,1.0576,1.0576,1.0576,1.0576,1.0615,1.0615,1.0615,1.0615,1.0615,1.0615,1.0615,1.0615,1.0615,1.0615,1.0615,1.0615,1.0645,1.0645,1.0674,1.0713,1.0713,1.0713,1.0713,1.0713,1.0713,1.0742,1.0742,1.0742,1.0742,1.0781,1.0781,1.0781,1.0781,1.0781,0,0,1.167,1.1631,1.1592,1.1592,1.1553,1.1553,1.1592,1.1592,1.1592,1.1592,1.1592,1.1592,1.1592,1.1592,1.1631,1.1592,1.1592,1.1592,1.1592,1.1592,1.1592,1.1631,1.1631,1.1592,1.1592,1.1592,1.1553,1.1631,1.1553,1.1553,1.1553,1.1553,1.1631,1.1631,1.1631,1.1631,1.1631,1.1631,1.1631,1.167,1.167,1.167,1.167,1.167,1.1631,1.1631,1.1631,1.1631,1.1592,1.1631,1.1631,1.1631,1.1631,1.1631,1.1631,1.167,1.167,1.1709,1.1709,1.1709,1.1709,1.167,1.167,1.167,1.167,1.167,1.167,1.167,1.167,1.167,1.1631,1.1631,1.167,1.167,1.1631,1.1631,1.1631,1.1631,1.1631,1.1592,1.1592,1.1592,1.1592,1.1631,1.1631,1.1631,1.1631,1.167,1.167,1.167,1.1709,1.1709,1.167,1.167,1.167,1.167,1.167,1.1709,1.1709,1.1758,1.1758,1.1758,1.1758,1.1758,1.1758,1.1719,1.1719,1.167,1.167,1.167,1.167,1.167,1.1631,1.167,1.167,1.167,1.167,1.167,1.167,1.167,1.167,1.167,1.1719,1.1719,1.1719,1.1719,1.1719,1.1719,1.1719,1.168,1.168,1.1631,1.1631,1.1631,1.168,1.168,1.168,1.168,1.1641,1.168,1.1641,1.1641,1.1641,1.1641,1.1641,1.1641,1.1641,1.1641,1.1641,1.1641,1.1641,1.1641,1.1641,1.168,1.168,1.168,1.168,1.168,1.168,1.1719,1.1719,1.1719,1.1719,1.1719,1.168,1.1719,1.168,1.168,1.168,1.168,1.168,1.168,1.168,1.168,1.168,1.168,1.168,1.168,1.168,1.168,1.168,1.168,1.168,1.168,1.168,1.168,1.168,1.168,1.168,1.168,1.168,1.168,1.168,1.1641,1.0762,1.0762,1.083,1.083,1.0791,1.0791,1.0791,1.0791,1.0762,1.0762,1.0723,1.0723,1.0693,1.0693,1.0693,1.0693,1.0693,1.0654,1.0654,1.0654,1.0654,1.0625,1.0625,1.0596,1.0596,1.0625,1.0596,1.0596,1.0596,1.0527,1.0459,1.0459,1.043,1.043,1.043,1.043,1.04,1.0371,1.0303,1.0303,1.0273,1.0244,1.0273,1.0244,1.0244,1.0215,1.0244,1.0244,1.0273,1.0273,1.0273,1.0244,1.0244,1.0244,1.0215,1.0215,1.0186,1.0156,1.0117,1.0156,1.0117,1.0117,1.0088,1.0059,1.0059,1,1,0.99756,0.99463,0.99756,0.99756,0.99756,0.99756,0.99463,0.99463,0.9917,0.99463,0,0,0,0,0,0,0,0,0,0,0,0,0,0,0,0,0,0,0,0,0,0,0,0,0,0,0,0,0,0,0,0,0,0,0,0,0,0,0,0
0.84668,0.84668,0.84424,0.84424,0.84424,0.84668,0.84668,0.84863,0.84863,0.85059,0.85059,0.85059,0.85059,0.85059,0.85303,0.85303,0.85303,0.85742,0.85938,0.85938,0.85938,0.86133,0.86377,0.81201,0.81201,0.81201,0.81006,0.80859,0.80859,0.80859,0.80859,0.81055,0.81055,0.81055,0.8125,0.88379,0.88623,0.88867,0.88867,0.88867,0.88867,0.91748,0.91748,0.91748,0.91748,0.91992,0.91992,0.91992,0.91748,0.8706,0.8706,0.8706,0.875,0.875,0.87256,0.875,0.875,0.87744,0.87744,0.8794,0.8794,0.8794,0.88184,0.88428,0.88428,0,0,0,0,1.1123,1.1123,1.1162,1.1162,1.1162,1.1162,1.1162,1.1162,1.1162,1.1201,1.1201,1.124,1.124,1.1201,1.1201,1.1201,1.124,1.124,1.124,1.124,1.124,1.124,1.1279,1.1279,1.1279,1.1279,1.1279,1.1279,1.124,1.124,1.124,1.1279,1.1279,1.1279,1.1279,1.1279,1.1279,1.1279,1.1279,1.1309,1.1279,1.1309,1.1279,1.1279,1.1309,1.1279,1.1309,1.1309,1.1309,1.1309,1.1309,1.1309,1.1309,1.1318,1.1348,1.1318,1.1318,1.1318,1.1318,1.1318,1.1279,1.1279,1.1279,1.1279,1.1279,1.1279,1.1318,1.1348,1.1348,1.1348,1.1348,1.1348,1.1348,1.1357,1.1357,1.1357,1.1357,1.1357,1.1357,1.1357,1.1357,1.1357,1.1357,1.1357,1.1357,1.1357,1.1357,1.1357,1.1318,1.1279,1.1279,1.124,1.1201,1.0918,1.0879,1.085,1.0781,1.0742,1.0645,1.0645,1.0615,1.0576,1.0576,1.0576,1.0576,1.0576,1.0576,1.0576,1.0615,1.0615,1.0615,1.0615,1.0615,1.0615,1.0615,1.0615,1.0615,1.0615,1.0615,1.0615,1.0645,1.0645,1.0674,1.0713,1.0713,1.0713,1.0713,1.0713,1.0713,1.0742,1.0742,1.0742,1.0781,1.0781,1.0781,1.0781,1.0781,1.0781,0,1.1631,1.1631,1.1631,1.1592,1.1553,1.1514,1.1514,1.1553,1.1592,1.1592,1.1592,1.1592,1.1592,1.1553,1.1553,1.1592,1.1553,1.1553,1.1553,1.1553,1.1592,1.1592,1.1631,1.1592,1.1592,1.1592,1.1592,1.1553,1.1553,1.1553,1.1553,1.1553,1.1553,1.1553,1.1592,1.1592,1.1592,1.1592,1.1592,1.1631,1.1631,1.167,1.167,1.167,1.1631,1.1592,1.1631,1.1592,1.1592,1.1592,1.1592,1.1592,1.1592,1.1631,1.1592,1.1631,1.1631,1.167,1.167,1.167,1.167,1.167,1.1631,1.167,1.167,1.167,1.1631,1.1631,1.1631,1.1631,1.1631,1.1631,1.1631,1.1631,1.1631,1.1631,1.1592,1.1592,1.1592,1.1592,1.1592,1.1592,1.1592,1.1592,1.1592,1.1592,1.1592,1.1592,1.1592,1.1592,1.1631,1.1631,1.1631,1.1631,1.1631,1.1631,1.1631,1.1631,1.1719,1.1719,1.1719,1.1719,1.1719,1.1719,1.1719,1.1719,1.1719,1.167,1.167,1.1631,1.1631,1.167,1.1631,1.1631,1.1631,1.168,1.168,1.168,1.168,1.1631,1.1631,1.168,1.168,1.168,1.168,1.168,1.168,1.1631,1.168,1.168,1.1641,1.1641,1.1641,1.1641,1.1641,1.1641,1.1641,1.1641,1.1641,1.1641,1.1641,1.1641,1.1641,1.1641,1.1641,1.1641,1.1641,1.1641,1.1641,1.1641,1.1641,1.1602,1.1602,1.1602,1.1641,1.1641,1.1641,1.168,1.168,1.168,1.168,1.168,1.168,1.168,1.1641,1.1641,1.168,1.168,1.168,1.168,1.168,1.1641,1.1641,1.1641,1.168,1.168,1.1641,1.168,1.168,1.168,1.1641,1.1641,1.1641,1.1641,1.1641,1.1641,1.1641,1.1641,1.168,1.168,1.1641,1.1641,1.1641,1.1641,1.1641,1.1602,1.1602,1.1602,1.083,1.0791,1.0791,1.0791,1.0791,1.0762,1.0762,1.0723,1.0723,1.0693,1.0693,1.0693,1.0693,1.0693,1.0654,1.0654,1.0654,1.0654,1.0625,1.0625,1.0625,1.0625,1.0762,1.0762,1.0791,1.0791,1.0791,1.0459,1.043,1.043,1.043,1.04,1.0371,1.0371,1.0332,1.0303,1.0273,1.0273,1.0215,1.0244,1.0215,1.0215,1.0215,1.0186,1.0186,1.0215,1.0215,1.0244,1.0215,1.0215,1.0215,1.0186,1.0215,1.0186,1.0156,1.0156,1.0186,1.0156,1.0156,1.0088,1.0088,1.0059,1,1,0.99756,0.99463,0.99756,0.99756,0.99756,0.99756,0.99463,0.99463,0.9917,0.99463,0,0,0,0,0,0,0,0,0,0,0,0,0,0,0,0,0,0,0,0,0,0,0,0,0,0,0,0,0,0,0,0,0,0,0,0,0,0,0,0
0.84424,0.84424,0.84424,0.84424,0.84424,0.84424,0.84668,0.84668,0.84863,0.84863,0.84863,0.84863,0.84863,0.85059,0.85059,0.85303,0.85303,0.85938,0.85938,0.85938,0.81201,0.81201,0.81201,0.81201,0.81055,0.8125,0.81055,0.80859,0.80859,0.80859,0.80859,0.81055,0.81055,0.8125,0.81445,0.81445,0,0.81836,0,0.88184,0.91992,0.91748,0.91992,0.91992,0.91992,0.91992,0.91992,0.91992,0.91748,0.8706,0.8706,0.8706,0.875,0.875,0.875,0.875,0.875,0.87744,0.87744,0.8794,0.8794,0.88184,0.88184,0.88623,0.88623,0,0,0,0,1.1094,1.1094,1.1094,1.1094,1.1123,1.1123,1.1123,1.1123,1.1123,1.1162,1.1162,1.1162,1.1162,1.1162,1.1162,1.1162,1.1162,1.1201,1.1201,1.1201,1.1201,1.1201,1.1201,1.124,1.1201,1.124,1.124,1.124,1.1201,1.1201,1.1201,1.1201,1.1201,1.124,1.124,1.124,1.124,1.124,1.124,1.124,1.1279,1.1279,1.124,1.124,1.1279,1.1279,1.1279,1.1279,1.1279,1.1279,1.1279,1.1318,1.1279,1.1318,1.1318,1.1318,1.1318,1.1279,1.1279,1.1279,1.1279,1.1279,1.1279,1.1279,1.124,1.124,1.1318,1.1318,1.1318,1.1357,1.1357,1.1357,1.1357,1.1357,1.1357,1.1357,1.1357,1.1357,1.1357,1.1357,1.1357,1.1357,1.1357,1.1357,1.1357,1.1318,1.1357,1.1318,1.1318,1.1279,1.124,1.124,1.1201,1.0957,1.0879,1.085,1.0781,1.0713,1.0645,1.0645,1.0615,1.0576,1.0576,1.0576,1.0576,1.0576,1.0576,1.0576,1.0576,1.0615,1.0615,1.0615,1.0615,1.0615,1.0615,1.0615,1.0615,1.0615,1.0615,1.0645,1.0645,1.0645,1.0713,1.0742,1.0742,1.0742,1.0742,1.0742,1.0742,1.0742,1.0742,1.0781,1.0781,1.0781,1.0781,1.0781,1.0781,1.0781,0,1.1631,1.1631,1.1592,1.1553,1.1514,1.1514,1.1514,1.1514,1.1514,1.1514,1.1514,1.1514,1.1514,1.1514,1.1553,1.1553,1.1553,1.1553,1.1553,1.1553,1.1592,1.1553,1.1592,1.1592,1.1592,1.1592,1.1553,1.1553,1.1553,1.1553,1.1553,1.1553,1.1553,1.1553,1.1553,1.1553,1.1592,1.1592,1.1592,1.1553,1.1592,1.1592,1.1592,1.1592,1.1592,1.1592,1.1592,1.1592,1.1592,1.1592,1.1592,1.1592,1.1592,1.1592,1.1592,1.1592,1.1592,1.1592,1.1631,1.1631,1.1631,1.1631,1.1631,1.1631,1.1631,1.1631,1.1592,1.1592,1.1592,1.1592,1.1592,1.1592,1.1592,1.1592,1.1592,1.1592,1.1592,1.1592,1.1592,1.1592,1.1553,1.1553,1.1553,1.1553,1.1553,1.1592,1.1553,1.1553,1.1553,1.1553,1.1592,1.1592,1.1592,1.1592,1.1592,1.1592,1.1592,1.1592,1.1631,1.1631,1.1631,1.1631,1.1631,1.1631,1.1631,1.1631,1.167,1.1631,1.1631,1.1631,1.1631,1.1631,1.1631,1.1631,1.1631,1.1631,1.1631,1.1631,1.1631,1.1631,1.1631,1.1641,1.1641,1.1641,1.1641,1.1641,1.1641,1.1641,1.1641,1.1641,1.1602,1.1602,1.1602,1.1602,1.1602,1.1602,1.1602,1.1602,1.1602,1.1602,1.1641,1.1602,1.1602,1.1602,1.1602,1.1602,1.1602,1.1602,1.1602,1.1602,1.1602,1.1602,1.1602,1.1602,1.1641,1.1641,1.1641,1.1641,1.1641,1.1641,1.1641,1.1641,1.1641,1.1641,1.1641,1.1641,1.1641,1.1641,1.1641,1.1641,1.1641,1.1641,1.1641,1.1641,1.1641,1.1641,1.1641,1.1641,1.1641,1.1641,1.1641,1.1641,1.1641,1.1641,1.1641,1.1641,1.1641,1.1641,1.1641,1.1641,1.1641,1.1641,1.1641,1.1641,1.1641,1.1602,1.1602,1.1602,1.1602,1.1602,1.1562,1.0791,1.0791,1.0762,1.0723,1.0723,1.0723,1.0693,1.0654,1.0693,1.0693,1.0654,1.0654,1.0654,1.0654,1.0654,1.0625,1.0654,1.0654,1.0723,1.083,1.083,1.083,1.083,1.0791,1.043,1.043,1.043,1.04,1.04,1.0371,1.0371,1.0332,1.0303,1.0273,1.0273,1.0215,1.0215,1.0215,1.0215,1.0186,1.0186,1.0156,1.0186,1.0186,1.0186,1.0186,1.0186,1.0186,1.0186,1.0186,1.0156,1.0156,1.0127,1.0156,1.0186,1.0156,1.0127,1.0127,1.0098,1.0059,1.0068,1.0029,0.99756,1,0.99756,0.99756,0.99756,0.98877,0.98877,0.9917,0.99463,0,0,0,0,0,0,0,0,0,0,0,0,0,0,0,0,0,0,0,0,0,0,0,0,0,0,0,0,0,0,0,0,0,0,0,0,0,0,0,0
0.84424,0.84424,0.84228,0.84228,0.84228,0.84424,0.84424,0.84668,0.84668,0.84863,0.84863,0.84863,0.84863,0.84863,0.84863,0.84863,0.84863,0.85107,0.85938,0.86182,0.8125,0.8125,0.8125,0.81055,0.81055,0.81055,0.80859,0.80664,0.80664,0.80859,0.80859,0.81055,0.81055,0.81055,0.8125,0.81445,0.81641,0,0,0,0.91992,0.91992,0.91748,0.91992,0.91992,0.91992,0.91748,0.91748,0.91748,0.8706,0.8706,0.8706,0.87305,0.87305,0.87305,0.875,0.875,0.87744,0.8794,0.8794,0.88184,0.88428,0.88428,0.88867,0,0,0,0,1.1055,1.1055,1.1055,1.1094,1.1094,1.1094,1.1094,1.1094,1.1094,1.1094,1.1123,1.1123,1.1123,1.1123,1.1123,1.1123,1.1123,1.1123,1.1123,1.1162,1.1162,1.1162,1.1162,1.1162,1.1201,1.1162,1.1162,1.1162,1.1162,1.1162,1.1162,1.1162,1.1162,1.1162,1.1162,1.1201,1.1201,1.1201,1.1162,1.1201,1.1201,1.1201,1.1201,1.1201,1.1162,1.1201,1.1201,1.1201,1.1201,1.1201,1.1201,1.1279,1.1279,1.1279,1.1279,1.1279,1.1279,1.1279,1.1279,1.124,1.124,1.124,1.124,1.124,1.124,1.124,1.124,1.1279,1.1279,1.1279,0,1.1357,1.1357,1.1357,1.1318,1.1318,1.1357,1.1318,1.1318,1.1318,1.1318,1.1318,1.1318,1.1318,1.1318,1.1279,1.1279,1.1318,1.1318,1.1318,1.1279,1.1279,1.124,1.1172,1.1055,1.0879,1.0742,1.0742,1.0674,1.0645,1.0645,1.0615,1.0576,1.0576,1.0576,1.0576,1.0576,1.0576,1.0576,1.0615,1.0615,1.0615,1.0615,1.0615,1.0615,1.0615,1.0615,1.0615,1.0615,1.0645,1.0645,1.0684,1.0684,1.0742,1.0742,1.0752,1.0752,1.0752,1.0752,1.0752,1.0781,1.0781,1.0781,1.0781,1.0781,1.0781,1.082,1.0781,1.0781,1.0781,0,1.1592,1.1553,1.1514,1.1475,1.1475,1.1436,1.1436,1.1436,1.1475,1.1475,1.1475,1.1475,1.1514,1.1475,1.1514,1.1514,1.1514,1.1514,1.1514,1.1514,1.1553,1.1553,1.1553,1.1553,1.1553,1.1553,1.1553,1.1514,1.1514,1.1514,1.1553,1.1514,1.1514,1.1553,1.1514,1.1553,1.1553,1.1514,1.1514,1.1514,1.1553,1.1553,1.1553,1.1553,1.1592,1.1592,1.1592,1.1592,1.1592,1.1592,1.1592,1.1592,1.1592,1.1592,1.1553,1.1553,1.1553,1.1592,1.1553,1.1592,1.1592,1.1592,1.1592,1.1592,1.1592,1.1592,1.1553,1.1553,1.1553,1.1553,1.1553,1.1553,1.1553,1.1553,1.1553,1.1553,1.1553,1.1553,1.1553,1.1553,1.1553,1.1553,1.1553,1.1553,1.1553,1.1553,1.1553,1.1553,1.1553,1.1553,1.1553,1.1553,1.1553,1.1592,1.1553,1.1592,1.1553,1.1592,1.1592,1.1592,1.1592,1.1592,1.1592,1.1592,1.1592,1.1592,1.1592,1.1592,1.1592,1.1592,1.1592,1.1592,1.1592,1.1592,1.1641,1.1592,1.1641,1.1592,1.1592,1.1592,1.1592,1.1602,1.1602,1.1602,1.1602,1.1602,1.1602,1.1602,1.1602,1.1602,1.1562,1.1602,1.1602,1.1602,1.1602,1.1602,1.1602,1.1562,1.1562,1.1602,1.1602,1.1562,1.1562,1.1602,1.1602,1.1602,1.1602,1.1602,1.1602,1.1602,1.1602,1.1602,1.1602,1.1602,1.1602,1.1602,1.1641,1.1641,1.1602,1.1602,1.1602,1.1602,1.1602,1.1602,1.1602,1.1641,1.1602,1.1641,1.1641,1.1602,1.1602,1.1602,1.1641,1.1641,1.1602,1.1602,1.1602,1.1602,1.1602,1.1602,1.1602,1.1602,1.1602,1.1641,1.1602,1.1602,1.1602,1.1602,1.1602,1.1602,1.1602,1.1602,1.1602,1.1602,1.1602,1.1562,1.1562,1.1562,1.1562,1.1523,1.0791,1.0762,1.0762,1.0723,1.0723,1.0693,1.0693,1.0654,1.0693,1.0654,1.0654,1.0654,1.0654,1.0654,1.0654,1.0654,1.0693,1.0723,1.083,1.083,1.083,1.083,1.083,1.0459,1.043,1.043,1.04,1.04,1.0332,1.0332,1.0303,1.0303,1.0273,1.0273,1.0244,1.0215,1.0186,1.0186,1.0186,1.0186,1.0156,1.0127,1.0156,1.0156,1.0156,1.0156,1.0186,1.0156,1.0156,1.0156,1.0127,1.0127,1.0127,1.0127,1.0186,1.0156,1.0127,1.0098,1.0098,1.0098,1.0098,1.0068,1.0039,1.0068,1.0039,1.0039,1.001,0.98877,0.98584,0.98877,0.98877,0,0,0,0,0,0,0,0,0,0,0,0,0,0,0,0,0,0,0,0,0,0,0,0,0,0,0,0,0,0,0,0,0,0,0,0,0,0,0,0
0.84228,0.84228,0.84228,0.84228,0.84228,0.84228,0.84473,0.84473,0.84668,0.84668,0.84668,0.84668,0.84668,0.84668,0.84863,0.84863,0.84863,0.85107,0.8125,0.81445,0.8125,0.81055,0.81055,0.81055,0.80859,0.80859,0.80664,0.80664,0.80664,0.80664,0.80859,0.80859,0.80859,0.80859,0.81055,0.81055,0.81055,0,0,0.91748,0.91992,0.91992,0.91748,0.91992,0.91992,0.91748,0.91748,0.91748,0.91992,0.8706,0.8706,0.8706,0.87305,0.87305,0.875,0.875,0.875,0.87988,0.88184,0.88184,0.88428,0.88672,0.89111,0.88867,0,0,0,0,1.1016,1.1016,1.1055,1.1055,1.1055,1.1055,1.1055,1.1055,1.1055,1.1055,1.1094,1.1094,1.1094,1.1094,1.1123,1.1094,1.1094,1.1133,1.1133,1.1133,1.1133,1.1133,1.1162,1.1162,1.1162,1.1133,1.1162,1.1162,1.1133,1.1133,1.1133,1.1133,1.1133,1.1133,1.1162,1.1162,1.1162,1.1162,1.1162,1.1162,1.1162,1.1162,1.1162,1.1162,1.1162,1.1162,1.1162,1.1162,1.1162,1.1162,1.1162,1.1162,1.1162,1.1162,1.1201,1.1201,1.1162,1.1201,1.1172,1.1172,1.1172,1.1201,1.1201,1.1201,1.1201,1.1201,1.1201,1.124,1.124,1.124,1.1279,1.1279,1.1318,1.1318,1.1318,1.1318,1.1318,1.1318,1.1318,1.1318,1.1318,1.1318,1.1318,1.1318,1.1279,1.124,1.124,1.1279,1.124,1.124,1.124,1.1201,1.1201,1.1172,1.1064,1.0879,1.0811,1.0742,1.0674,1.0645,1.0615,1.0615,1.0576,1.0576,1.0576,1.0576,1.0576,1.0615,1.0576,1.0615,1.0615,1.0615,1.0615,1.0615,1.0615,1.0615,1.0615,1.0615,1.0645,1.0645,1.0645,1.0684,1.0684,1.0752,1.0752,1.0752,1.0752,1.0752,1.0752,1.0781,1.0781,1.0781,1.0781,1.0781,1.0781,1.0781,1.082,1.0781,1.0781,1.0781,0,1.1514,1.1475,1.1436,1.1436,1.1436,1.1436,1.1396,1.1396,1.1436,1.1436,1.1436,1.1475,1.1475,1.1475,1.1475,1.1475,1.1475,1.1475,1.1475,1.1514,1.1475,1.1475,1.1475,1.1475,1.1475,1.1475,1.1475,1.1436,1.1514,1.1475,1.1475,1.1475,1.1514,1.1514,1.1514,1.1514,1.1514,1.1514,1.1514,1.1514,1.1553,1.1553,1.1553,1.1553,1.1553,1.1553,1.1553,1.1553,1.1553,1.1553,1.1553,1.1553,1.1553,1.1553,1.1553,1.1553,1.1553,1.1553,1.1553,1.1553,1.1553,1.1553,1.1553,1.1553,1.1553,1.1553,1.1553,1.1553,1.1553,1.1553,1.1553,1.1553,1.1553,1.1553,1.1553,1.1553,1.1553,1.1514,1.1553,1.1514,1.1514,1.1514,1.1514,1.1514,1.1514,1.1514,1.1514,1.1514,1.1514,1.1514,1.1514,1.1514,1.1553,1.1553,1.1514,1.1553,1.1514,1.1553,1.1553,1.1553,1.1553,1.1553,1.1553,1.1553,1.1553,1.1553,1.1553,1.1553,1.1553,1.1553,1.1553,1.1562,1.1562,1.1562,1.1562,1.1562,1.1562,1.1562,1.1523,1.1523,1.1523,1.1523,1.1562,1.1562,1.1562,1.1562,1.1523,1.1562,1.1562,1.1523,1.1523,1.1562,1.1562,1.1562,1.1562,1.1562,1.1562,1.1562,1.1523,1.1562,1.1562,1.1562,1.1562,1.1562,1.1562,1.1562,1.1562,1.1562,1.1562,1.1562,1.1562,1.1562,1.1562,1.1562,1.1602,1.1602,1.1602,1.1602,1.1602,1.1602,1.1602,1.1602,1.1602,1.1562,1.1562,1.1602,1.1562,1.1602,1.1602,1.1602,1.1562,1.1562,1.1602,1.1602,1.1602,1.1562,1.1602,1.1602,1.1602,1.1562,1.1562,1.1602,1.1562,1.1562,1.1562,1.1562,1.1562,1.1562,1.1562,1.1562,1.1562,1.1562,1.1562,1.1562,1.1562,1.1562,1.1523,1.1523,1.1523,1.1484,1.1445,1.1445,1.0723,1.0723,1.0723,1.0723,1.0693,1.0654,1.0693,1.0664,1.0664,1.0664,1.0664,1.0664,1.0664,1.0693,1.0762,1.0762,1.0859,1.0859,1.0859,1.0859,1.043,1.04,1.04,1.04,1.0371,1.0342,1.0342,1.0303,1.0303,1.0303,1.0273,1.0273,1.0244,1.0215,1.0186,1.0186,1.0186,1.0186,1.0156,1.0127,1.0127,1.0127,1.0127,1.0127,1.0127,1.0127,1.0156,1.0156,1.0127,1.0098,1.0098,1.0127,1.0156,1.0156,1.0098,1.0098,1.0098,1.0098,1.0098,1.0068,1.0068,1.0098,1.0098,1.0098,1.0068,0.99756,0.98877,0.98877,0.98877,0,0,0,0,0,0,0,0,0,0,0,0,0,0,0,0,0,0,0,0,0,0,0,0,0,0,0,0,0,0,0,0,0,0,0,0,0,0,0,0
0.84228,0.84228,0.84228,0.84228,0.84228,0.84228,0.84228,0.84473,0.84473,0.84668,0.84668,0.84668,0.84668,0.84668,0.84863,0.84863,0.84863,0.84863,0.8125,0.8125,0.8125,0.81055,0.81055,0.80859,0.80859,0.80664,0.80664,0.80664,0.80469,0.80664,0.80664,0.80664,0.80664,0.80859,0.80859,0.80859,0.80859,0,0,0,0.91992,0.91992,0.91748,0.91992,0.91992,0.91748,0.91748,0.91748,0.8706,0.8706,0.8706,0.8706,0.87305,0.87305,0.875,0.875,0.875,0.87988,0.88184,0.88428,0.88428,0.88672,0.89111,0,0,0,0,1.1016,1.0986,1.1016,1.1016,1.0986,1.0986,1.1016,1.0986,1.1016,1.1016,1.1016,1.1055,1.1055,1.1055,1.1055,1.1094,1.1055,1.1094,1.1094,1.1094,1.1094,1.1133,1.1133,1.1133,1.1133,1.1133,1.1133,1.1133,1.1133,1.1094,1.1133,1.1133,1.1133,1.1133,1.1133,1.1133,1.1133,1.1133,1.1133,1.1133,1.1133,1.1162,1.1133,1.1162,1.1133,1.1133,1.1133,1.1133,1.1133,1.1133,1.1133,1.1133,1.1172,1.1172,1.1172,1.1172,1.1172,1.1172,1.1172,1.1172,1.1133,1.1133,1.1172,1.1172,1.1172,1.1172,1.1172,1.1172,1.1201,1.1201,1.1201,1.124,1.1279,1.1279,1.1279,1.1279,1.1279,1.1279,1.1279,1.1279,1.1279,1.1279,1.1279,1.1279,1.1279,1.1201,1.1201,1.1201,1.124,1.124,1.1201,1.1201,1.1201,1.1201,1.1172,1.1064,1.0918,1.085,1.0742,1.0684,1.0645,1.0645,1.0615,1.0576,1.0576,1.0576,1.0576,1.0576,1.0615,1.0615,1.0615,1.0615,1.0615,1.0615,1.0615,1.0615,1.0615,1.0615,1.0645,1.0645,1.0645,1.0645,1.0684,1.0684,1.0752,1.0752,1.0752,1.0781,1.0781,1.0752,1.0781,1.0781,1.0781,1.0781,1.0781,1.0781,1.082,1.082,1.082,1.082,1.082,0,1.1396,1.1396,1.1396,1.1396,1.1396,1.1396,1.1396,1.1396,1.1396,1.1396,1.1436,1.1436,1.1475,1.1436,1.1475,1.1436,1.1475,1.1475,1.1475,1.1475,1.1436,1.1436,1.1436,1.1436,1.1436,1.1396,1.1396,1.1436,1.1436,1.1436,1.1436,1.1436,1.1436,1.1436,1.1436,1.1436,1.1475,1.1436,1.1475,1.1475,1.1514,1.1475,1.1475,1.1514,1.1514,1.1514,1.1514,1.1514,1.1514,1.1514,1.1514,1.1514,1.1514,1.1514,1.1514,1.1514,1.1514,1.1514,1.1514,1.1514,1.1514,1.1553,1.1553,1.1553,1.1553,1.1553,1.1553,1.1553,1.1553,1.1514,1.1514,1.1514,1.1514,1.1514,1.1514,1.1514,1.1514,1.1514,1.1514,1.1514,1.1514,1.1514,1.1514,1.1514,1.1514,1.1514,1.1514,1.1475,1.1475,1.1475,1.1475,1.1475,1.1475,1.1514,1.1475,1.1475,1.1475,1.1514,1.1514,1.1514,1.1514,1.1514,1.1514,1.1514,1.1523,1.1523,1.1523,1.1523,1.1523,1.1523,1.1523,1.1523,1.1523,1.1523,1.1523,1.1523,1.1484,1.1484,1.1484,1.1484,1.1484,1.1484,1.1484,1.1484,1.1484,1.1484,1.1484,1.1484,1.1484,1.1484,1.1484,1.1523,1.1523,1.1523,1.1523,1.1523,1.1523,1.1523,1.1484,1.1523,1.1523,1.1523,1.1523,1.1523,1.1562,1.1562,1.1523,1.1523,1.1523,1.1523,1.1523,1.1523,1.1523,1.1523,1.1523,1.1562,1.1562,1.1562,1.1562,1.1562,1.1562,1.1562,1.1562,1.1562,1.1562,1.1562,1.1562,1.1562,1.1562,1.1523,1.1523,1.1523,1.1523,1.1562,1.1523,1.1523,1.1523,1.1523,1.1562,1.1523,1.1523,1.1523,1.1523,1.1523,1.1523,1.1523,1.1523,1.1523,1.1523,1.1523,1.1562,1.1562,1.1562,1.1562,1.1523,1.1523,1.1523,1.1523,1.1484,1.1445,1.1445,1.1445,1.1445,1.1367,1.0693,1.0693,1.0693,1.0664,1.0693,1.0664,1.0664,1.0664,1.0664,1.0625,1.0693,0,0,0,1.0859,0,1.1006,1.043,1.043,1.04,1.04,1.04,1.0342,1.0303,1.0303,1.0303,1.0273,1.0273,1.0244,1.0244,1.0215,1.0186,1.0186,1.0186,1.0186,1.0156,1.0127,1.0127,1.0127,1.0127,1.0127,1.0127,1.0127,1.0127,1.0156,1.0127,1.0068,1.0068,1.0068,1.0098,1.0127,1.0098,1.0098,1.0068,1.0098,1.0098,1.0098,1.0068,1.0068,1.0098,1.0098,1.0098,1.0098,1.001,0.99463,0.99463,0.9917,0,0,0,0,0,0,0,0,0,0,0,0,0,0,0,0,0,0,0,0,0,0,0,0,0,0,0,0,0,0,0,0,0,0,0,0,0,0,0,0
0.84033,0.84228,0.84228,0.84228,0.84228,0.84228,0.84228,0.84473,0.84473,0.84473,0.84668,0.84668,0.84668,0.84668,0.84863,0.84863,0.84863,0.8125,0.8125,0.8125,0.8125,0.81055,0.80859,0.80664,0.80664,0.80664,0.80664,0.80469,0.80469,0.80469,0.80469,0.80469,0.80664,0.80664,0.80664,0.80664,0.80664,0.80664,0,0,0.91748,0.91748,0.91748,0.91748,0.91748,0.91748,0.91748,0.91748,0.86865,0.86865,0.8706,0.8706,0.8706,0.87305,0.875,0.875,0.87744,0.87988,0.88184,0.88428,0.88428,0.89111,0.89355,0.896,0,0,0,1.0986,1.0986,1.0986,1.0986,1.0986,1.0986,1.0986,1.0947,1.0986,1.0986,1.0986,1.1016,1.1016,1.1016,1.1055,1.1055,1.1055,1.1055,1.1055,1.1055,1.1055,1.1094,1.1094,1.1094,1.1094,1.1094,1.1094,1.1094,1.1094,1.1094,1.1094,1.1094,1.1094,1.1094,1.1094,1.1094,1.1094,1.1133,1.1133,1.1133,1.1133,1.1133,1.1133,1.1133,1.1133,1.1133,1.1133,1.1133,1.1133,1.1133,1.1133,1.1133,1.1133,1.1094,1.1133,1.1094,1.1133,1.1133,1.1094,1.1133,1.1094,1.1094,1.1094,1.1133,1.1133,1.1133,1.1133,1.1133,1.1172,1.1172,1.1172,1.1172,1.1172,1.1172,1.1201,1.1201,1.1201,1.1172,1.1201,1.1201,1.1201,1.124,1.124,1.124,1.1201,1.1201,1.1201,1.1211,1.1211,1.1211,1.1211,1.1211,1.1211,1.1172,1.1133,1.1064,1.0957,1.085,1.0742,1.0684,1.0645,1.0645,1.0615,1.0576,1.0576,1.0576,1.0576,1.0576,1.0615,1.0615,1.0615,1.0615,1.0615,1.0615,1.0645,1.0645,1.0615,1.0645,1.0645,1.0645,1.0645,1.0684,1.0684,1.0684,1.0752,1.0752,1.0752,1.0781,1.0781,1.0781,1.0781,1.0781,1.0781,1.0781,1.0781,1.0781,1.082,1.082,1.082,1.082,1.082,0,1.1396,1.1357,1.1396,1.1396,1.1396,1.1396,1.1396,1.1396,1.1396,1.1396,1.1396,1.1396,1.1436,1.1396,1.1436,1.1436,1.1475,1.1436,1.1436,1.1436,1.1436,1.1396,1.1396,1.1396,1.1396,1.1396,1.1396,1.1396,1.1396,1.1396,1.1396,1.1396,1.1396,1.1396,1.1396,1.1396,1.1396,1.1396,1.1396,1.1396,1.1436,1.1436,1.1475,1.1475,1.1475,1.1475,1.1475,1.1475,1.1475,1.1475,1.1475,1.1475,1.1475,1.1475,1.1475,1.1475,1.1475,1.1475,1.1475,1.1475,1.1475,1.1475,1.1514,1.1514,1.1514,1.1514,1.1514,1.1514,1.1514,1.1514,1.1475,1.1475,1.1475,1.1475,1.1475,1.1475,1.1475,1.1475,1.1475,1.1475,1.1475,1.1475,1.1475,1.1475,1.1475,1.1475,1.1475,1.1475,1.1445,1.1475,1.1445,1.1445,1.1475,1.1475,1.1445,1.1445,1.1484,1.1484,1.1484,1.1484,1.1484,1.1484,1.1484,1.1484,1.1484,1.1484,1.1484,1.1484,1.1484,1.1484,1.1484,1.1484,1.1484,1.1484,1.1484,1.1484,1.1445,1.1445,1.1445,1.1445,1.1484,1.1484,1.1484,1.1484,1.1484,1.1484,1.1484,1.1484,1.1484,1.1445,1.1484,1.1484,1.1445,1.1484,1.1445,1.1484,1.1484,1.1484,1.1445,1.1484,1.1484,1.1484,1.1484,1.1484,1.1523,1.1523,1.1484,1.1484,1.1484,1.1484,1.1484,1.1484,1.1484,1.1484,1.1484,1.1523,1.1523,1.1523,1.1523,1.1523,1.1523,1.1523,1.1523,1.1523,1.1523,1.1523,1.1523,1.1523,1.1523,1.1523,1.1523,1.1484,1.1523,1.1523,1.1523,1.1523,1.1523,1.1484,1.1484,1.1484,1.1523,1.1523,1.1484,1.1484,1.1484,1.1484,1.1523,1.1523,1.1523,1.1523,1.1523,1.1523,1.1523,1.1523,1.1523,1.1523,1.1484,1.1484,1.1445,1.1406,1.1406,1.1445,1.1406,1.1367,1.1338,1.0693,1.0693,1.0664,1.0693,1.0664,1.0664,1.0625,1.0625,1.0596,0,0,0,0,0,1.0527,1.0527,1.043,1.043,1.043,1.04,1.0371,1.0303,1.0303,1.0303,1.0273,1.0273,1.0273,1.0244,1.0244,1.0215,1.0186,1.0186,1.0186,1.0156,1.0156,1.0127,1.0127,1.0127,1.0127,1.0127,1.0098,1.0098,1.0098,1.0098,1.0068,1.0068,1.0039,1.0039,1.0068,1.0068,1.0068,1.0068,1.0068,1.0068,1.0068,1.0068,1.0068,1.0068,1.0127,1.0127,1.0127,1.0127,1.0068,1.001,1.001,0.99756,0,0,0,0,0,0,0,0,0,0,0,0,0,0,0,0,0,0,0,0,0,0,0,0,0,0,0,0,0,0,0,0,0,0,0,0,0,0,0,0
0.84033,0.84033,0.84033,0.84228,0.84228,0.84228,0.84473,0.84473,0.84473,0.84473,0.84473,0.84473,0.84668,0.84668,0.84668,0.84863,0.84863,0.81055,0.81055,0.81055,0.81055,0.80859,0.80664,0.80469,0.80469,0.80469,0.80469,0.80469,0.80469,0.80469,0.80469,0.80469,0.80664,0.80664,0.80664,0.80664,0.80664,0.80664,0,0,0.91504,0.91504,0.91748,0.91748,0.91748,0.91748,0.91748,0.91748,0.86865,0.86865,0.8706,0.8706,0.8706,0.8706,0.87305,0.875,0.87744,0.87988,0.88184,0.88428,0,0.89111,0.89355,0.89844,0,0,0,0,1.0986,1.0986,1.0986,1.0947,1.0947,1.0947,1.0947,1.0947,1.0986,1.0986,1.1025,1.1025,1.1025,1.1025,1.1055,1.1055,1.1055,1.1055,1.1055,1.1055,1.1055,1.1055,1.1055,1.1055,1.1055,1.1055,1.1055,1.1055,1.1055,1.1055,1.1055,1.1055,1.1055,1.1094,1.1094,1.1094,1.1055,1.1094,1.1094,1.1094,1.1094,1.1094,1.1133,1.1133,1.1133,1.1133,1.1133,1.1133,1.1094,1.1094,1.1094,1.1094,1.1094,1.1094,1.1094,1.1094,1.1094,1.1055,1.1094,1.1055,1.1064,1.1064,1.1094,1.1094,1.1094,1.1094,1.1172,1.1172,1.1172,1.1172,1.1172,1.1172,1.1133,1.1172,1.1172,1.1172,1.1172,1.1172,1.1172,1.1172,1.1172,1.1172,1.1172,1.1172,1.1172,1.1172,1.1172,1.1172,1.1172,1.1211,1.1211,1.1211,1.1172,1.1133,1.1064,1.082,1.0781,1.0713,1.0645,1.0645,1.0615,1.0615,1.0615,1.0576,1.0576,1.0576,1.0615,1.0615,1.0615,1.0615,1.0615,1.0645,1.0645,1.0645,1.0645,1.0645,1.0645,1.0645,1.0645,1.0645,1.0684,1.0684,1.0684,1.0752,1.0752,1.0781,1.0781,1.0781,1.0781,1.0781,1.0781,1.0781,1.0781,1.082,1.082,1.082,1.082,1.082,1.082,1.082,0,1.1357,1.1318,1.1357,1.1357,1.1357,1.1357,1.1357,1.1357,1.1357,1.1357,1.1357,1.1357,1.1396,1.1396,1.1396,1.1396,1.1396,1.1396,1.1396,1.1396,1.1396,1.1396,1.1396,1.1357,1.1357,1.1357,1.1357,1.1357,1.1396,1.1396,1.1396,1.1396,1.1396,1.1396,1.1396,1.1396,1.1396,1.1396,1.1357,1.1396,1.1396,1.1396,1.1396,1.1396,1.1396,1.1396,1.1396,1.1396,1.1396,1.1396,1.1436,1.1436,1.1436,1.1436,1.1436,1.1436,1.1436,1.1436,1.1436,1.1436,1.1436,1.1436,1.1475,1.1475,1.1475,1.1475,1.1475,1.1475,1.1475,1.1475,1.1436,1.1436,1.1436,1.1436,1.1475,1.1436,1.1436,1.1436,1.1436,1.1445,1.1445,1.1445,1.1445,1.1445,1.1445,1.1445,1.1445,1.1445,1.1445,1.1445,1.1445,1.1445,1.1445,1.1445,1.1406,1.1445,1.1445,1.1484,1.1484,1.1484,1.1484,1.1484,1.1445,1.1445,1.1445,1.1484,1.1445,1.1406,1.1445,1.1445,1.1445,1.1445,1.1445,1.1445,1.1445,1.1445,1.1445,1.1445,1.1445,1.1445,1.1445,1.1445,1.1445,1.1445,1.1445,1.1445,1.1445,1.1445,1.1445,1.1445,1.1445,1.1445,1.1445,1.1445,1.1445,1.1445,1.1445,1.1445,1.1445,1.1445,1.1445,1.1445,1.1445,1.1445,1.1445,1.1445,1.1445,1.1445,1.1445,1.1484,1.1445,1.1445,1.1445,1.1484,1.1445,1.1484,1.1484,1.1484,1.1484,1.1484,1.1523,1.1484,1.1484,1.1484,1.1484,1.1445,1.1445,1.1484,1.1484,1.1484,1.1484,1.1484,1.1484,1.1484,1.1484,1.1484,1.1484,1.1484,1.1484,1.1484,1.1484,1.1484,1.1445,1.1445,1.1445,1.1445,1.1484,1.1484,1.1484,1.1484,1.1484,1.1484,1.1484,1.1484,1.1484,1.1484,1.1484,1.1445,1.1445,1.1406,1.1406,1.1406,1.1406,1.1338,1.1338,1.1338,1.1338,1.0664,1.0693,1.0664,1.0625,1.0664,1.0625,0,0,0,0,0,0,0,1.0498,1.043,1.043,1.04,1.0371,1.0371,1.0342,1.0303,1.0303,1.0273,1.0273,1.0273,1.0244,1.0244,1.0215,1.0186,1.0186,1.0186,1.0156,1.0156,1.0127,1.0127,1.0098,1.0127,1.0098,1.0098,1.0068,1.0098,1.0098,1.0068,1.0039,1.0039,1.0039,1.0039,1.0039,1.0039,1.0039,1.0039,1.0068,1.0068,1.0068,1.0068,1.0068,1.0098,1.0127,1.0127,1.0127,1.0098,1.0068,1.0068,1.0039,0,0,0,0,0,0,0,0,0,0,0,0,0,0,0,0,0,0,0,0,0,0,0,0,0,0,0,0,0,0,0,0,0,0,0,0,0,0,0,0
0.84033,0.84033,0.84033,0.84277,0.84277,0.84277,0.84277,0.84277,0.84277,0.84473,0.84473,0.84473,0.84473,0.84668,0.84668,0.84668,0.84668,0.80664,0.80273,0.80469,0.80469,0.80273,0.80273,0.80469,0.80469,0.80273,0.80273,0.80273,0.80273,0.80273,0.80469,0.80469,0.80469,0.80664,0.80664,0.80664,0.80664,0.80664,0.80859,0,0,0.91748,0.91748,0.91748,0.91748,0.91748,0.92041,0.91748,0.86865,0.86865,0.86865,0.86865,0.8706,0.8706,0.87305,0.87305,0.87744,0.87988,0.88184,0.88428,0.89111,0.89111,0.896,0.89844,0,0,0,1.0947,1.0947,1.0947,1.0947,1.0947,1.0947,1.0947,1.0947,1.0947,1.0947,1.0947,1.0986,1.0986,1.0986,1.1025,1.1025,1.1025,1.1025,1.1025,1.1025,1.1025,1.1025,1.1025,1.1025,1.1025,1.1025,1.1025,1.1025,1.1055,1.1025,1.1025,1.1055,1.1055,1.1055,1.1055,1.1025,1.1025,1.1025,1.1025,1.1055,1.1055,1.1055,1.1055,1.1094,1.1094,1.1094,1.1094,1.1094,1.1094,1.1094,1.1094,1.1094,1.1094,1.1064,1.1064,1.1064,1.1064,1.1064,1.1025,1.1064,1.1025,1.1025,1.1025,1.1064,1.1064,1.1064,1.1064,1.1133,1.1133,1.1133,1.1133,1.1133,1.1133,1.1133,1.1133,1.1133,1.1133,1.1133,1.1133,1.1133,1.1133,1.1133,1.1133,1.1133,1.1133,1.1133,1.1172,1.1172,1.1172,1.1172,1.1172,1.1172,1.1172,1.1172,1.1133,1.0957,1.0781,1.0752,1.0713,1.0684,1.0645,1.0645,1.0615,1.0615,1.0586,1.0586,1.0615,1.0615,1.0615,1.0615,1.0615,1.0615,1.0645,1.0645,1.0645,1.0645,1.0645,1.0645,1.0645,1.0645,1.0684,1.0684,1.0713,1.0713,1.0781,1.0752,1.0781,1.0781,1.0781,1.0781,1.0781,1.0781,1.0781,1.082,1.082,1.082,1.082,1.082,1.082,1.085,1.085,0,1.1318,1.1318,1.1318,1.1318,1.1357,1.1357,1.1318,1.1357,1.1357,1.1357,1.1357,1.1318,1.1357,1.1357,1.1357,1.1357,1.1396,1.1357,1.1357,1.1357,1.1357,1.1357,1.1357,1.1357,1.1357,1.1328,1.1328,1.1357,1.1357,1.1357,1.1357,1.1357,1.1396,1.1396,1.1357,1.1357,1.1357,1.1367,1.1367,1.1367,1.1396,1.1396,1.1396,1.1367,1.1367,1.1367,1.1396,1.1396,1.1396,1.1367,1.1367,1.1396,1.1396,1.1406,1.1406,1.1406,1.1436,1.1436,1.1436,1.1436,1.1436,1.1436,1.1436,1.1436,1.1436,1.1436,1.1436,1.1436,1.1436,1.1436,1.1436,1.1445,1.1445,1.1445,1.1406,1.1406,1.1406,1.1406,1.1406,1.1406,1.1406,1.1406,1.1406,1.1406,1.1406,1.1406,1.1445,1.1445,1.1406,1.1406,1.1367,1.1406,1.1367,1.1367,1.1367,1.1367,1.1367,1.1445,1.1445,1.1445,1.1445,1.1445,1.1445,1.1445,1.1406,1.1445,1.1406,1.1406,1.1406,1.1406,1.1406,1.1406,1.1406,1.1406,1.1406,1.1406,1.1406,1.1406,1.1406,1.1406,1.1406,1.1406,1.1406,1.1406,1.1445,1.1445,1.1445,1.1445,1.1406,1.1406,1.1406,1.1406,1.1406,1.1406,1.1406,1.1406,1.1406,1.1445,1.1445,1.1445,1.1406,1.1406,1.1406,1.1406,1.1406,1.1406,1.1406,1.1406,1.1406,1.1406,1.1406,1.1367,1.1367,1.1406,1.1406,1.1406,1.1406,1.1406,1.1406,1.1406,1.1406,1.1484,1.1445,1.1445,1.1445,1.1445,1.1445,1.1445,1.1445,1.1445,1.1445,1.1445,1.1445,1.1445,1.1445,1.1445,1.1445,1.1445,1.1445,1.1445,1.1445,1.1445,1.1406,1.1406,1.1406,1.1445,1.1445,1.1445,1.1445,1.1445,1.1445,1.1445,1.1484,1.1445,1.1445,1.1445,1.1445,1.1406,1.1406,1.1406,1.1367,1.1367,1.1367,1.1338,1.1338,1.1338,1.1377,1.1377,1.1377,1.0664,1.0625,1.0664,1.0664,0,0,0,0,0,0,1.0498,1.043,1.043,1.04,1.04,1.0371,1.0342,1.0303,1.0303,1.0303,1.0273,1.0273,1.0273,1.0244,1.0244,1.0244,1.0215,1.0186,1.0186,1.0156,1.0156,1.0127,1.0098,1.0098,1.0098,1.0098,1.0068,1.0068,1.0068,1.0068,1.0068,1.0039,1.0039,1.0039,1.0039,1.0039,1.0039,1.001,1.0039,1.0039,1.0068,1.0068,1.0068,1.0068,1.0127,1.0098,1.0127,1.0098,1.0098,1.0156,1.0186,1.0186,1.0156,0,0,0,0,0,0,0,0,0,0,0,0,0,0,0,0,0,0,0,0,0,0,0,0,0,0,0,0,0,0,0,0,0,0,0,0,0,0,0
0.84033,0.84033,0.84033,0.84277,0.84277,0.84277,0.84277,0.84277,0.84473,0.84473,0.84473,0.84473,0.84473,0.84473,0.84668,0.84668,0.84668,0.80273,0.80078,0.80127,0.80127,0.80127,0.80127,0.80127,0.80127,0.80127,0.80127,0.80127,0.80127,0.80127,0.80273,0.80273,0.80469,0.80664,0.80664,0.80664,0.80664,0.80664,0.80859,0,0,0.91748,0.91748,0.92041,0.92041,0.92041,0.92041,0.86621,0.86621,0.86621,0.86621,0.86621,0.86865,0.8706,0.8706,0,0.87549,0.87988,0.88232,0.88672,0.8916,0.89355,0.896,0,0,0,0,1.0947,1.0947,1.0947,1.0947,1.0947,1.0947,1.0947,1.0947,1.0918,1.0918,1.0947,1.0986,1.0986,1.0986,1.0986,1.0986,1.0986,1.0986,1.0986,1.0986,1.0986,1.1025,1.1025,1.0986,1.0986,1.0986,1.0986,1.1025,1.1025,1.1025,1.1025,1.1025,1.1025,1.1025,1.1025,1.1025,1.1025,1.1025,1.1025,1.1025,1.1025,1.0986,1.0986,1.1025,1.1025,1.0986,1.1025,1.1025,1.1025,1.1064,1.1064,1.1064,1.1064,1.1064,1.1064,1.1025,1.1025,1.1025,1.1025,1.1025,1.1025,1.1025,1.1025,1.1025,1.1025,1.1025,1.1025,1.1094,1.1094,1.1094,1.1094,1.1094,1.1094,1.1094,1.1094,1.1094,1.1094,1.1094,1.1094,1.1094,1.1133,1.1094,1.1094,1.1133,1.1133,1.1133,1.1133,1.1133,1.1133,1.1133,1.1172,1.1172,1.1133,1.1133,1.1064,1.0996,1.082,1.0781,1.0752,1.0684,1.0645,1.0645,1.0615,1.0615,1.0615,1.0615,1.0615,1.0615,1.0615,1.0615,1.0615,1.0615,1.0645,1.0645,1.0645,1.0645,1.0645,1.0645,1.0684,1.0684,1.0684,1.0713,1.0713,1.0713,1.0781,1.0781,1.0781,1.0781,1.0781,1.0781,1.082,1.082,1.082,1.082,1.082,1.082,1.085,1.085,1.085,1.0889,1.0928,1.0957,1.125,1.125,1.1289,1.1289,1.1289,1.1289,1.1289,1.1289,1.1289,1.1289,1.1289,1.1289,1.1289,1.1328,1.1328,1.1328,1.1328,1.1357,1.1328,1.1328,1.1328,1.1328,1.1328,1.1328,1.1328,1.1328,1.1328,1.1328,1.1328,1.1328,1.1328,1.1328,1.1367,1.1367,1.1367,1.1367,1.1367,1.1328,1.1328,1.1328,1.1367,1.1367,1.1367,1.1367,1.1328,1.1367,1.1367,1.1367,1.1367,1.1328,1.1328,1.1367,1.1367,1.1367,1.1367,1.1367,1.1367,1.1367,1.1367,1.1367,1.1367,1.1367,1.1367,1.1367,1.1406,1.1406,1.1406,1.1406,1.1406,1.1406,1.1406,1.1406,1.1406,1.1406,1.1367,1.1367,1.1367,1.1367,1.1367,1.1367,1.1367,1.1367,1.1367,1.1406,1.1367,1.1406,1.1406,1.1406,1.1406,1.1367,1.1328,1.1328,1.1328,1.1367,1.1328,1.1367,1.1367,1.1406,1.1406,1.1406,1.1406,1.1406,1.1406,1.1367,1.1367,1.1367,1.1367,1.1367,1.1367,1.1406,1.1406,1.1406,1.1367,1.1367,1.1367,1.1367,1.1367,1.1367,1.1367,1.1367,1.1367,1.1406,1.1406,1.1367,1.1406,1.1406,1.1406,1.1406,1.1367,1.1367,1.1367,1.1367,1.1367,1.1367,1.1367,1.1367,1.1406,1.1406,1.1406,1.1406,1.1406,1.1406,1.1367,1.1367,1.1367,1.1328,1.1367,1.1367,1.1367,1.1367,1.1367,1.1328,1.1328,1.1367,1.1367,1.1367,1.1367,1.1367,1.1367,1.1367,1.1367,1.1406,1.1367,1.1367,1.1367,1.1367,1.1367,1.1367,1.1367,1.1367,1.1406,1.1406,1.1406,1.1406,1.1406,1.1406,1.1406,1.1406,1.1406,1.1406,1.1406,1.1406,1.1406,1.1367,1.1367,1.1406,1.1406,1.1406,1.1406,1.1445,1.1445,1.1445,1.1445,1.1406,1.1406,1.1406,1.1406,1.1406,1.1406,1.1377,1.1377,1.1377,1.1377,1.1338,1.1299,1.1299,1.1338,1.1338,1.1377,1.1299,1.0664,1.0664,0,0,0,0,0,0,1.0527,1.0498,1.0469,1.043,1.043,1.04,1.0371,1.0342,1.0312,1.0312,1.0312,1.0273,1.0273,1.0244,1.0244,1.0244,1.0215,1.0215,1.0186,1.0186,1.0186,1.0156,1.0127,1.0098,1.0098,1.0098,1.0098,1.0068,1.0068,1.0068,1.0068,1.0039,1.0039,1.0039,1.0039,1.0039,1.0039,1.001,1.001,1.0039,1.0039,1.0039,1.0068,1.0068,1.0068,1.0098,1.0098,1.0098,1.0098,1.0098,1.0186,1.0186,1.0186,1.0186,0,0,0,0,0,0,0,0,0,0,0,0,0,0,0,0,0,0,0,0,0,0,0,0,0,0,0,0,0,0,0,0,0,0,0,0,0,0,0
0.84033,0.84033,0.84033,0.84277,0.84033,0.84033,0.84277,0.84277,0.84277,0.84473,0.84473,0.84473,0.84473,0.84668,0.84668,0.84668,0.80127,0.80127,0.80127,0.80127,0.80127,0.80127,0.80127,0.79932,0.79932,0.80127,0.80127,0.80127,0.80127,0.80127,0.80127,0.80322,0.80469,0.80469,0.80469,0.80469,0.80664,0.80664,0.80859,0.8125,0.82031,0.82031,0,0,0.92041,0.92041,0.86621,0.86621,0.86621,0.86621,0.86621,0.86621,0.86621,0.8706,0.87109,0.87305,0,0.88232,0.88232,0.88916,0.8916,0.89355,0.896,0,0,1.0781,1.0811,1.0879,1.0918,1.0918,1.0947,1.0918,1.0918,1.0918,1.0918,1.0918,1.0918,1.0918,1.0947,1.0947,1.0947,1.0947,1.0986,1.0986,1.0986,1.0947,1.0986,1.0986,1.0986,1.0986,1.0986,1.0986,1.0947,1.0947,1.0986,1.0986,1.0986,1.0986,1.0986,1.0986,1.1025,1.1025,1.0986,1.0986,1.0986,1.0986,1.0986,1.0986,1.0986,1.0986,1.0986,1.0986,1.0957,1.0986,1.0986,1.0986,1.1025,1.1025,1.1025,1.1025,1.1025,1.1025,1.1025,1.1025,1.0986,1.0986,1.0986,1.0986,1.0986,1.0986,1.1025,1.1025,1.1025,1.1025,1.1064,1.1064,1.1064,1.1064,1.1064,1.1064,1.1064,1.1094,1.1094,1.1094,1.1094,1.1094,1.1064,1.1094,1.1094,1.1064,1.1094,1.1094,1.1094,1.1133,1.1133,1.1133,1.1104,1.1133,1.1104,1.1104,1.1104,1.1064,1.0996,1.085,1.082,1.0752,1.0713,1.0684,1.0645,1.0615,1.0615,1.0615,1.0615,1.0615,1.0615,1.0645,1.0615,1.0615,1.0615,1.0645,1.0645,1.0645,1.0645,1.0645,1.0645,1.0684,1.0684,1.0713,1.0713,1.0713,1.0752,1.0781,1.0781,1.0781,1.0781,1.0781,1.0781,1.082,1.082,1.082,1.082,1.082,1.085,1.085,1.085,1.085,1.0889,1.0928,1.1104,1.1211,1.125,1.125,1.125,1.125,1.125,1.125,1.125,1.125,1.125,1.125,1.125,1.1289,1.1289,1.1289,1.1289,1.1289,1.1289,1.1289,1.1289,1.1289,1.125,1.1289,1.1289,1.1289,1.1289,1.1289,1.1289,1.1289,1.1289,1.1289,1.1289,1.1289,1.1289,1.1289,1.1289,1.1289,1.1289,1.1289,1.1289,1.1328,1.1328,1.1367,1.1328,1.1328,1.1328,1.1328,1.1328,1.1328,1.1289,1.1289,1.1328,1.1328,1.1328,1.1328,1.1328,1.1328,1.1328,1.1328,1.1328,1.1328,1.1328,1.1328,1.1328,1.1328,1.1328,1.1328,1.1328,1.1367,1.1328,1.1328,1.1328,1.1367,1.1328,1.1328,1.1328,1.1328,1.1328,1.1328,1.1328,1.1328,1.1328,1.1367,1.1367,1.1367,1.1367,1.1367,1.1367,1.1367,1.1328,1.1328,1.1328,1.1328,1.1328,1.1328,1.1328,1.1328,1.1406,1.1367,1.1406,1.1406,1.1367,1.1367,1.1328,1.1367,1.1367,1.1367,1.1367,1.1328,1.1367,1.1367,1.1367,1.1328,1.1328,1.1328,1.1328,1.1328,1.1328,1.1328,1.1328,1.1328,1.1328,1.1328,1.1328,1.1328,1.1367,1.1367,1.1328,1.1328,1.1328,1.1328,1.1328,1.1328,1.1328,1.1328,1.1328,1.1328,1.1367,1.1367,1.1367,1.1367,1.1328,1.1328,1.1328,1.1328,1.1328,1.1328,1.1328,1.1367,1.1328,1.1328,1.1328,1.1328,1.1367,1.1367,1.1367,1.1367,1.1367,1.1367,1.1367,1.1367,1.1367,1.1328,1.1367,1.1338,1.1338,1.1338,1.1338,1.1338,1.1367,1.1367,1.1367,1.1367,1.1367,1.1367,1.1367,1.1367,1.1367,1.1367,1.1367,1.1367,1.1367,1.1367,1.1377,1.1377,1.1377,1.1367,1.1367,1.1406,1.1406,1.1377,1.1377,1.1377,1.1377,1.1377,1.1377,1.1377,1.1377,1.1377,1.1377,1.1377,1.1377,1.1338,1.1338,1.1299,1.1299,1.1299,1.126,1.1299,1.1299,1.1299,1.1299,1.1299,1.1416,0,0,0,0,1.0498,1.0498,1.0469,1.043,1.043,1.04,1.0371,1.0342,1.0312,1.0273,1.0273,1.0273,1.0244,1.0244,1.0215,1.0215,1.0215,1.0186,1.0186,1.0186,1.0186,1.0156,1.0127,1.0098,1.0098,1.0098,1.0098,1.0068,1.0068,1.0068,1.0068,1.0039,1.0039,1.001,1.001,1.001,1.001,0.99805,0.99805,1.001,1.001,1.0039,1.0039,1.0039,1.0039,1.0068,1.0068,1.0068,1.0068,1.0098,1.0156,1.0186,1.0186,1.0156,0,0,0,0,0,0,0,0,0,0,0,0,0,0,0,0,0,0,0,0,0,0,0,0,0,0,0,0,0,0,0,0,0,0,0,0,0,0,0
0.84033,0.84033,0.84033,0.84277,0.84277,0.84277,0.84277,0.84473,0.84473,0.84473,0.84473,0.84473,0.84668,0.84668,0.84668,0.84668,0.84668,0.80273,0.80127,0.80127,0.80127,0.79932,0.79932,0.79932,0.79932,0.79932,0.79932,0.80127,0.80127,0.80127,0.80127,0.80322,0.80322,0.80518,0.80518,0.80518,0.80518,0.80664,0.80859,0.8125,0.81641,0.81445,0.81836,0,0.86621,0.86621,0.86621,0.86621,0.86426,0.86426,0.86426,0.86621,0.86865,0.86865,0.87109,0.87305,0.87305,0,0,0.89355,0.89355,0.89355,0.896,0,0,1.0781,1.0811,1.085,1.085,1.085,1.085,1.0879,1.085,1.0879,1.085,1.085,1.085,1.085,1.0918,1.0918,1.0918,1.0918,1.0918,1.0947,1.0947,1.0918,1.0918,1.0947,1.0957,1.0957,1.0957,1.0957,1.0918,1.0918,1.0918,1.0918,1.0918,1.0957,1.0957,1.0986,1.0986,1.0986,1.0986,1.0986,1.0986,1.0957,1.0957,1.0957,1.0918,1.0918,1.0918,1.0957,1.0918,1.0957,1.0986,1.0957,1.0986,1.0986,1.0957,1.0986,1.0957,1.0986,1.0986,1.0986,1.0986,1.0986,1.0986,1.0986,1.0986,1.0986,1.0986,1.0986,1.0986,1.0986,1.1025,1.1025,1.1025,1.1025,1.1025,1.1064,1.1064,1.1064,1.1064,1.1064,1.1064,1.1064,1.1064,1.1064,1.1064,1.1064,1.1064,1.1064,1.1064,1.1064,1.1104,1.1104,1.1064,1.1064,1.1064,1.1064,1.1064,1.0996,1.0996,1.085,1.082,1.0781,1.0713,1.0684,1.0645,1.0615,1.0615,1.0615,1.0615,1.0615,1.0615,1.0645,1.0645,1.0615,1.0645,1.0645,1.0645,1.0645,1.0645,1.0654,1.0654,1.0684,1.0684,1.0713,1.0713,1.0752,1.0752,1.0781,1.0781,1.0781,1.082,1.082,1.082,1.082,1.082,1.082,1.082,1.085,1.085,1.085,1.085,1.0889,1.0928,1.0957,1.1064,1.1211,1.1211,1.1211,1.1211,1.1211,1.1211,1.1211,1.1211,1.1211,1.1211,1.1211,1.125,1.125,1.125,1.125,1.125,1.125,1.125,1.125,1.125,1.125,1.1211,1.125,1.125,1.125,1.125,1.125,1.125,1.125,1.125,1.125,1.125,1.125,1.125,1.125,1.125,1.125,1.125,1.125,1.1289,1.1289,1.1289,1.1289,1.1289,1.1289,1.1289,1.1289,1.1289,1.1289,1.1289,1.125,1.1289,1.1289,1.1289,1.1289,1.1289,1.1289,1.1289,1.1289,1.1289,1.1289,1.1289,1.1289,1.1289,1.1289,1.1289,1.1289,1.1289,1.1289,1.1289,1.1328,1.1328,1.1328,1.1289,1.1289,1.1289,1.1289,1.1289,1.1289,1.125,1.125,1.1289,1.1328,1.1328,1.1289,1.1328,1.1328,1.1328,1.1328,1.1289,1.1289,1.1289,1.1289,1.1289,1.1289,1.1328,1.1328,1.1328,1.1367,1.1367,1.1367,1.1328,1.1328,1.1328,1.1328,1.1328,1.1328,1.1328,1.1328,1.1328,1.1328,1.1328,1.1328,1.1328,1.1328,1.1328,1.1289,1.1289,1.1289,1.1289,1.1289,1.1289,1.1328,1.1289,1.1328,1.1328,1.1328,1.1328,1.1328,1.1289,1.1328,1.1289,1.1299,1.1299,1.1328,1.1328,1.1328,1.1328,1.1328,1.1328,1.1328,1.1328,1.1299,1.1299,1.1299,1.1299,1.1299,1.1299,1.1299,1.1299,1.1299,1.1299,1.1299,1.1328,1.1328,1.1328,1.1338,1.1338,1.1338,1.1338,1.1338,1.1338,1.1338,1.1338,1.1338,1.1338,1.1338,1.1338,1.1338,1.1338,1.1338,1.1367,1.1367,1.1367,1.1338,1.1367,1.1338,1.1338,1.1338,1.1338,1.1338,1.1338,1.1338,1.1338,1.1338,1.1338,1.1338,1.1338,1.1338,1.1338,1.1338,1.1299,1.1299,1.1338,1.1338,1.1338,1.1338,1.1338,1.1338,1.1338,1.1338,1.1338,1.1338,1.1338,1.1299,1.1299,1.126,1.126,1.1299,1.126,1.126,1.1299,1.1299,0,0,0,0,1.0527,1.0498,1.0469,1.0439,1.0439,1.04,1.0371,1.0342,1.0312,1.0312,1.0273,1.0273,1.0244,1.0215,1.0215,1.0186,1.0186,1.0186,1.0186,1.0186,1.0186,1.0186,1.0156,1.0127,1.0098,1.0098,1.0098,1.0098,1.0068,1.0068,1.0068,1.0039,1.0039,1.001,1.001,1.001,1.001,0.99805,0.99805,0.99512,0.99805,0.99805,0.99805,1.001,1.001,1.001,1.0039,1.0068,1.0039,1.0068,1.0068,1.0098,1.0098,1.0156,1.0156,0,0,0,0,0,0,0,0,0,0,0,0,0,0,0,0,0,0,0,0,0,0,0,0,0,0,0,0,0,0,0,0,0,0,0,0,0,0,0
0.84082,0.83838,0.84082,0.84082,0.84082,0.84277,0.84277,0.84473,0.84473,0.84473,0.84473,0.84473,0.84473,0.84473,0.84473,0.84473,0.80127,0.80127,0.80127,0.79932,0.79932,0.79932,0.79932,0.79932,0.79932,0.79932,0.79932,0.79932,0.79932,0.80127,0.80127,0.80322,0.80322,0.80518,0.80518,0.80518,0.80713,0.80713,0.80859,0.81055,0.81445,0.81641,0.81836,0.81641,0,0.86426,0.86426,0.86426,0.86426,0.86426,0.86426,0.86426,0.8667,0.8667,0.86865,0.86865,0.86865,0,0,0,0,1.0674,1.0713,1.0742,1.0742,1.0742,1.0781,1.0811,1.0811,1.0811,1.0811,1.085,1.085,1.085,1.085,1.085,1.085,1.085,1.0879,1.0879,1.085,1.085,1.085,1.0879,1.0879,1.0879,1.0918,1.0918,1.0918,1.0918,1.0918,1.0918,1.0879,1.0879,1.0918,1.0918,1.0918,1.0918,1.0957,1.0957,1.0957,1.0957,1.0957,1.0957,1.0957,1.0918,1.0918,1.0918,1.0879,1.0889,1.0889,1.0918,1.0918,1.0918,1.0918,1.0918,1.0918,1.0918,1.0918,1.0918,1.0918,1.0918,1.0957,1.0957,1.0957,1.0957,1.0957,1.0957,1.0957,1.0957,1.0957,1.0986,1.0957,1.0957,1.0986,1.0986,1.0986,1.0986,1.1025,1.1025,1.1025,1.1064,1.1064,1.1025,1.1025,1.1064,1.1025,1.1025,1.1025,1.1025,1.1025,1.1025,1.1025,1.1025,1.1025,1.1025,1.1025,1.1025,1.1025,1.1025,1.1025,1.0996,1.0957,1.0889,1.082,1.0781,1.0713,1.0684,1.0684,1.0615,1.0615,1.0615,1.0615,1.0615,1.0615,1.0654,1.0654,1.0654,1.0654,1.0654,1.0654,1.0654,1.0654,1.0654,1.0684,1.0684,1.0713,1.0713,1.0752,1.0752,1.0752,1.0781,1.0781,1.082,1.082,1.082,1.082,1.085,1.082,1.0859,1.0859,1.0859,1.0859,1.0859,1.0889,1.0889,1.0928,1.0957,1.1035,1.1172,1.1211,1.1211,1.1172,1.1211,1.1172,1.1211,1.1172,1.1211,1.1211,1.1211,1.1211,1.1211,1.1211,1.125,1.1211,1.1211,1.1211,1.1211,1.1211,1.1211,1.1211,1.1211,1.1211,1.1211,1.1211,1.1211,1.1211,1.1211,1.1211,1.1211,1.1211,1.1211,1.1211,1.1211,1.1211,1.1211,1.1211,1.1211,1.125,1.125,1.125,1.1289,1.1289,1.125,1.1289,1.1289,1.125,1.125,1.125,1.1211,1.125,1.125,1.1211,1.125,1.125,1.125,1.1289,1.1289,1.1289,1.1289,1.1289,1.1289,1.1289,1.125,1.125,1.125,1.1289,1.1289,1.1289,1.1289,1.1289,1.1289,1.1289,1.1289,1.1289,1.125,1.125,1.125,1.125,1.125,1.125,1.125,1.125,1.125,1.125,1.125,1.125,1.1289,1.125,1.125,1.125,1.125,1.125,1.1289,1.1289,1.1289,1.1328,1.1328,1.1328,1.1328,1.1328,1.1328,1.1289,1.1289,1.1328,1.1328,1.1328,1.1289,1.1289,1.1289,1.1328,1.1289,1.1289,1.1289,1.1289,1.1289,1.1289,1.126,1.126,1.1289,1.1289,1.1289,1.126,1.1289,1.1289,1.1299,1.1299,1.1299,1.1299,1.1299,1.1299,1.1299,1.1299,1.1299,1.1299,1.1299,1.1299,1.1299,1.1299,1.1299,1.1299,1.126,1.1299,1.126,1.1299,1.1299,1.1299,1.1299,1.1299,1.1299,1.1299,1.1299,1.1299,1.1299,1.1299,1.1299,1.1338,1.1299,1.1299,1.1299,1.1299,1.1299,1.1299,1.1299,1.126,1.1299,1.126,1.1299,1.1299,1.1299,1.1338,1.1338,1.1338,1.1338,1.1338,1.1338,1.1299,1.1299,1.1299,1.1299,1.1338,1.1338,1.1338,1.1338,1.1299,1.1299,1.1299,1.1299,1.1299,1.1299,1.126,1.1299,1.1299,1.1299,1.1299,1.1299,1.1299,1.1338,1.1338,1.1338,1.1299,1.1299,1.1299,1.126,1.126,1.126,1.126,1.126,1.126,1.126,1.126,1.126,1.126,1.1221,1.126,1.0527,1.0527,1.0527,1.0498,1.0439,1.04,1.04,1.0371,1.0342,1.0312,1.0312,1.0283,1.0283,1.0244,1.0244,1.0215,1.0186,1.0186,1.0186,1.0186,1.0186,1.0186,1.0186,1.0186,1.0156,1.0156,1.0127,1.0098,1.0068,1.0068,1.0068,1.0039,1.0039,1.001,1.001,0.99805,1.001,0.99805,0.99512,0.99512,0.99512,0.99512,0.99512,0.99512,0.99512,0.99805,0.99805,1.001,1.001,1.001,1.0039,1.0039,1.0068,1.0098,1.0156,1.0156,0,0,0,0,0,0,0,0,0,0,0,0,0,0,0,0,0,0,0,0,0,0,0,0,0,0,0,0,0,0,0,0,0,0,0,0,0,0,0
0.83838,0.83838,0.83838,0.84082,0.84082,0.84082,0.84277,0.84473,0.84473,0.84473,0.84473,0.84473,0.84473,0.84473,0.84473,0.84473,0.80127,0.80127,0.80127,0.79932,0.79932,0.79932,0.79932,0.79932,0.79932,0.79932,0.79932,0.79932,0.79932,0.80127,0.80127,0.80127,0.80322,0.80322,0.80518,0.80518,0.80713,0.80908,0.80908,0.81055,0.8125,0.81445,0.81641,0,0,0.86426,0.86426,0.86426,0.8623,0.86426,0.86426,0.86426,0.86426,0.8667,0.86426,0,0,0,1.042,0,1.0605,1.0674,1.0674,1.0713,1.0742,1.0742,1.0742,1.0781,1.0781,1.0742,1.0781,1.0781,1.0781,1.0811,1.0811,1.0811,1.0811,1.0811,1.085,1.085,1.0811,1.0811,1.0811,1.0811,1.0811,1.085,1.085,1.085,1.0879,1.0879,1.0879,1.085,1.085,1.085,1.085,1.085,1.0879,1.0879,1.0918,1.0918,1.0918,1.0918,1.0918,1.0918,1.0918,1.0889,1.0889,1.0889,1.0889,1.0889,1.0889,1.0889,1.0889,1.0889,1.0918,1.0918,1.0918,1.0918,1.0918,1.0918,1.0918,1.0918,1.0918,1.0918,1.0918,1.0957,1.0957,1.0957,1.0957,1.0957,1.0957,1.0957,1.0957,1.0957,1.0957,1.0957,1.0996,1.0957,1.0996,1.0996,1.0996,1.1025,1.1025,1.1025,1.1025,1.1025,1.1025,1.0996,1.0996,1.0996,1.0996,1.0996,1.0996,1.0996,1.0996,1.1025,1.1025,1.1025,1.1025,1.0996,1.1025,1.0996,1.0918,1.0889,1.085,1.0781,1.0752,1.0713,1.0684,1.0615,1.0615,1.0615,1.0615,1.0615,1.0654,1.0654,1.0654,1.0654,1.0654,1.0654,1.0654,1.0654,1.0654,1.0654,1.0654,1.0684,1.0713,1.0713,1.0752,1.0752,1.0752,1.082,1.082,1.082,1.082,1.082,1.082,1.0859,1.082,1.0859,1.0859,1.0859,1.0859,1.0889,1.0889,1.0889,1.0957,1.0996,1.1035,1.1104,1.1172,1.1172,1.1143,1.1172,1.1143,1.1172,1.1172,1.1172,1.1172,1.1172,1.1211,1.1211,1.1211,1.1211,1.1211,1.1182,1.1182,1.1211,1.1182,1.1182,1.1182,1.1182,1.1182,1.1182,1.1182,1.1182,1.1182,1.1182,1.1182,1.1182,1.1182,1.1182,1.1182,1.1143,1.1143,1.1143,1.1182,1.1182,1.1211,1.125,1.125,1.125,1.125,1.125,1.125,1.125,1.1211,1.1211,1.1211,1.1182,1.1182,1.1221,1.1221,1.1221,1.1221,1.125,1.125,1.125,1.125,1.125,1.125,1.125,1.125,1.125,1.125,1.125,1.125,1.125,1.125,1.125,1.125,1.125,1.125,1.125,1.125,1.125,1.125,1.125,1.125,1.125,1.125,1.1221,1.1221,1.1221,1.1221,1.1221,1.1221,1.1182,1.1221,1.1221,1.1221,1.1221,1.126,1.126,1.126,1.126,1.1289,1.1289,1.1289,1.1289,1.1289,1.1289,1.1289,1.1289,1.1289,1.1289,1.1289,1.1289,1.1289,1.1289,1.1289,1.1289,1.126,1.126,1.1289,1.126,1.126,1.126,1.126,1.126,1.126,1.126,1.126,1.126,1.126,1.1299,1.126,1.126,1.126,1.126,1.126,1.126,1.1221,1.1221,1.126,1.1221,1.126,1.126,1.126,1.126,1.126,1.126,1.126,1.126,1.126,1.126,1.126,1.126,1.126,1.126,1.126,1.126,1.126,1.126,1.126,1.126,1.1299,1.1299,1.1299,1.1299,1.126,1.126,1.126,1.126,1.126,1.126,1.126,1.126,1.126,1.126,1.1299,1.1299,1.1299,1.1299,1.1299,1.126,1.126,1.126,1.126,1.126,1.1299,1.1299,1.1299,1.1299,1.1299,1.1299,1.1299,1.126,1.126,1.126,1.126,1.126,1.126,1.126,1.126,1.126,1.126,1.126,1.126,1.126,1.126,1.126,1.126,1.126,1.126,1.1221,1.1221,1.126,1.126,1.126,1.126,1.126,1.126,1.123,1.123,1.0498,1.0498,1.0498,1.0469,1.0439,1.04,1.0371,1.0342,1.0342,1.0312,1.0312,1.0312,1.0312,1.0283,1.0244,1.0215,1.0186,1.0186,1.0186,1.0186,1.0215,1.0186,1.0186,1.0156,1.0127,1.0098,1.0098,1.0127,1.0068,1.0068,1.0068,1.0039,1.0039,1.001,1.001,0.99805,0.99805,0.99512,0.99512,0.99512,0.99219,0.99219,0.99219,0.99219,0.99512,0.99512,0.99512,0.99805,1.001,1.001,1.001,1.0039,1.0068,1.0098,1.0098,0,0,0,0,0,0,0,0,0,0,0,0,0,0,0,0,0,0,0,0,0,0,0,0,0,0,0,0,0,0,0,0,0,0,0,0,0,0,0,0
0.83838,0.83838,0.84082,0.84082,0.84082,0.84082,0.84082,0.84277,0.84277,0.84277,0.84473,0.84473,0.84473,0.84473,0.84473,0.84473,0.80127,0.79932,0.79932,0.79932,0.79932,0.79932,0.79932,0.79932,0.79932,0.79932,0.79932,0.79932,0.79932,0.79932,0.80127,0.80127,0.80322,0.80518,0.80518,0.80518,0.80518,0.80713,0.80908,0.80908,0.80908,0.80908,0,0.86426,0.86426,0.8623,0.8623,0.8623,0.8623,0.8623,0.8623,0.86426,0.86426,0.86426,0,0,0,1.0381,1.042,0,1.0645,1.0674,1.0674,1.0713,1.0713,1.0713,1.0742,1.0742,1.0742,1.0713,1.0742,1.0742,1.0742,1.0742,1.0742,1.0742,1.0781,1.0811,1.0811,1.0811,1.0811,1.0811,1.0811,1.0811,1.0811,1.0811,1.0811,1.085,1.085,1.085,1.085,1.085,1.085,1.085,1.085,1.0811,1.0811,1.085,1.085,1.085,1.085,1.0889,1.0889,1.0889,1.0889,1.0889,1.0889,1.0889,1.0889,1.0889,1.0889,1.085,1.0889,1.0889,1.0889,1.0889,1.0889,1.0889,1.0889,1.0889,1.0889,1.0889,1.0889,1.0889,1.0889,1.0918,1.0918,1.0889,1.0918,1.0918,1.0957,1.0957,1.0918,1.0918,1.0957,1.0918,1.0918,1.0918,1.0918,1.0957,1.0957,1.0996,1.0996,1.0996,1.0996,1.0996,1.0996,1.0957,1.0957,1.0957,1.0957,1.0957,1.0957,1.0957,1.0957,1.0957,1.0996,1.0996,1.0996,1.0996,1.0996,1.0957,1.0928,1.0889,1.085,1.0781,1.0752,1.0713,1.0684,1.0654,1.0654,1.0654,1.0654,1.0654,1.0654,1.0654,1.0654,1.0654,1.0654,1.0654,1.0654,1.0654,1.0654,1.0654,1.0684,1.0684,1.0723,1.0752,1.0752,1.0752,1.0752,1.082,1.082,1.082,1.082,1.082,1.0859,1.0859,1.0859,1.0859,1.0889,1.0859,1.0889,1.0889,1.0889,1.0928,1.0957,1.0957,1.1035,1.1064,1.1104,1.1104,1.1104,1.1104,1.1104,1.1104,1.1143,1.1143,1.1143,1.1182,1.1182,1.1182,1.1182,1.1182,1.1182,1.1182,1.1143,1.1182,1.1182,1.1143,1.1143,1.1143,1.1143,1.1143,1.1143,1.1143,1.1143,1.1143,1.1143,1.1143,1.1143,1.1104,1.1143,1.1143,1.1104,1.1104,1.1143,1.1143,1.1182,1.1182,1.1182,1.1211,1.1211,1.1221,1.1221,1.1221,1.1182,1.1182,1.1182,1.1182,1.1182,1.1182,1.1182,1.1182,1.1182,1.1221,1.1221,1.1221,1.1221,1.1182,1.1221,1.1221,1.1221,1.1221,1.1221,1.1221,1.1221,1.1221,1.1221,1.1221,1.1221,1.125,1.1221,1.1221,1.1221,1.1221,1.1221,1.1221,1.1221,1.1221,1.1221,1.1221,1.1182,1.1182,1.1182,1.1182,1.1182,1.1182,1.1182,1.1182,1.1182,1.1182,1.1182,1.1221,1.1221,1.126,1.126,1.126,1.126,1.126,1.1221,1.126,1.1221,1.126,1.1289,1.1289,1.1289,1.126,1.126,1.1221,1.126,1.1221,1.1221,1.1221,1.1221,1.1221,1.1221,1.1221,1.1182,1.1182,1.1221,1.1182,1.1182,1.1221,1.1221,1.126,1.1221,1.1221,1.1221,1.1221,1.1221,1.1221,1.1182,1.1182,1.1221,1.1182,1.1221,1.1221,1.1221,1.1221,1.1221,1.1221,1.126,1.1221,1.126,1.1221,1.1221,1.1221,1.1221,1.1221,1.1221,1.1221,1.126,1.126,1.126,1.126,1.126,1.126,1.126,1.126,1.1221,1.1221,1.1221,1.1221,1.1221,1.1221,1.1221,1.1221,1.1221,1.1221,1.126,1.126,1.126,1.126,1.126,1.1221,1.1221,1.126,1.1221,1.126,1.126,1.126,1.126,1.126,1.126,1.126,1.126,1.126,1.126,1.126,1.126,1.126,1.1221,1.1221,1.1221,1.1221,1.1221,1.1221,1.1221,1.1221,1.1221,1.1221,1.126,1.1221,1.1221,1.123,1.123,1.126,1.126,1.126,1.126,1.123,1.126,1.123,1.123,1.0498,1.0469,1.0469,1.0469,1.0439,1.04,1.04,1.0342,1.0342,1.0342,1.0312,1.0312,1.0312,1.0283,1.0244,1.0215,1.0186,1.0186,1.0186,1.0186,1.0186,1.0186,1.0186,1.0186,1.0156,1.0127,1.0127,1.0127,1.0068,1.0039,1.0039,1.0039,1.001,1.001,0.99805,0.99805,0.99805,0.99512,0.99512,0.99512,0.99512,0.99512,0.99512,0.99512,0.99512,0.99512,0.99512,0.99805,0.99805,0.99805,0.99805,1.001,1.0039,1.0068,1.0068,0,0,0,0,0,0,0,0,0,0,0,0,0,0,0,0,0,0,0,0,0,0,0,0,0,0,0,0,0,0,0,0,0,0,0,0,0,0,0,0
0.83838,0.83887,0.84082,0.84082,0.84082,0.84082,0.84082,0.84277,0.84277,0.84277,0.84473,0.84473,0.84473,0.84473,0.84473,0.84473,0.84473,0.79932,0.79932,0.79932,0.79932,0.79932,0.79932,0.79932,0.79932,0.79932,0.79932,0.79932,0.79932,0.80127,0.80127,0.80127,0.80518,0.80518,0.80518,0.80518,0.80713,0.80713,0.80908,0.80713,0.80713,0.80713,0,0.8623,0.8623,0.8623,0.85986,0.8623,0.8623,0.8623,0.8623,0.8623,0.86426,0.86426,0,0,0.93066,0.93066,0,1.0479,1.0615,1.0645,1.0645,1.0674,1.0713,1.0713,1.0713,1.0742,1.0713,1.0713,1.0713,1.0713,1.0713,1.0742,1.0742,1.0742,1.0742,1.0781,1.0811,1.0811,1.0781,1.0781,1.0781,1.0781,1.0781,1.0781,1.0811,1.0811,1.085,1.085,1.085,1.085,1.085,1.0811,1.082,1.082,1.082,1.082,1.082,1.082,1.082,1.082,1.082,1.082,1.085,1.085,1.085,1.085,1.085,1.085,1.085,1.085,1.085,1.085,1.085,1.085,1.085,1.0889,1.0889,1.0889,1.0889,1.085,1.085,1.085,1.085,1.0889,1.0889,1.0889,1.0889,1.0918,1.0889,1.0889,1.0889,1.0889,1.0918,1.0918,1.0918,1.0918,1.0918,1.0918,1.0918,1.0957,1.0957,1.0957,1.0957,1.0957,1.0957,1.0918,1.0918,1.0918,1.0918,1.0918,1.0918,1.0918,1.0918,1.0918,1.0957,1.0957,1.0957,1.0957,1.0957,1.0957,1.0928,1.0889,1.085,1.082,1.0752,1.0713,1.0713,1.0654,1.0654,1.0654,1.0654,1.0654,1.0654,1.0654,1.0654,1.0684,1.0654,1.0654,1.0684,1.0684,1.0684,1.0684,1.0723,1.0723,1.0723,1.0752,1.0752,1.0752,1.0752,1.082,1.082,1.082,1.0859,1.0859,1.0859,1.0889,1.0889,1.0889,1.0889,1.0889,1.0889,1.0889,1.0928,1.0928,1.0957,1.0957,1.1035,1.1064,1.1064,1.1064,1.1064,1.1064,1.1064,1.1104,1.1104,1.1104,1.1104,1.1104,1.1104,1.1104,1.1104,1.1104,1.1143,1.1143,1.1143,1.1143,1.1143,1.1104,1.1104,1.1104,1.1104,1.1104,1.1104,1.1104,1.1104,1.1104,1.1143,1.1104,1.1104,1.1104,1.1104,1.1104,1.1104,1.1104,1.1104,1.1104,1.1143,1.1143,1.1143,1.1182,1.1182,1.1182,1.1182,1.1182,1.1143,1.1143,1.1143,1.1143,1.1143,1.1143,1.1143,1.1143,1.1143,1.1182,1.1182,1.1182,1.1143,1.1143,1.1143,1.1143,1.1182,1.1182,1.1182,1.1182,1.1182,1.1182,1.1182,1.1182,1.1182,1.1182,1.1182,1.1221,1.1182,1.1221,1.1221,1.1221,1.1182,1.1182,1.1182,1.1182,1.1143,1.1143,1.1143,1.1143,1.1143,1.1143,1.1143,1.1143,1.1143,1.1143,1.1143,1.1143,1.1182,1.1221,1.1221,1.1221,1.126,1.1221,1.1221,1.1221,1.1182,1.1182,1.1182,1.1182,1.1182,1.1182,1.1182,1.1182,1.1182,1.1143,1.1143,1.1182,1.1182,1.1182,1.1182,1.1182,1.1182,1.1182,1.1221,1.1182,1.1182,1.1221,1.1221,1.1221,1.1221,1.1182,1.1182,1.1182,1.1182,1.1182,1.1182,1.1182,1.1182,1.1182,1.1182,1.1182,1.1182,1.1182,1.1182,1.1182,1.1221,1.1221,1.1221,1.1221,1.1221,1.1221,1.1221,1.1182,1.1182,1.1221,1.1221,1.1221,1.1221,1.1221,1.1221,1.1221,1.1221,1.1221,1.1221,1.1221,1.1221,1.1221,1.1191,1.1191,1.1221,1.1221,1.1221,1.1221,1.1221,1.1221,1.1221,1.1221,1.1221,1.1221,1.1221,1.1221,1.1221,1.1221,1.1221,1.1221,1.1221,1.126,1.1221,1.1221,1.1221,1.1221,1.1221,1.1221,1.1221,1.1221,1.1221,1.1221,1.1221,1.1221,1.1221,1.1221,1.123,1.1191,1.123,1.123,1.123,1.123,1.123,1.123,1.123,1.126,1.126,1.123,1.123,1.123,1.123,1.123,1.123,1.126,1.0469,1.0439,1.0439,1.04,1.04,1.0371,1.0342,1.0312,1.0342,1.0342,1.0342,1.0342,1.0283,1.0244,1.0215,1.0215,1.0186,1.0186,1.0186,1.0186,1.0186,1.0186,1.0186,1.0156,1.0156,1.0127,1.0127,1.0068,1.0039,1.0039,1.001,1.001,0.99805,0.99512,0.99512,0.99512,0.99512,0.99512,0.99512,0.99512,0.99512,0.99219,0.99219,0.99512,0.99512,0.99512,0.99805,0.99512,0.99512,0.99805,1.001,1.0039,1.0039,1.0068,0,0,0,0,0,0,0,0,0,0,0,0,0,0,0,0,0,0,0,0,0,0,0,0,0,0,0,0,0,0,0,0,0,0,0,0,0,0,0,0
0.83887,0.83887,0.84082,0.83887,0.84082,0.84082,0.84082,0.84082,0.84277,0.84277,0.84277,0.84473,0.84473,0.84473,0.84473,0.84473,0.84522,0.79932,0.79932,0.80127,0.80127,0.79932,0.79932,0.79932,0.79932,0.79932,0.79932,0.79932,0.79932,0.80127,0.80127,0.80322,0.80322,0.80518,0.80518,0.80518,0.80713,0.80713,0.80713,0.80713,0.80713,0.80713,0,0.8623,0.8623,0.85986,0.85791,0.85791,0.85986,0.85986,0.85986,0.8623,0.86426,0,0,0,0.93066,0.93066,0,1.0449,1.0576,1.0645,1.0645,1.0674,1.0674,1.0674,1.0713,1.0713,1.0713,1.0713,1.0713,1.0713,1.0713,1.0713,1.0713,1.0713,1.0713,1.0742,1.0742,1.0742,1.0742,1.0742,1.0742,1.0742,1.0742,1.0752,1.0781,1.0781,1.082,1.0781,1.082,1.0781,1.0781,1.082,1.0781,1.0781,1.0752,1.0781,1.0752,1.0752,1.0752,1.0752,1.0752,1.0752,1.0781,1.082,1.082,1.082,1.082,1.082,1.082,1.082,1.082,1.082,1.082,1.082,1.085,1.085,1.085,1.085,1.085,1.085,1.082,1.082,1.085,1.085,1.085,1.085,1.0889,1.0889,1.0889,1.085,1.085,1.085,1.0889,1.0889,1.0889,1.0889,1.0889,1.0889,1.0889,1.0918,1.0918,1.0918,1.0918,1.0918,1.0918,1.0918,1.0928,1.0928,1.0928,1.0928,1.0928,1.0928,1.0928,1.0928,1.0928,1.0928,1.0928,1.0928,1.0957,1.0928,1.0928,1.0889,1.082,1.0781,1.0752,1.0713,1.0684,1.0654,1.0654,1.0654,1.0654,1.0654,1.0654,1.0654,1.0654,1.0654,1.0654,1.0654,1.0684,1.0684,1.0684,1.0723,1.0723,1.0723,1.0723,1.0752,1.0752,1.0791,1.0752,1.082,1.082,1.0859,1.0859,1.0859,1.0859,1.0889,1.0889,1.0889,1.0889,1.0889,1.0889,1.0889,1.0928,1.0928,1.0957,1.0957,1.0996,1.1035,1.1035,1.1035,1.1035,1.1064,1.1064,1.1064,1.1064,1.1064,1.1064,1.1064,1.1064,1.1074,1.1074,1.1074,1.1074,1.1074,1.1074,1.1074,1.1074,1.1074,1.1074,1.1074,1.1074,1.1074,1.1074,1.1104,1.1074,1.1104,1.1104,1.1104,1.1104,1.1104,1.1104,1.1104,1.1104,1.1104,1.1104,1.1104,1.1143,1.1143,1.1143,1.1143,1.1143,1.1143,1.1143,1.1143,1.1143,1.1143,1.1104,1.1104,1.1104,1.1143,1.1143,1.1143,1.1104,1.1143,1.1143,1.1143,1.1143,1.1143,1.1143,1.1143,1.1143,1.1143,1.1143,1.1143,1.1143,1.1143,1.1143,1.1143,1.1143,1.1143,1.1143,1.1143,1.1143,1.1143,1.1143,1.1143,1.1143,1.1143,1.1143,1.1143,1.1143,1.1113,1.1113,1.1143,1.1143,1.1143,1.1143,1.1113,1.1113,1.1113,1.1113,1.1113,1.1113,1.1182,1.1143,1.1143,1.1143,1.1182,1.1143,1.1182,1.1143,1.1182,1.1182,1.1143,1.1143,1.1143,1.1143,1.1152,1.1152,1.1152,1.1152,1.1152,1.1152,1.1152,1.1152,1.1152,1.1152,1.1152,1.1152,1.1152,1.1182,1.1182,1.1182,1.1182,1.1182,1.1182,1.1152,1.1152,1.1152,1.1152,1.1152,1.1152,1.1152,1.1152,1.1152,1.1152,1.1152,1.1152,1.1152,1.1152,1.1182,1.1182,1.1182,1.1182,1.1182,1.1182,1.1182,1.1182,1.1182,1.1182,1.1182,1.1182,1.1182,1.1182,1.1191,1.1191,1.1191,1.1221,1.1191,1.1221,1.1221,1.1191,1.1191,1.1191,1.1191,1.1191,1.1191,1.1191,1.1191,1.1221,1.1221,1.1191,1.1191,1.1191,1.1191,1.1191,1.1191,1.1191,1.1221,1.1221,1.1221,1.1221,1.1221,1.1221,1.1221,1.1191,1.1191,1.1191,1.1221,1.123,1.123,1.1191,1.1191,1.123,1.1191,1.1191,1.1191,1.1152,1.1191,1.1191,1.1191,1.1191,1.123,1.123,1.123,1.123,1.123,1.123,1.123,1.123,1.123,1.123,1.126,1.126,1.1338,1.0439,1.0439,1.04,1.0371,1.0342,1.0312,1.0312,1.0342,1.0342,1.0342,1.0342,1.0312,1.0312,1.0254,1.0215,1.0215,1.0186,1.0215,1.0215,1.0186,1.0186,1.0186,1.0156,1.0156,1.0156,1.0127,1.0068,1.0039,1.0039,1.001,1.001,0.99805,0.99512,0.99512,0.99219,0.99219,0.99219,0.99219,0.99512,0.99512,0.99219,0.99219,0.99219,0.99512,0.99219,0.99512,0.99512,0.99512,0.99805,0.99805,1.001,1.0039,1.0039,0,0,0,0,0,0,0,0,0,0,0,0,0,0,0,0,0,0,0,0,0,0,0,0,0,0,0,0,0,0,0,0,0,0,0,0,0,0,0,0
