1.2314,1.2314,1.2314,1.2354,1.2354,1.2402,1.2402,1.2451,1.2451,1.25,1.2539,1.2539,1.2588,1.2588,1.2588,1.2588,1.2637,1.2637,1.2637,1.2637,1.2686,1.2686,1.2783,1.2783,1.2832,1.2832,1.2832,1.2881,1.293,1.293,1.2979,1.3027,1.3027,1.3027,1.3027,1.3027,1.3027,1.3076,1.3027,1.3076,1.3076,1.3135,1.3232,1.3232,1.3232,1.3232,1.3291,1.3291,1.3291,1.334,1.334,1.3389,1.3447,1.3447,1.3447,1.3496,1.3496,1.3496,1.3496,1.3496,1.3613,1.3662,1.3662,1.3662,1.3662,1.3662,1.3721,1.3721,1.3721,1.3779,1.3779,1.3838,1.3887,1.3887,1.3887,1.3887,1.3945,1.3945,1.3945,1.3945,1.4004,1.4062,1.4062,1.4121,1.418,1.4248,1.4248,1.4248,1.4307,1.4307,1.4365,1.4365,1.4365,1.4424,1.4424,1.4424,0,0,0,0,0,1.1328,1.1328,1.1328,1.1328,1.1328,1.1289,1.1289,1.1289,1.1289,1.1289,1.1289,1.125,1.125,1.1289,1.1289,1.1289,1.1328,1.1289,1.1289,1.1328,1.1289,1.1289,1.1328,1.1289,1.1289,1.1328,1.1289,1.1289,1.1289,1.1328,1.1289,1.1328,1.1328,1.1367,1.1367,1.1367,1.1367,1.1367,1.1367,1.1406,1.1406,1.1367,1.1406,1.1406,1.1406,1.1406,1.1406,1.1406,1.1406,1.1406,1.1406,1.1406,1.1445,1.1445,1.1406,1.1406,1.1406,1.1445,1.1445,1.1445,1.1445,1.1484,1.1484,1.1484,1.1484,1.1484,1.1484,1.1484,1.1484,1.1523,1.1523,1.1523,1.1523,1.1523,1.1523,1.1523,1.1523,1.1523,1.1523,1.1523,1.1523,1.1523,1.1523,1.1523,1.1523,1.1523,1.1562,1.1562,1.1562,1.1602,1.1602,1.1602,1.1602,1.1602,1.1602,1.1602,1.1602,1.1602,1.1602,1.1602,1.1602,1.1641,1.1689,1.1689,1.1689,1.1689,1.1689,1.1689,1.1689,1.1689,1.1689,1.1729,1.1729,1.1729,1.1729,1.1729,1.1729,1.1729,1.1729,1.1729,1.1729,1.1729,1.1729,1.1729,1.1729,1.1768,1.1768,1.1768,1.1768,1.1768,1.1768,1.1768,1.1768,1.1768,1.1768,1.1768,1.1768,1.1768,1.1768,1.1768,1.1768,1.1768,1.1768,1.1768,1.1768,1.1807,1.1855,1.1855,1.1855,1.1855,1.1855,1.1855,1.1895,1.1895,1.1895,1.1895,1.1895,1.1895,1.1895,1.1895,1.1895,1.1895,1.1895,1.1934,1.1934,1.1934,1.1934,1.1934,1.1934,1.1934,1.1934,1.1934,1.1934,1.1934,1.1934,1.1934,1.1934,1.1934,1.1934,1.1934,1.1934,1.1934,1.1934,1.1982,1.1982,1.1982,1.1982,1.1982,1.1982,1.207,1.207,1.207,1.207,1.2109,1.207,1.207,1.2021,1.2021,1.207,1.207,1.207,1.2021,1.207,1.2158,1.2158,0,1.4629,1.4824,1.4756,1.4697,1.4697,1.4697,1.4697,1.4697,1.4697,1.4697,1.4697,1.4697,1.4697,1.4697,1.4697,1.4697,1.4697,1.4629,1.4629,1.4629,1.4629,1.4629,1.4629,1.457,1.457,1.4629,1.457,1.457,1.457,1.457,1.4512,1.457,1.4512,1.4512,1.4512,1.4512,1.4512,1.4512,1.4512,1.4443,1.4443,1.4443,1.4443,1.4443,1.4443,1.4385,1.4385,1.4385,1.4385,1.4385,1.4385,1.4385,1.4385,1.4385,1.4385,1.4385,1.4385,1.4385,1.4385,1.4385,1.4326,1.4326,1.4326,1.4326,1.4326,1.4326,1.4268,1.4268,1.4268,1.4268,1.4209,1.4209,1.4209,1.415,1.415,1.415,1.415,1.415,1.415,1.415,1.415,1.4092,1.4092,1.4092,1.4092,1.4092,1.4092,1.4033,1.4033,1.4033,1.4033,1.4033,1.4033,1.4033,1.3975,1.3975,1.3916,1.3975,1.3975,1.3916,1.3916,1.3916,1.3857,1.3857,1.3857,1.3857,1.3857,1.3857,1.3857,1.3799,1.3799,1.3857,1.3857,1.3857,1.3857,1.3857,1.3857,1.3799,1.3799,1.3799,1.375,1.3691,1.3691,1.3633,1.3633,1.3633,1.3633,1.3633,1.3633,1.3633,1.3633,1.3633,1.3633,1.3584,1.3584,1.3584,1.3584,1.3584,1.3584,1.3584,1.3477,1.3477,1.3477,1.3477,1.3477,1.3477,1.3418,1.3477,1.3418,1.3477,1.3477,1.3418,1.3418,1.3418,1.3418,1.3418,1.3369,1.3369,1.3369,1.3311,1.3311,1.3311,1.3262,1.3262,1.3262,1.332,1.332,1.332,1.332,1.332,1.332,1.332,1.332,1.3262,1.3262,1.3262,1.3262,0,0,0,0,0,0,0,0,0,0,0,0,0,0,0,0,0,0,0,0,0,0,0,0,0,0,0,0,0,0,0,0
1.2314,1.2314,1.2354,1.2354,1.2354,1.2402,1.2402,1.2451,1.2451,1.25,1.2539,1.2539,1.2588,1.2588,1.2588,1.2637,1.2637,1.2637,1.2686,1.2686,1.2734,1.2734,1.2783,1.2832,1.2832,1.2881,1.2881,1.2881,1.293,1.293,1.2979,1.3027,1.3027,1.3027,1.3027,1.3076,1.3027,1.3076,1.3076,1.3076,1.3184,1.3232,1.3232,1.3232,1.3291,1.3291,1.3291,1.3291,1.3291,1.334,1.334,1.3389,1.3447,1.3447,1.3447,1.3496,1.3496,1.3496,1.3496,1.3555,1.3613,1.3613,1.3662,1.3662,1.3662,1.3662,1.3721,1.3721,1.3779,1.3779,1.3838,1.3887,1.3887,1.3887,1.3887,1.3896,1.3896,1.3945,1.3945,1.4004,1.4062,1.4062,1.4121,1.4121,1.4189,1.4248,1.4248,1.4248,1.4307,1.4365,1.4365,1.4365,1.4365,1.4424,1.4424,1.4424,0,0,0,0,1.1367,1.1328,1.1328,1.1328,1.1328,1.1328,1.1289,1.1289,1.1289,1.125,1.1289,1.1289,1.125,1.125,1.1289,1.1289,1.1289,1.1289,1.1289,1.1289,1.1328,1.1328,1.1289,1.1328,1.1289,1.1289,1.1289,1.1289,1.1289,1.1289,1.1289,1.1289,1.1328,1.1328,1.1367,1.1367,1.1367,1.1367,1.1367,1.1367,1.1406,1.1406,1.1406,1.1406,1.1406,1.1406,1.1406,1.1406,1.1406,1.1406,1.1406,1.1406,1.1406,1.1406,1.1406,1.1406,1.1406,1.1406,1.1406,1.1445,1.1445,1.1445,1.1445,1.1484,1.1484,1.1484,1.1484,1.1484,1.1484,1.1484,1.1523,1.1523,1.1523,1.1523,1.1523,1.1523,1.1523,1.1523,1.1523,1.1523,1.1523,1.1523,1.1523,1.1523,1.1523,1.1523,1.1523,1.1562,1.1562,1.1562,1.1602,1.1602,1.1602,1.1602,1.1602,1.1602,1.1602,1.1602,1.1602,1.1602,1.1602,1.1602,1.1641,1.1641,1.1689,1.1641,1.1689,1.1689,1.1689,1.1689,1.1689,1.1689,1.1729,1.1729,1.1729,1.1729,1.1729,1.1729,1.1729,1.1729,1.1729,1.1729,1.1729,1.1729,1.1729,1.1729,1.1768,1.1768,1.1768,1.1768,1.1768,1.1768,1.1768,1.1768,1.1768,1.1768,1.1768,1.1768,1.1768,1.1768,1.1768,1.1768,1.1768,1.1768,1.1768,1.1768,1.1807,1.1855,1.1855,1.1855,1.1855,1.1855,1.1855,1.1895,1.1895,1.1895,1.1895,1.1895,1.1895,1.1895,1.1895,1.1895,1.1895,1.1895,1.1934,1.1934,1.1934,1.1934,1.1934,1.1934,1.1934,1.1934,1.1934,1.1934,1.1934,1.1934,1.1934,1.1934,1.1934,1.1934,1.1934,1.1934,1.1982,1.1982,1.1982,1.1982,1.1982,1.1982,1.1982,1.1982,1.207,1.207,1.207,1.207,1.2109,1.207,1.207,1.2021,1.2021,1.2021,1.2021,1.2021,1.2021,1.207,1.207,1.2158,0,0,1.4824,1.4756,1.4697,1.4697,1.4697,1.4697,1.4697,1.4697,1.4697,1.4697,1.4697,1.4697,1.4697,1.4697,1.4697,1.4697,1.4629,1.4629,1.4629,1.4629,1.4639,1.4639,1.457,1.457,1.4639,1.457,1.457,1.457,1.4512,1.4512,1.4512,1.4512,1.4512,1.4512,1.4512,1.4512,1.4443,1.4512,1.4443,1.4443,1.4443,1.4443,1.4443,1.4443,1.4385,1.4385,1.4385,1.4385,1.4385,1.4326,1.4385,1.4385,1.4385,1.4385,1.4385,1.4385,1.4385,1.4326,1.4326,1.4326,1.4326,1.4326,1.4326,1.4326,1.4326,1.4326,1.4268,1.4268,1.4268,1.4268,1.4268,1.4268,1.4209,1.415,1.4209,1.4209,1.4209,1.415,1.415,1.415,1.415,1.4092,1.4092,1.4092,1.4092,1.4092,1.4092,1.4033,1.4033,1.4033,1.4033,1.4033,1.4033,1.3975,1.3975,1.3916,1.3975,1.3975,1.3916,1.3916,1.3916,1.3857,1.3857,1.3857,1.3857,1.3857,1.3857,1.3857,1.3799,1.3799,1.3857,1.3857,1.3857,1.3857,1.3857,1.3799,1.3799,1.375,1.3799,1.375,1.3691,1.3691,1.3691,1.3691,1.3691,1.3633,1.3633,1.3633,1.3633,1.3633,1.3584,1.3584,1.3584,1.3525,1.3525,1.3584,1.3584,1.3584,1.3584,1.3477,1.3477,1.3477,1.3477,1.3477,1.3477,1.3477,1.3477,1.3477,1.3477,1.3418,1.3418,1.3418,1.3418,1.3418,1.3418,1.3369,1.3369,1.3369,1.332,1.332,1.332,1.3262,1.3262,1.3262,1.332,1.332,1.332,1.332,1.332,1.332,1.332,1.3262,1.3213,1.3262,1.3262,1.3262,0,0,0,0,0,0,0,0,0,0,0,0,0,0,0,0,0,0,0,0,0,0,0,0,0,0,0,0,0,0,0,0
1.2314,1.2363,1.2363,1.2363,1.2402,1.2402,1.2451,1.2451,1.25,1.2539,1.2539,1.2539,1.2588,1.2588,1.2637,1.2637,1.2637,1.2637,1.2686,1.2686,1.2734,1.2734,1.2832,1.2832,1.2832,1.2881,1.2881,1.2881,1.293,1.2979,1.2979,1.3027,1.3027,1.3027,1.3027,1.3076,1.3076,1.3076,1.3076,1.3184,1.3184,1.3232,1.3232,1.3232,1.3291,1.3291,1.3291,1.3291,1.334,1.334,1.334,1.3389,1.3447,1.3447,1.3447,1.3506,1.3506,1.3506,1.3506,1.3555,1.3613,1.3662,1.3662,1.3662,1.3662,1.3721,1.3721,1.3721,1.3779,1.3838,1.3838,1.3896,1.3896,1.3945,1.3945,1.3945,1.3945,1.3945,1.3945,1.4004,1.4062,1.4121,1.4121,1.4189,1.4189,1.4248,1.4248,1.4307,1.4307,1.4365,1.4365,1.4365,1.4365,1.4434,1.4434,1.4434,0,1.1328,0,0,1.1367,1.1328,1.1328,1.1328,1.1328,1.1289,1.1289,1.125,1.125,1.125,1.125,1.1289,1.125,1.125,1.125,1.1289,1.1289,1.1289,1.1289,1.1289,1.1328,1.1328,1.1289,1.1328,1.1289,1.1289,1.1289,1.1289,1.1289,1.1289,1.1289,1.1328,1.1328,1.1328,1.1367,1.1367,1.1367,1.1367,1.1367,1.1367,1.1367,1.1406,1.1406,1.1367,1.1406,1.1406,1.1406,1.1406,1.1406,1.1406,1.1406,1.1406,1.1406,1.1406,1.1406,1.1406,1.1406,1.1406,1.1406,1.1445,1.1445,1.1445,1.1484,1.1484,1.1484,1.1484,1.1484,1.1484,1.1484,1.1484,1.1523,1.1523,1.1523,1.1523,1.1523,1.1523,1.1523,1.1523,1.1523,1.1523,1.1523,1.1523,1.1523,1.1523,1.1523,1.1523,1.1562,1.1562,1.1562,1.1562,1.1602,1.1602,1.1602,1.1602,1.1602,1.1602,1.1602,1.1602,1.1602,1.1602,1.1602,1.1602,1.1641,1.1641,1.1689,1.1689,1.1689,1.1689,1.1689,1.1689,1.1689,1.165,1.1689,1.1729,1.1729,1.1729,1.1729,1.1729,1.1729,1.1729,1.1729,1.1729,1.1729,1.1729,1.1729,1.1729,1.1768,1.1768,1.1768,1.1768,1.1768,1.1768,1.1768,1.1768,1.1768,1.1768,1.1768,1.1768,1.1768,1.1768,1.1768,1.1768,1.1768,1.1768,1.1807,1.1807,1.1855,1.1855,1.1855,1.1855,1.1855,1.1855,1.1855,1.1895,1.1895,1.1895,1.1895,1.1895,1.1895,1.1895,1.1855,1.1895,1.1895,1.1895,1.1895,1.1934,1.1934,1.1934,1.1934,1.1934,1.1934,1.1934,1.1934,1.1934,1.1934,1.1934,1.1934,1.1934,1.1934,1.1934,1.1982,1.1982,1.1982,1.1982,1.1982,1.1982,1.1982,1.2021,1.207,1.2021,1.207,1.207,1.207,1.207,1.2109,1.207,1.2021,1.2021,1.1982,1.2021,1.2021,1.1982,1.1982,1.207,1.207,1.2158,0,0,1.4697,1.4766,1.4697,1.4697,1.4697,1.4697,1.4697,1.4697,1.4697,1.4697,1.4697,1.4697,1.4697,1.4697,1.4697,1.4697,1.4639,1.4639,1.4697,1.4639,1.4639,1.4639,1.457,1.4639,1.4639,1.457,1.457,1.457,1.457,1.457,1.457,1.4512,1.4512,1.4512,1.4512,1.4512,1.4512,1.4512,1.4512,1.4443,1.4443,1.4443,1.4443,1.4453,1.4385,1.4385,1.4385,1.4385,1.4385,1.4453,1.4385,1.4385,1.4385,1.4453,1.4453,1.4385,1.4385,1.4385,1.4326,1.4326,1.4326,1.4326,1.4326,1.4326,1.4268,1.4326,1.4268,1.4268,1.4268,1.4268,1.4268,1.4268,1.4268,1.4209,1.4268,1.4209,1.4209,1.4209,1.415,1.415,1.415,1.4092,1.4092,1.4092,1.4092,1.4092,1.4092,1.4092,1.4092,1.4033,1.4033,1.4033,1.4033,1.4033,1.3975,1.3975,1.3975,1.3975,1.3975,1.3916,1.3916,1.3916,1.3916,1.3857,1.3857,1.3857,1.3857,1.3857,1.3799,1.3799,1.3857,1.3857,1.3857,1.3857,1.3857,1.3799,1.3799,1.375,1.375,1.375,1.3691,1.3633,1.3691,1.3633,1.3691,1.3633,1.3633,1.3633,1.3633,1.3633,1.3633,1.3584,1.3584,1.3584,1.3584,1.3584,1.3584,1.3584,1.3584,1.3525,1.3525,1.3525,1.3477,1.3477,1.3477,1.3477,1.3477,1.3477,1.3477,1.3477,1.3418,1.3418,1.3418,1.3418,1.3418,1.3369,1.3369,1.3369,1.332,1.332,1.3262,1.3262,1.3262,1.3262,1.332,1.332,1.332,1.332,1.332,1.332,1.332,1.3262,1.3262,1.3262,1.3262,1.332,0,0,0,0,0,0,0,0,0,0,0,0,0,0,0,0,0,0,0,0,0,0,0,0,0,0,0,0,0,0,0,0
1.2314,1.2363,1.2363,1.2363,1.2402,1.2402,1.2451,1.2451,1.25,1.25,1.2539,1.2539,1.2588,1.2588,1.2637,1.2637,1.2637,1.2686,1.2686,1.2686,1.2734,1.2734,1.2832,1.2832,1.2832,1.2881,1.2881,1.2881,1.293,1.2979,1.3027,1.3027,1.3027,1.3027,1.3086,1.3086,1.3076,1.3076,1.3135,1.3184,1.3232,1.3232,1.3232,1.3232,1.3291,1.3291,1.3291,1.3291,1.334,1.334,1.334,1.3398,1.3398,1.3398,1.3447,1.3506,1.3506,1.3506,1.3555,1.3555,1.3613,1.3613,1.3662,1.3662,1.3662,1.3721,1.3721,1.3779,1.3838,1.3838,1.3896,1.3896,1.3896,1.3945,1.3955,1.3955,1.3955,1.3955,1.3955,1.4004,1.4062,1.4131,1.4131,1.4189,1.4189,1.4248,1.4248,1.4307,1.4307,1.4365,1.4365,1.4365,1.4434,1.4434,1.4434,1.4434,0,0,1.1328,1.1367,1.1328,1.1328,1.1328,1.1289,1.1328,1.1289,1.1289,1.125,1.125,1.125,1.125,1.1289,1.125,1.1289,1.1289,1.1289,1.1289,1.1289,1.1289,1.1289,1.1328,1.1328,1.1328,1.1328,1.1328,1.1328,1.1328,1.1289,1.1328,1.1328,1.1328,1.1328,1.1328,1.1328,1.1367,1.1367,1.1367,1.1367,1.1367,1.1367,1.1367,1.1406,1.1367,1.1367,1.1406,1.1406,1.1406,1.1406,1.1406,1.1406,1.1406,1.1406,1.1406,1.1406,1.1406,1.1406,1.1406,1.1406,1.1406,1.1445,1.1445,1.1484,1.1484,1.1484,1.1523,1.1484,1.1484,1.1484,1.1484,1.1523,1.1523,1.1523,1.1523,1.1523,1.1523,1.1523,1.1523,1.1523,1.1523,1.1523,1.1523,1.1523,1.1523,1.1523,1.1523,1.1523,1.1562,1.1562,1.1562,1.1562,1.1602,1.1602,1.1602,1.1602,1.1602,1.1602,1.1602,1.1602,1.1602,1.1602,1.1602,1.1602,1.165,1.165,1.1689,1.1689,1.1689,1.1689,1.1689,1.1689,1.1689,1.165,1.1689,1.1729,1.1729,1.1689,1.1729,1.1729,1.1729,1.1729,1.1729,1.1729,1.1729,1.1729,1.1729,1.1729,1.1729,1.1768,1.1768,1.1768,1.1768,1.1768,1.1768,1.1768,1.1768,1.1768,1.1768,1.1768,1.1768,1.1768,1.1768,1.1768,1.1816,1.1816,1.1816,1.1816,1.1855,1.1855,1.1855,1.1855,1.1855,1.1855,1.1855,1.1895,1.1895,1.1895,1.1895,1.1895,1.1895,1.1895,1.1895,1.1895,1.1895,1.1895,1.1895,1.1934,1.1934,1.1934,1.1934,1.1934,1.1934,1.1934,1.1934,1.1934,1.1943,1.1943,1.1943,1.1943,1.1943,1.1943,1.1982,1.1943,1.1943,1.1982,1.1982,1.2021,1.1982,1.2021,1.2021,1.2021,1.207,1.207,1.207,1.207,1.2109,1.207,1.2021,1.2021,1.1982,1.2021,1.2021,1.1982,1.1982,1.207,1.207,1.2109,1.2109,0,0,1.4824,1.4766,1.4697,1.4697,1.4697,1.4697,1.4639,1.4639,1.4697,1.4697,1.4697,1.4697,1.4697,1.4697,1.4697,1.4639,1.4697,1.4697,1.4639,1.4639,1.457,1.457,1.4639,1.4697,1.4639,1.457,1.457,1.457,1.457,1.457,1.4512,1.457,1.457,1.4512,1.4512,1.4512,1.4512,1.4512,1.4453,1.4453,1.4453,1.4453,1.4453,1.4453,1.4385,1.4385,1.4385,1.4385,1.4385,1.4385,1.4385,1.4385,1.4453,1.4385,1.4385,1.4326,1.4326,1.4326,1.4326,1.4326,1.4326,1.4326,1.4326,1.4326,1.4326,1.4268,1.4268,1.4268,1.4268,1.4268,1.4268,1.4209,1.4209,1.4209,1.4209,1.4209,1.4209,1.415,1.415,1.415,1.415,1.415,1.4092,1.4092,1.4092,1.4092,1.4092,1.4092,1.4033,1.4033,1.4033,1.4033,1.3975,1.3975,1.3975,1.3916,1.3975,1.3916,1.3916,1.3916,1.3916,1.3916,1.3857,1.3857,1.3857,1.3857,1.3857,1.3857,1.3799,1.3857,1.3857,1.3857,1.3857,1.3857,1.3809,1.3809,1.3809,1.3809,1.375,1.3691,1.3691,1.3691,1.3691,1.3633,1.3633,1.3633,1.3633,1.3633,1.3643,1.3643,1.3643,1.3584,1.3584,1.3584,1.3584,1.3584,1.3584,1.3584,1.3584,1.3525,1.3525,1.3477,1.3477,1.3477,1.3477,1.3477,1.3477,1.3477,1.3418,1.3418,1.3418,1.3418,1.3418,1.3418,1.3369,1.3369,1.3369,1.3369,1.332,1.3262,1.3262,1.3262,1.3262,1.332,1.332,1.332,1.332,1.332,1.332,1.332,1.332,1.3262,1.3262,1.3262,1.3262,0,0,0,0,0,0,0,0,0,0,0,0,0,0,0,0,0,0,0,0,0,0,0,0,0,0,0,0,0,0,0,0
1.2363,1.2363,1.2363,1.2363,1.2402,1.2402,1.2451,1.2451,1.25,1.2549,1.2588,1.2588,1.2588,1.2637,1.2637,1.2637,1.2637,1.2686,1.2686,1.2686,1.2734,1.2734,1.2832,1.2832,1.2881,1.2881,1.2881,1.2881,1.293,1.2979,1.3027,1.3027,1.3027,1.3027,1.3086,1.3086,1.3086,1.3086,1.3135,1.3184,1.3232,1.3232,1.3232,1.3232,1.3291,1.3291,1.3291,1.334,1.334,1.334,1.334,1.3398,1.3447,1.3447,1.3447,1.3506,1.3506,1.3506,1.3506,1.3555,1.3613,1.3613,1.3662,1.3672,1.3672,1.3721,1.3721,1.3779,1.3838,1.3896,1.3896,1.3896,1.3896,1.3955,1.3955,1.3955,1.3955,1.3955,1.4014,1.4014,1.4131,1.4131,1.4189,1.4189,1.4248,1.4248,1.4307,1.4307,1.4365,1.4365,1.4365,1.4365,1.4434,1.4434,1.4434,1.4434,1.4434,0,1.1367,1.1328,1.1328,1.1328,1.1328,1.1289,1.1328,1.1289,1.125,1.125,1.125,1.125,1.125,1.125,1.125,1.125,1.1289,1.1289,1.1289,1.1289,1.1289,1.1289,1.1328,1.1328,1.1328,1.1328,1.1328,1.1328,1.1328,1.1328,1.1328,1.1328,1.1328,1.1328,1.1328,1.1328,1.1367,1.1367,1.1367,1.1367,1.1367,1.1367,1.1367,1.1406,1.1367,1.1367,1.1406,1.1406,1.1406,1.1406,1.1406,1.1406,1.1406,1.1406,1.1406,1.1406,1.1406,1.1406,1.1406,1.1406,1.1406,1.1445,1.1445,1.1484,1.1484,1.1484,1.1484,1.1484,1.1484,1.1484,1.1484,1.1484,1.1523,1.1484,1.1523,1.1523,1.1523,1.1523,1.1523,1.1523,1.1523,1.1523,1.1523,1.1523,1.1523,1.1523,1.1523,1.1523,1.1562,1.1562,1.1562,1.1562,1.1602,1.1602,1.1602,1.1602,1.1602,1.1602,1.1602,1.1602,1.1602,1.1602,1.1602,1.165,1.165,1.165,1.1689,1.1689,1.1689,1.1689,1.1689,1.1689,1.1689,1.1689,1.1689,1.1729,1.1729,1.1729,1.1729,1.1729,1.1729,1.1729,1.1729,1.1729,1.1729,1.1729,1.1729,1.1729,1.1729,1.1729,1.1729,1.1768,1.1768,1.1768,1.1768,1.1768,1.1768,1.1768,1.1768,1.1768,1.1768,1.1768,1.1768,1.1768,1.1816,1.1816,1.1816,1.1816,1.1855,1.1816,1.1855,1.1855,1.1855,1.1855,1.1855,1.1895,1.1895,1.1895,1.1934,1.1934,1.1934,1.1895,1.1895,1.1895,1.1895,1.1895,1.1895,1.1934,1.1943,1.1943,1.1943,1.1943,1.1943,1.1943,1.1943,1.1943,1.1895,1.1943,1.1943,1.1943,1.1943,1.1943,1.1943,1.1982,1.1943,1.1982,1.1982,1.1982,1.1982,1.2021,1.2021,1.2021,1.207,1.207,1.207,1.207,1.2109,1.2021,1.2021,1.1982,1.1982,1.2021,1.2021,1.1982,1.1982,1.207,1.207,1.2109,1.2109,0,0,1.4766,1.4697,1.4697,1.4697,1.4697,1.4697,1.4697,1.4697,1.4697,1.4697,1.4697,1.4639,1.4697,1.4697,1.4639,1.4639,1.4697,1.4697,1.4697,1.4639,1.4639,1.457,1.4639,1.4697,1.4639,1.457,1.457,1.457,1.457,1.457,1.457,1.4512,1.4512,1.4512,1.4512,1.4512,1.4512,1.4512,1.4453,1.4453,1.4453,1.4453,1.4453,1.4453,1.4453,1.4453,1.4453,1.4385,1.4385,1.4385,1.4385,1.4385,1.4385,1.4385,1.4385,1.4326,1.4326,1.4326,1.4326,1.4326,1.4326,1.4326,1.4326,1.4326,1.4326,1.4268,1.4268,1.4268,1.4268,1.4268,1.4209,1.4209,1.4209,1.4209,1.4209,1.4209,1.415,1.415,1.415,1.415,1.415,1.4092,1.4092,1.4092,1.4092,1.4092,1.4092,1.4092,1.4033,1.4033,1.4033,1.4033,1.3975,1.3975,1.3975,1.3916,1.3975,1.3975,1.3916,1.3916,1.3916,1.3916,1.3916,1.3857,1.3857,1.3857,1.3857,1.3857,1.3809,1.3857,1.3857,1.3857,1.3857,1.3857,1.3857,1.3809,1.3809,1.375,1.375,1.3691,1.3691,1.3691,1.3691,1.3691,1.3691,1.3643,1.3643,1.3643,1.3643,1.3643,1.3584,1.3584,1.3584,1.3584,1.3584,1.3584,1.3584,1.3584,1.3584,1.3525,1.3525,1.3525,1.3525,1.3477,1.3477,1.3477,1.3477,1.3477,1.3428,1.3418,1.3418,1.3418,1.3418,1.3418,1.3418,1.3369,1.3369,1.3369,1.332,1.332,1.3262,1.3262,1.3262,1.332,1.3369,1.332,1.332,1.332,1.332,1.332,1.332,1.3262,1.3262,1.3262,1.3262,0,0,0,0,0,0,0,0,0,0,0,0,0,0,0,0,0,0,0,0,0,0,0,0,0,0,0,0,0,0,0,0
1.2363,1.2363,1.2363,1.2402,1.2402,1.2451,1.2451,1.2451,1.25,1.2549,1.2588,1.2588,1.2588,1.2637,1.2637,1.2637,1.2637,1.2686,1.2686,1.2734,1.2734,1.2734,1.2832,1.2832,1.2881,1.2881,1.2881,1.293,1.2979,1.3027,1.3027,1.3027,1.3027,1.3086,1.3086,1.3086,1.3086,1.3135,1.3135,1.3184,1.3232,1.3232,1.3232,1.3291,1.3291,1.3291,1.334,1.334,1.334,1.3398,1.3398,1.3398,1.3447,1.3447,1.3447,1.3506,1.3506,1.3555,1.3555,1.3613,1.3613,1.3613,1.3672,1.3721,1.3721,1.3721,1.3721,1.3838,1.3838,1.3896,1.3896,1.3896,1.3955,1.3955,1.3955,1.3955,1.3955,1.3955,1.4014,1.4014,1.4131,1.4131,1.4189,1.4248,1.4248,1.4248,1.4307,1.4307,1.4365,1.4365,1.4365,1.4365,1.4434,1.4434,1.4434,1.4434,1.4434,1.4492,1.1328,1.1328,1.1328,1.1328,1.1328,1.1289,1.1328,1.1289,1.125,1.125,1.125,1.1211,1.125,1.125,1.125,1.125,1.1289,1.1289,1.1289,1.1289,1.1289,1.1289,1.1328,1.1328,1.1328,1.1328,1.1328,1.1328,1.1328,1.1328,1.1328,1.1328,1.1328,1.1328,1.1328,1.1328,1.1367,1.1367,1.1367,1.1367,1.1367,1.1367,1.1367,1.1406,1.1406,1.1406,1.1406,1.1406,1.1406,1.1406,1.1406,1.1406,1.1406,1.1406,1.1406,1.1406,1.1406,1.1406,1.1406,1.1406,1.1406,1.1445,1.1445,1.1484,1.1484,1.1484,1.1523,1.1523,1.1484,1.1484,1.1484,1.1484,1.1523,1.1523,1.1523,1.1523,1.1523,1.1523,1.1523,1.1523,1.1523,1.1523,1.1523,1.1523,1.1523,1.1562,1.1562,1.1562,1.1562,1.1562,1.1562,1.1562,1.1602,1.1602,1.1602,1.1602,1.1602,1.1602,1.1602,1.1602,1.1602,1.1611,1.1611,1.165,1.165,1.165,1.1689,1.1689,1.1689,1.1689,1.1729,1.1729,1.1729,1.1689,1.1729,1.1729,1.1729,1.1729,1.1729,1.1729,1.1768,1.1768,1.1729,1.1729,1.1729,1.1729,1.1729,1.1729,1.1729,1.1729,1.1729,1.1768,1.1768,1.1768,1.1768,1.1768,1.1768,1.1768,1.1768,1.1768,1.1768,1.1816,1.1768,1.1768,1.1816,1.1816,1.1816,1.1816,1.1855,1.1855,1.1895,1.1895,1.1895,1.1855,1.1895,1.1895,1.1895,1.1895,1.1943,1.1943,1.1943,1.1943,1.1895,1.1943,1.1943,1.1895,1.1943,1.1895,1.1895,1.1943,1.1943,1.1943,1.1943,1.1943,1.1943,1.1943,1.1943,1.1943,1.1943,1.1943,1.1943,1.1943,1.1982,1.1982,1.1982,1.1982,1.1982,1.1982,1.1982,1.1982,1.2021,1.2021,1.2021,1.2021,1.2021,1.207,1.2109,1.2021,1.2021,1.2021,1.2021,1.2021,1.2031,1.2031,1.1982,1.207,1.2158,1.2109,1.2109,1.2334,0,0,1.4697,1.4697,1.4697,1.4697,1.4639,1.4639,1.4697,1.4639,1.4639,1.4697,1.4639,1.4639,1.4697,1.4639,1.4639,1.4639,1.4697,1.4697,1.4639,1.457,1.457,1.4639,1.4639,1.4639,1.457,1.457,1.457,1.4639,1.457,1.457,1.4512,1.4512,1.4512,1.4512,1.4512,1.4512,1.4512,1.4453,1.4453,1.4453,1.4453,1.4453,1.4453,1.4453,1.4453,1.4385,1.4385,1.4385,1.4453,1.4385,1.4385,1.4385,1.4385,1.4385,1.4326,1.4326,1.4326,1.4326,1.4326,1.4326,1.4326,1.4326,1.4326,1.4326,1.4268,1.4268,1.4268,1.4268,1.4268,1.4268,1.4209,1.4209,1.4268,1.4209,1.4209,1.4209,1.415,1.415,1.415,1.415,1.4092,1.4092,1.4092,1.4092,1.4092,1.4092,1.4092,1.4033,1.4033,1.4033,1.4033,1.3975,1.3975,1.3975,1.3975,1.3975,1.3975,1.3975,1.3975,1.3916,1.3916,1.3916,1.3916,1.3916,1.3857,1.3857,1.3857,1.3809,1.3857,1.3857,1.3857,1.3857,1.3857,1.3857,1.3809,1.3809,1.375,1.375,1.375,1.3691,1.3691,1.3691,1.3691,1.3691,1.3643,1.3643,1.3691,1.3643,1.3643,1.3584,1.3584,1.3584,1.3584,1.3584,1.3584,1.3584,1.3584,1.3535,1.3535,1.3535,1.3477,1.3477,1.3477,1.3477,1.3477,1.3477,1.3477,1.3428,1.3428,1.3428,1.3428,1.3428,1.3428,1.3428,1.3428,1.3369,1.3369,1.3369,1.3369,1.332,1.3262,1.332,1.3369,1.3369,1.3369,1.332,1.332,1.332,1.332,1.332,1.332,1.3262,1.3271,1.3271,0,0,0,0,0,0,0,0,0,0,0,0,0,0,0,0,0,0,0,0,0,0,0,0,0,0,0,0,0,0,0,0
1.2363,1.2363,1.2363,1.2402,1.2402,1.2451,1.2451,1.2451,1.25,1.2549,1.2588,1.2588,1.2637,1.2637,1.2637,1.2637,1.2686,1.2686,1.2734,1.2734,1.2734,1.2783,1.2832,1.2832,1.2881,1.2881,1.2881,1.293,1.2979,1.2979,1.3027,1.3027,1.3027,1.3086,1.3086,1.3086,1.3135,1.3135,1.3135,1.3184,1.3242,1.3242,1.3242,1.3291,1.3291,1.3291,1.334,1.334,1.334,1.3398,1.3398,1.3447,1.3447,1.3447,1.3447,1.3506,1.3506,1.3555,1.3555,1.3613,1.3613,1.3672,1.3672,1.3721,1.3721,1.3721,1.3721,1.3838,1.3896,1.3896,1.3896,1.3896,1.3955,1.3955,1.3955,1.3955,1.3955,1.4014,1.4014,1.4014,1.4131,1.4189,1.4189,1.4248,1.4248,1.4307,1.4307,1.4365,1.4365,1.4365,1.4365,1.4434,1.4434,1.4434,1.4434,1.4365,1.4492,1.4492,1.1367,1.1328,1.1328,1.1328,1.1328,1.1289,1.1289,1.1289,1.1289,1.125,1.125,1.1211,1.125,1.125,1.125,1.1289,1.1289,1.1289,1.125,1.1289,1.1289,1.1289,1.1328,1.1328,1.1328,1.1328,1.1328,1.1289,1.1328,1.1328,1.1328,1.1328,1.1328,1.1328,1.1328,1.1328,1.1367,1.1367,1.1367,1.1367,1.1367,1.1367,1.1367,1.1367,1.1367,1.1406,1.1406,1.1406,1.1406,1.1406,1.1406,1.1406,1.1406,1.1406,1.1406,1.1406,1.1406,1.1406,1.1406,1.1406,1.1445,1.1445,1.1445,1.1484,1.1484,1.1523,1.1484,1.1523,1.1484,1.1484,1.1484,1.1484,1.1523,1.1484,1.1523,1.1523,1.1523,1.1523,1.1523,1.1523,1.1523,1.1523,1.1523,1.1523,1.1562,1.1562,1.1562,1.1523,1.1562,1.1562,1.1562,1.1562,1.1602,1.1602,1.1611,1.1611,1.1611,1.1611,1.1611,1.1611,1.1611,1.1611,1.1611,1.165,1.165,1.165,1.1689,1.1729,1.1689,1.1689,1.1729,1.1729,1.1689,1.1689,1.1729,1.1729,1.1729,1.1729,1.1729,1.1729,1.1729,1.1729,1.1729,1.1729,1.1729,1.1729,1.1729,1.1729,1.1729,1.1729,1.1768,1.1768,1.1768,1.1768,1.1729,1.1768,1.1768,1.1768,1.1768,1.1768,1.1768,1.1768,1.1816,1.1768,1.1816,1.1816,1.1816,1.1816,1.1855,1.1855,1.1855,1.1855,1.1855,1.1855,1.1895,1.1895,1.1895,1.1895,1.1943,1.1943,1.1943,1.1943,1.1943,1.1943,1.1943,1.1943,1.1943,1.1895,1.1895,1.1943,1.1943,1.1943,1.1895,1.1943,1.1943,1.1943,1.1943,1.1943,1.1943,1.1943,1.1982,1.1982,1.1982,1.1982,1.1982,1.1982,1.1982,1.1982,1.1982,1.1982,1.1982,1.1982,1.1982,1.2021,1.2021,1.207,1.207,1.2031,1.2031,1.2031,1.2031,1.2031,1.2031,1.2031,1.1982,1.207,1.2109,1.2158,1.2295,0,0,1.4766,0,1.4766,0,1.4697,1.4697,1.4639,1.4697,0,0,0,1.4697,1.4639,1.4697,1.4639,0,0,0,1.4639,1.4639,1.4639,1.457,1.4639,1.4639,1.4639,1.457,1.457,1.457,1.457,1.457,1.457,1.4512,1.4512,1.4512,1.4512,1.4512,1.4512,1.4512,1.4512,1.4512,1.4453,1.4453,1.4453,1.4453,1.4453,1.4453,1.4385,1.4385,1.4385,1.4385,1.4385,1.4395,1.4453,1.4453,1.4453,1.4395,1.4395,1.4395,1.4326,1.4326,1.4326,1.4326,1.4326,1.4326,1.4326,1.4268,1.4268,1.4268,1.4268,1.4268,1.4268,1.4268,1.4268,1.4268,1.4268,1.4209,1.4209,1.4209,1.4209,1.415,1.415,1.415,1.415,1.4092,1.4092,1.4092,1.4092,1.4092,1.4092,1.4033,1.4033,1.4033,1.4033,1.4033,1.3975,1.4033,1.3975,1.3975,1.3975,1.3975,1.3916,1.3916,1.3916,1.3916,1.3857,1.3916,1.3857,1.3857,1.3809,1.3857,1.3857,1.3857,1.3857,1.3857,1.3809,1.3809,1.3809,1.3809,1.375,1.375,1.3691,1.375,1.3691,1.3691,1.3691,1.3691,1.3691,1.3691,1.3643,1.3643,1.3643,1.3584,1.3584,1.3584,1.3584,1.3584,1.3584,1.3584,1.3584,1.3535,1.3535,1.3535,1.3477,1.3477,1.3477,1.3477,1.3477,1.3477,1.3428,1.3428,1.3428,1.3428,1.3428,1.3428,1.3369,1.3369,1.3369,1.3369,1.3369,1.3369,1.332,1.3262,1.332,1.3369,1.3369,1.3369,1.332,1.332,1.332,1.332,1.332,1.332,1.3271,1.3271,1.3271,0,0,0,0,0,0,0,0,0,0,0,0,0,0,0,0,0,0,0,0,0,0,0,0,0,0,0,0,0,0,0,0
1.2363,1.2363,1.2402,1.2402,1.2402,1.2451,1.2451,1.25,1.2549,1.2549,1.2588,1.2637,1.2637,1.2637,1.2637,1.2637,1.2686,1.2686,1.2734,1.2734,1.2734,1.2783,1.2832,1.2832,1.2881,1.2881,1.2881,1.293,1.2979,1.2979,1.3037,1.3037,1.3037,1.3086,1.3086,1.3135,1.3135,1.3135,1.3184,1.3242,1.3242,1.3242,1.3291,1.3291,1.3291,1.3291,1.334,1.334,1.334,1.3398,1.3398,1.3447,1.3447,1.3447,1.3506,1.3506,1.3506,1.3555,1.3555,1.3613,1.3613,1.3672,1.3672,1.3721,1.3721,1.3779,1.3779,1.3838,1.3896,1.3896,1.3896,1.3896,1.3955,1.3955,1.3955,1.3955,1.3955,1.4014,1.4014,1.4072,1.4189,1.4189,1.4189,1.4248,1.4248,1.4307,1.4365,1.4365,1.4375,1.4375,1.4375,1.4375,1.4434,1.4434,1.4434,1.4375,1.1328,1.1289,1.1328,1.1328,1.1328,1.1328,1.1328,1.1289,1.1289,1.1289,1.125,1.125,1.125,1.1221,1.125,1.125,1.125,1.1289,1.1289,1.125,1.125,1.1289,1.1289,1.1289,1.1328,1.1328,1.1328,1.1328,1.1289,1.1289,1.1289,1.1328,1.1328,1.1328,1.1328,1.1328,1.1328,1.1328,1.1367,1.1367,1.1367,1.1367,1.1367,1.1367,1.1367,1.1406,1.1406,1.1406,1.1406,1.1406,1.1406,1.1406,1.1406,1.1406,1.1406,1.1406,1.1406,1.1406,1.1406,1.1406,1.1406,1.1445,1.1445,1.1445,1.1445,1.1484,1.1484,1.1523,1.1484,1.1484,1.1484,1.1484,1.1484,1.1484,1.1484,1.1484,1.1523,1.1523,1.1523,1.1523,1.1523,1.1523,1.1523,1.1523,1.1523,1.1523,1.1523,1.1562,1.1562,1.1523,1.1523,1.1562,1.1562,1.1562,1.1611,1.1611,1.1611,1.1611,1.1611,1.1611,1.1611,1.1611,1.1611,1.1611,1.1611,1.1611,1.165,1.165,1.1689,1.1689,1.1689,1.1689,1.1729,1.1729,1.1729,1.1729,1.1689,1.1729,1.1729,1.1729,1.1729,1.1729,1.1729,1.1729,1.1729,1.1729,1.1729,1.1729,1.1729,1.1729,1.1729,1.1729,1.1729,1.1768,1.1768,1.1768,1.1768,1.1768,1.1768,1.1768,1.1768,1.1768,1.1768,1.1768,1.1768,1.1816,1.1816,1.1816,1.1816,1.1816,1.1855,1.1855,1.1895,1.1895,1.1895,1.1855,1.1895,1.1895,1.1895,1.1895,1.1943,1.1943,1.1943,1.1943,1.1943,1.1943,1.1943,1.1943,1.1943,1.1943,1.1943,1.1943,1.1943,1.1943,1.1943,1.1943,1.1943,1.1943,1.1895,1.1943,1.1943,1.1943,1.1982,1.1982,1.1982,1.1982,1.1982,1.1982,1.1982,1.2021,1.1982,1.1982,1.1982,1.2031,1.2031,1.2031,1.2031,1.207,1.207,1.2031,1.2031,1.2031,1.2031,1.2031,1.1982,1.2031,1.1982,1.207,1.207,1.207,1.207,0,0,1.4766,0,0,0,0,0,0,0,0,0,0,0,0,0,0,0,0,0,0,0,0,0,0,1.4766,1.4766,1.458,1.4639,1.4639,1.4639,1.457,1.457,1.4512,1.4512,1.4512,1.4512,1.4512,1.4512,1.4512,1.4453,1.4512,1.4453,1.4453,1.4453,1.4453,1.4453,1.4453,1.4395,1.4453,1.4453,1.4395,1.4395,1.4395,1.4453,1.4453,1.4453,1.4395,1.4395,1.4326,1.4326,1.4326,1.4326,1.4326,1.4326,1.4326,1.4326,1.4326,1.4326,1.4326,1.4326,1.4268,1.4268,1.4268,1.4268,1.4268,1.4268,1.4209,1.4209,1.4209,1.415,1.415,1.415,1.415,1.415,1.4092,1.4092,1.4092,1.4092,1.4092,1.4092,1.4033,1.4033,1.4033,1.4033,1.4033,1.4033,1.4033,1.4033,1.3975,1.3975,1.3975,1.3916,1.3975,1.3916,1.3916,1.3916,1.3916,1.3857,1.3857,1.3809,1.3867,1.3867,1.3867,1.3867,1.3867,1.3809,1.3809,1.3809,1.3809,1.375,1.375,1.375,1.375,1.375,1.3691,1.3691,1.3691,1.3691,1.3691,1.3643,1.3643,1.3643,1.3643,1.3584,1.3584,1.3584,1.3584,1.3584,1.3584,1.3584,1.3584,1.3584,1.3535,1.3477,1.3477,1.3477,1.3477,1.3477,1.3477,1.3428,1.3428,1.3428,1.3428,1.3428,1.3369,1.3369,1.3369,1.3369,1.3369,1.3369,1.332,1.332,1.3271,1.332,1.332,1.332,1.332,1.332,1.332,1.332,1.332,1.332,1.3271,1.3271,1.3271,1.3271,0,0,0,0,0,0,0,0,0,0,0,0,0,0,0,0,0,0,0,0,0,0,0,0,0,0,0,0,0,0,0,0
1.2363,1.2402,1.2402,1.2412,1.2451,1.2451,1.2451,1.25,1.25,1.2549,1.2598,1.2598,1.2637,1.2637,1.2637,1.2637,1.2686,1.2686,1.2734,1.2734,1.2734,1.2783,1.2832,1.2832,1.2881,1.2881,1.2881,1.293,1.2979,1.2979,1.3037,1.3037,1.3037,1.3086,1.3086,1.3135,1.3135,1.3135,1.3184,1.3242,1.3242,1.3242,1.3242,1.3291,1.3291,1.3291,1.334,1.334,1.334,1.3398,1.3398,1.3447,1.3447,1.3447,1.3506,1.3506,1.3555,1.3613,1.3613,1.3613,1.3672,1.3672,1.3672,1.3721,1.3721,1.3779,1.3779,1.3779,1.3838,1.3838,1.3896,1.3896,1.3955,1.3955,1.3955,1.3955,1.3955,1.4014,1.4014,1.4072,1.4189,1.4248,1.4248,1.4248,1.4248,1.4307,1.4375,1.4375,1.4375,1.4434,1.4375,1.4375,1.4434,1.4434,1.4434,1.4375,1.1367,1.1328,1.1328,1.1367,1.1328,1.1328,1.1328,1.1328,1.1289,1.1289,1.125,1.125,1.125,1.125,1.125,1.125,1.125,1.1289,1.125,1.125,1.125,1.1289,1.1289,1.1328,1.1328,1.1328,1.1328,1.1328,1.1289,1.1289,1.1289,1.1328,1.1328,1.1328,1.1328,1.1328,1.1328,1.1328,1.1367,1.1367,1.1367,1.1367,1.1367,1.1367,1.1367,1.1367,1.1406,1.1406,1.1406,1.1406,1.1406,1.1406,1.1406,1.1406,1.1406,1.1406,1.1406,1.1406,1.1406,1.1406,1.1406,1.1445,1.1445,1.1484,1.1484,1.1523,1.1523,1.1523,1.1523,1.1523,1.1523,1.1484,1.1523,1.1484,1.1523,1.1484,1.1523,1.1523,1.1523,1.1523,1.1523,1.1523,1.1523,1.1562,1.1523,1.1523,1.1523,1.1572,1.1572,1.1523,1.1572,1.1572,1.1572,1.1572,1.1611,1.1611,1.1611,1.1611,1.165,1.165,1.1611,1.1611,1.1611,1.1611,1.1611,1.1611,1.1611,1.165,1.1689,1.1689,1.1689,1.1689,1.1689,1.1689,1.1689,1.1689,1.1689,1.1729,1.1729,1.1729,1.1729,1.1729,1.1729,1.1729,1.1729,1.1729,1.1729,1.1729,1.1729,1.1729,1.1729,1.1729,1.1768,1.1768,1.1768,1.1768,1.1768,1.1768,1.1768,1.1768,1.1768,1.1768,1.1768,1.1777,1.1777,1.1777,1.1816,1.1816,1.1816,1.1816,1.1855,1.1855,1.1895,1.1895,1.1855,1.1855,1.1895,1.1895,1.1895,1.1895,1.1943,1.1943,1.1943,1.1943,1.1943,1.1943,1.1943,1.1943,1.1943,1.1943,1.1943,1.1943,1.1943,1.1943,1.1943,1.1943,1.1895,1.1943,1.1943,1.1943,1.1943,1.1943,1.1982,1.1982,1.1982,1.1982,1.1982,1.1982,1.1982,1.1982,1.1982,1.1982,1.2031,1.2031,1.2031,1.207,1.207,1.207,1.207,1.2031,1.2031,1.2031,1.2031,1.2031,1.2031,1.2031,1.2031,1.207,1.207,1.207,1.207,1.2334,0,0,0,0,0,0,0,0,0,0,0,0,0,0,0,0,0,0,0,0,0,0,0,0,0,0,0,1.4639,1.4639,1.4639,1.4639,1.458,1.4512,1.4512,1.4512,1.4512,1.4512,1.4512,1.4512,1.4453,1.4453,1.4453,1.4453,1.4453,1.4453,1.4453,1.4453,1.4395,1.4395,1.4395,1.4395,1.4395,1.4395,1.4395,1.4395,1.4395,1.4395,1.4395,1.4326,1.4326,1.4326,1.4326,1.4326,1.4326,1.4326,1.4326,1.4326,1.4326,1.4336,1.4268,1.4268,1.4268,1.4268,1.4268,1.4268,1.4268,1.4209,1.4209,1.4209,1.415,1.415,1.415,1.415,1.415,1.415,1.4092,1.4092,1.4092,1.4092,1.4092,1.4092,1.4033,1.4033,1.4033,1.4033,1.4033,1.4033,1.3975,1.3975,1.3975,1.3916,1.3975,1.3916,1.3916,1.3916,1.3916,1.3867,1.3867,1.3867,1.3809,1.3867,1.3867,1.3867,1.3867,1.3809,1.3809,1.3809,1.3809,1.375,1.375,1.375,1.375,1.375,1.3691,1.3691,1.3691,1.3691,1.3691,1.3691,1.3643,1.3643,1.3643,1.3643,1.3584,1.3643,1.3643,1.3643,1.3643,1.3584,1.3584,1.3584,1.3584,1.3535,1.3477,1.3477,1.3477,1.3477,1.3477,1.3477,1.3428,1.3428,1.3428,1.3428,1.3428,1.3428,1.3369,1.3369,1.3369,1.3369,1.332,1.3271,1.3271,1.3271,1.3271,1.332,1.332,1.332,1.332,1.332,1.332,1.332,1.332,1.3271,1.3271,1.3271,1.3271,0,0,0,0,0,0,0,0,0,0,0,0,0,0,0,0,0,0,0,0,0,0,0,0,0,0,0,0,0,0,0,0
1.2412,1.2412,1.2412,1.2412,1.2451,1.2451,1.2451,1.25,1.2549,1.2549,1.2598,1.2598,1.2637,1.2637,1.2637,1.2637,1.2686,1.2686,1.2734,1.2734,1.2783,1.2783,1.2832,1.2832,1.2881,1.2881,1.2881,1.293,1.2979,1.2979,1.3037,1.3037,1.3086,1.3086,1.3086,1.3135,1.3135,1.3135,1.3184,1.3184,1.3242,1.3242,1.3242,1.3291,1.3291,1.3291,1.334,1.334,1.334,1.3398,1.3398,1.3447,1.3447,1.3447,1.3506,1.3506,1.3564,1.3613,1.3613,1.3672,1.3672,1.3672,1.3672,1.373,1.373,1.3779,1.3779,1.3779,1.3838,1.3838,1.3896,1.3896,1.3955,1.3955,1.3955,1.3955,1.4014,1.4014,1.4072,1.4072,1.4189,1.4248,1.4248,1.4248,1.4248,1.4307,1.4375,1.4434,1.4434,1.4434,1.4434,1.4434,1.4434,1.4434,1.4434,1.4434,1.1367,1.1328,1.1328,1.1328,1.1328,1.1328,1.1289,1.1289,1.1289,1.1289,1.1289,1.125,1.125,1.126,1.126,1.126,1.1289,1.1289,1.1289,1.1289,1.1289,1.1289,1.1328,1.1328,1.1328,1.1328,1.1328,1.1289,1.1289,1.1289,1.1289,1.1328,1.1328,1.1328,1.1328,1.1328,1.1328,1.1328,1.1367,1.1367,1.1367,1.1367,1.1367,1.1367,1.1367,1.1367,1.1406,1.1406,1.1406,1.1406,1.1406,1.1406,1.1406,1.1406,1.1406,1.1406,1.1406,1.1406,1.1406,1.1406,1.1406,1.1445,1.1445,1.1484,1.1484,1.1523,1.1523,1.1523,1.1523,1.1523,1.1523,1.1523,1.1523,1.1523,1.1523,1.1484,1.1523,1.1523,1.1523,1.1523,1.1523,1.1523,1.1523,1.1572,1.1523,1.1523,1.1533,1.1572,1.1572,1.1533,1.1572,1.1572,1.1572,1.1572,1.1611,1.1611,1.165,1.165,1.165,1.165,1.1611,1.1611,1.1611,1.1611,1.1611,1.1611,1.1611,1.165,1.165,1.165,1.1689,1.1689,1.1689,1.1729,1.1729,1.1689,1.1689,1.1689,1.1729,1.1729,1.1729,1.1729,1.1729,1.1729,1.1729,1.1729,1.1729,1.1729,1.1729,1.1729,1.1729,1.1729,1.1768,1.1768,1.1768,1.1768,1.1777,1.1777,1.1777,1.1777,1.1777,1.1777,1.1777,1.1777,1.1777,1.1777,1.1816,1.1816,1.1816,1.1816,1.1855,1.1855,1.1895,1.1895,1.1855,1.1855,1.1895,1.1895,1.1943,1.1943,1.1943,1.1943,1.1943,1.1943,1.1943,1.1943,1.1943,1.1943,1.1943,1.1943,1.1943,1.1943,1.1943,1.1943,1.1943,1.1943,1.1904,1.1943,1.1943,1.1943,1.1943,1.1982,1.1982,1.1982,1.1982,1.1982,1.1982,1.1982,1.1982,1.1982,1.1982,1.1982,1.2031,1.2031,1.2031,1.207,1.207,1.207,1.207,1.207,1.2031,1.2031,1.207,1.207,1.2031,1.207,1.207,1.207,1.207,1.2031,0,0,0,0,0,0,0,0,0,0,0,0,0,0,0,0,0,0,0,0,0,0,0,0,0,0,0,0,0,0,1.4639,1.4639,1.4639,1.458,1.458,1.4512,1.4512,1.4512,1.4512,1.4512,1.4512,1.4453,1.4453,1.4453,1.4512,1.4453,1.4453,1.4453,1.4453,1.4395,1.4395,1.4395,1.4395,1.4395,1.4395,1.4395,1.4453,1.4453,1.4395,1.4395,1.4395,1.4395,1.4326,1.4336,1.4336,1.4336,1.4336,1.4336,1.4336,1.4336,1.4336,1.4268,1.4268,1.4268,1.4268,1.4268,1.4268,1.4209,1.4209,1.4209,1.4209,1.415,1.415,1.415,1.415,1.415,1.4092,1.4092,1.4092,1.4092,1.4092,1.4092,1.4092,1.4033,1.4033,1.4033,1.4033,1.4033,1.4033,1.3975,1.3975,1.3975,1.3916,1.3975,1.3916,1.3916,1.3916,1.3926,1.3867,1.3867,1.3867,1.3867,1.3926,1.3867,1.3867,1.3867,1.3867,1.3809,1.3809,1.3809,1.375,1.375,1.375,1.375,1.3691,1.3691,1.3691,1.3691,1.3691,1.3691,1.3691,1.3643,1.3643,1.3643,1.3643,1.3643,1.3643,1.3643,1.3643,1.3643,1.3584,1.3584,1.3584,1.3584,1.3535,1.3477,1.3477,1.3477,1.3477,1.3477,1.3477,1.3428,1.3428,1.3477,1.3428,1.3428,1.3428,1.3369,1.3428,1.3369,1.3369,1.3369,1.332,1.332,1.332,1.332,1.3369,1.3369,1.332,1.332,1.3428,1.3369,1.332,1.332,1.332,1.3271,1.3271,1.3271,0,0,0,0,0,0,0,0,0,0,0,0,0,0,0,0,0,0,0,0,0,0,0,0,0,0,0,0,0,0,0,0
1.2412,1.2412,1.2412,1.2451,1.2451,1.2451,1.25,1.25,1.2549,1.2549,1.2598,1.2598,1.2637,1.2646,1.2646,1.2646,1.2686,1.2686,1.2734,1.2783,1.2783,1.2783,1.2832,1.2881,1.2881,1.2881,1.293,1.2988,1.2988,1.3037,1.3037,1.3086,1.3086,1.3086,1.3135,1.3135,1.3184,1.3135,1.3184,1.3242,1.3242,1.3242,1.3291,1.3291,1.3291,1.3291,1.335,1.335,1.335,1.3398,1.3447,1.3447,1.3447,1.3506,1.3506,1.3506,1.3564,1.3613,1.3613,1.3672,1.3672,1.3672,1.3672,1.373,1.373,1.373,1.3779,1.3779,1.3838,1.3838,1.3896,1.3896,1.3955,1.3955,1.3955,1.4014,1.4014,1.4072,1.4072,1.4131,1.4189,1.4248,1.4248,1.4248,1.4307,1.4307,0,1.4375,1.4434,1.4434,1.4434,1.4434,1.4434,1.4434,1.4434,1.1367,1.1367,1.1328,1.1328,1.1328,1.1328,1.1328,1.1328,1.1328,1.1289,1.1289,1.1289,1.1289,1.1289,1.126,1.1289,1.126,1.1289,1.1289,1.126,1.1289,1.1289,1.1289,1.1289,1.1328,1.1328,1.1328,1.1289,1.1289,1.1289,1.1289,1.1289,1.1328,1.1328,1.1328,1.1328,1.1328,1.1328,1.1328,1.1367,1.1367,1.1367,1.1367,1.1367,1.1367,1.1367,1.1406,1.1406,1.1406,1.1406,1.1406,1.1406,1.1406,1.1406,1.1406,1.1406,1.1406,1.1406,1.1406,1.1406,1.1406,1.1445,1.1445,1.1445,1.1445,1.1484,1.1484,1.1484,1.1523,1.1484,1.1484,1.1523,1.1523,1.1523,1.1484,1.1523,1.1484,1.1523,1.1523,1.1533,1.1533,1.1533,1.1533,1.1533,1.1572,1.1533,1.1533,1.1572,1.1572,1.1572,1.1572,1.1572,1.1572,1.1572,1.1572,1.1611,1.1611,1.165,1.165,1.165,1.165,1.1611,1.1611,1.1611,1.1611,1.1611,1.1611,1.1611,1.1611,1.165,1.165,1.165,1.1689,1.1689,1.1729,1.1729,1.1729,1.1729,1.1729,1.1729,1.1729,1.1729,1.1729,1.1729,1.1729,1.1729,1.1729,1.1729,1.1729,1.1729,1.1729,1.1729,1.1729,1.1729,1.1777,1.1777,1.1777,1.1777,1.1777,1.1777,1.1777,1.1777,1.1777,1.1777,1.1777,1.1777,1.1777,1.1816,1.1855,1.1816,1.1816,1.1855,1.1855,1.1895,1.1895,1.1855,1.1855,1.1895,1.1895,1.1895,1.1895,1.1943,1.1943,1.1943,1.1943,1.1943,1.1943,1.1943,1.1943,1.1943,1.1943,1.1943,1.1943,1.1943,1.1943,1.1943,1.1943,1.1943,1.1943,1.1943,1.1943,1.1943,1.1982,1.1982,1.1982,1.1982,1.1982,1.1982,1.1982,1.1982,1.1982,1.1982,1.1982,1.2031,1.2031,1.2031,1.2031,1.2031,1.2031,1.207,1.2031,1.2031,1.2031,1.207,1.207,1.207,1.207,1.207,1.207,1.207,1.2158,0,0,0,0,0,0,0,0,0,0,0,0,0,0,0,0,0,0,0,0,0,0,0,0,0,0,0,0,0,0,1.4639,1.4707,1.4639,1.4639,1.458,1.4512,1.4512,1.4512,1.4512,1.4512,1.4512,1.4453,1.4453,1.4512,1.4512,1.4453,1.4453,1.4453,1.4453,1.4395,1.4395,1.4395,1.4395,1.4395,1.4395,1.4395,1.4453,1.4453,1.4453,1.4453,1.4453,1.4395,1.4336,1.4395,1.4336,1.4395,1.4336,1.4336,1.4336,1.4336,1.4336,1.4336,1.4268,1.4268,1.4268,1.4268,1.4209,1.4209,1.4209,1.4209,1.415,1.415,1.415,1.4092,1.4092,1.4092,1.4092,1.4092,1.4092,1.4092,1.4092,1.4092,1.4092,1.4092,1.4092,1.4092,1.4033,1.4033,1.4033,1.4033,1.3975,1.4033,1.3975,1.3975,1.3926,1.3926,1.3867,1.3926,1.3867,1.3867,1.3867,1.3867,1.3926,1.3867,1.3867,1.3867,1.3867,1.3809,1.3809,1.3809,1.375,1.375,1.375,1.375,1.3701,1.3701,1.3701,1.3701,1.3701,1.3701,1.3701,1.3643,1.3643,1.3643,1.3643,1.3643,1.3643,1.3643,1.3643,1.3643,1.3584,1.3584,1.3584,1.3584,1.3535,1.3535,1.3477,1.3477,1.3477,1.3477,1.3477,1.3477,1.3428,1.3477,1.3428,1.3428,1.3428,1.3369,1.3428,1.3428,1.3369,1.3369,1.332,1.332,1.332,1.332,1.332,1.332,1.332,1.332,1.3428,1.3379,1.3379,1.332,1.3271,1.3271,1.3271,1.3271,0,0,0,0,0,0,0,0,0,0,0,0,0,0,0,0,0,0,0,0,0,0,0,0,0,0,0,0,0,0,0,0
1.2412,1.2412,1.2412,1.2412,1.2451,1.2451,1.25,1.25,1.2549,1.2549,1.2598,1.2598,1.2646,1.2646,1.2646,1.2646,1.2686,1.2686,1.2734,1.2783,1.2783,1.2783,1.2832,1.2881,1.2881,1.293,1.293,1.2988,1.3037,1.3037,1.3037,1.3086,1.3086,1.3086,1.3135,1.3135,1.3184,1.3184,1.3184,1.3242,1.3242,1.3242,1.3291,1.3291,1.335,1.335,1.335,1.335,1.335,1.3447,1.3457,1.3457,1.3457,1.3506,1.3506,1.3564,1.3564,1.3613,1.3672,1.3672,1.3672,1.3672,1.373,1.373,1.373,1.373,1.3779,1.3779,1.3838,1.3838,1.3896,1.3896,1.3955,1.3955,1.3955,1.3955,1.4014,1.4072,1.4072,1.4131,1.4189,1.4248,1.4248,1.4316,1.4316,1.4375,1.4375,1.4434,1.4434,1.4434,1.4434,1.4434,1.4434,1.4434,1.4434,1.4434,1.1367,1.1328,1.1328,1.1328,1.1328,1.1328,1.1328,1.1328,1.1328,1.1328,1.1328,1.1289,1.1289,1.1289,1.1289,1.1289,1.126,1.1289,1.126,1.1289,1.1289,1.1299,1.1328,1.1299,1.1328,1.1328,1.1299,1.1299,1.1299,1.1328,1.1299,1.1328,1.1299,1.1328,1.1328,1.1328,1.1328,1.1328,1.1367,1.1367,1.1367,1.1367,1.1367,1.1367,1.1367,1.1406,1.1406,1.1406,1.1406,1.1406,1.1406,1.1406,1.1406,1.1406,1.1406,1.1406,1.1406,1.1406,1.1406,1.1406,1.1445,1.1445,1.1445,1.1445,1.1445,1.1484,1.1484,1.1484,1.1484,1.1484,1.1484,1.1484,1.1533,1.1533,1.1533,1.1494,1.1533,1.1533,1.1533,1.1533,1.1533,1.1572,1.1572,1.1572,1.1572,1.1572,1.1572,1.1572,1.1572,1.1572,1.1572,1.1572,1.1572,1.1572,1.1611,1.1611,1.165,1.165,1.165,1.165,1.1611,1.1611,1.1611,1.1611,1.1611,1.1611,1.1611,1.165,1.165,1.165,1.165,1.1689,1.1689,1.1729,1.1729,1.1729,1.1729,1.1689,1.1729,1.1729,1.1729,1.1729,1.1729,1.1729,1.1729,1.1729,1.1729,1.1729,1.1729,1.1729,1.1729,1.1729,1.1729,1.1777,1.1777,1.1777,1.1777,1.1777,1.1777,1.1777,1.1777,1.1777,1.1777,1.1777,1.1777,1.1777,1.1777,1.1816,1.1777,1.1816,1.1855,1.1855,1.1855,1.1855,1.1855,1.1855,1.1895,1.1895,1.1943,1.1943,1.1943,1.1943,1.1943,1.1943,1.1943,1.1943,1.1943,1.1943,1.1943,1.1943,1.1943,1.1943,1.1943,1.1943,1.1943,1.1943,1.1943,1.1943,1.1943,1.1943,1.1982,1.1982,1.1982,1.1982,1.1982,1.1982,1.1982,1.1982,1.1982,1.1982,1.2031,1.2031,1.2031,1.2031,1.2031,1.2031,1.2031,1.2031,1.207,1.207,1.207,1.207,1.207,1.2119,1.2119,1.2119,1.207,1.2119,1.2119,1.2207,0,0,0,0,0,0,0,0,0,0,0,0,0,0,0,0,0,0,0,0,0,0,0,0,0,0,0,0,0,0,1.4707,1.4639,1.4639,1.4639,1.458,1.4512,1.4512,1.458,1.4512,1.4512,1.4512,1.4453,1.4512,1.4512,1.4453,1.4453,1.4453,1.4453,1.4453,1.4453,1.4453,1.4453,1.4395,1.4395,1.4395,1.4395,1.4453,1.4453,1.4453,1.4453,1.4453,1.4395,1.4395,1.4395,1.4336,1.4395,1.4336,1.4336,1.4336,1.4336,1.4336,1.4336,1.4268,1.4268,1.4277,1.4277,1.4277,1.4209,1.4209,1.4209,1.415,1.415,1.415,1.4092,1.4092,1.4092,1.4092,1.4092,1.4092,1.4092,1.4092,1.4092,1.4092,1.4092,1.4092,1.4092,1.4092,1.4033,1.4033,1.4033,1.3975,1.4033,1.3926,1.3975,1.3926,1.3926,1.3867,1.3926,1.3926,1.3926,1.3867,1.3867,1.3926,1.3926,1.3867,1.3867,1.3867,1.3809,1.3809,1.3809,1.375,1.375,1.375,1.375,1.375,1.375,1.375,1.375,1.3701,1.3701,1.3701,1.3643,1.3643,1.3643,1.3643,1.3643,1.3643,1.3643,1.3643,1.3643,1.3643,1.3584,1.3584,1.3584,1.3535,1.3535,1.3477,1.3477,1.3477,1.3477,1.3477,1.3477,1.3477,1.3477,1.3428,1.3428,1.3428,1.3428,1.3428,1.3428,1.3379,1.332,1.332,1.332,1.332,1.332,1.332,1.332,1.332,1.332,1.3428,1.3379,1.332,1.332,1.332,1.332,1.3271,1.332,0,0,0,0,0,0,0,0,0,0,0,0,0,0,0,0,0,0,0,0,0,0,0,0,0,0,0,0,0,0,0,0
1.2412,1.2412,1.2451,1.2451,1.2451,1.2451,1.25,1.25,1.2549,1.2549,1.2598,1.2598,1.2598,1.2646,1.2646,1.2686,1.2695,1.2734,1.2734,1.2783,1.2783,1.2783,1.2832,1.2881,1.2881,1.2881,1.2939,1.2988,1.3037,1.3037,1.3037,1.3086,1.3086,1.3086,1.3135,1.3135,1.3193,1.3193,1.3193,1.3242,1.3242,1.3242,1.3291,1.3291,1.335,1.335,1.335,1.3398,1.3398,1.3457,1.3457,1.3457,1.3457,1.3506,1.3506,1.3564,1.3564,1.3613,1.3672,1.3672,1.3672,1.373,1.373,1.373,1.373,1.3779,1.3779,1.3779,1.3789,1.3896,1.3896,1.3896,1.3955,1.3955,1.4014,1.4014,1.4014,1.4072,1.4131,1.4131,1.4248,1.4248,1.4248,1.4316,1.4375,1.4375,1.4375,1.4434,1.4434,1.4434,1.4434,1.4434,1.4434,1.4434,1.4434,1.4434,1.1367,1.1328,1.1328,1.1328,1.1328,1.1328,1.1328,1.1328,1.1289,1.1289,1.1289,1.1289,1.1289,1.1299,1.1299,1.126,1.126,1.1299,1.1299,1.1299,1.1299,1.1299,1.1328,1.1299,1.1328,1.1328,1.1299,1.1299,1.1299,1.1299,1.1328,1.1338,1.1299,1.1338,1.1338,1.1338,1.1338,1.1338,1.1367,1.1367,1.1406,1.1367,1.1406,1.1367,1.1367,1.1406,1.1406,1.1406,1.1406,1.1406,1.1406,1.1406,1.1406,1.1406,1.1406,1.1406,1.1406,1.1406,1.1406,1.1406,1.1445,1.1445,1.1445,1.1445,1.1445,1.1484,1.1484,1.1494,1.1494,1.1494,1.1494,1.1533,1.1533,1.1494,1.1533,1.1533,1.1533,1.1533,1.1533,1.1533,1.1533,1.1533,1.1572,1.1572,1.1533,1.1533,1.1533,1.1572,1.1572,1.1572,1.1572,1.1572,1.1572,1.1611,1.1611,1.1611,1.165,1.165,1.165,1.165,1.165,1.165,1.165,1.165,1.1611,1.1611,1.1611,1.165,1.165,1.165,1.165,1.1689,1.1689,1.1729,1.1729,1.1729,1.1729,1.1689,1.1729,1.1729,1.1729,1.1729,1.1729,1.1729,1.1729,1.1777,1.1777,1.1729,1.1729,1.1729,1.1729,1.1729,1.1729,1.1777,1.1777,1.1777,1.1777,1.1777,1.1777,1.1777,1.1777,1.1777,1.1777,1.1777,1.1777,1.1777,1.1777,1.1816,1.1777,1.1816,1.1855,1.1855,1.1855,1.1855,1.1855,1.1855,1.1904,1.1904,1.1904,1.1904,1.1943,1.1904,1.1943,1.1943,1.1943,1.1943,1.1943,1.1943,1.1943,1.1943,1.1943,1.1943,1.1943,1.1943,1.1943,1.1943,1.1943,1.1943,1.1943,1.1943,1.1982,1.1982,1.1982,1.1982,1.1982,1.1982,1.1982,1.1982,1.1982,1.1982,1.2031,1.2031,1.2031,1.2031,1.2031,1.2031,1.207,1.207,1.207,1.207,1.207,1.207,1.207,1.207,1.2119,1.2119,1.2119,1.2119,1.2119,1.2158,0,0,0,0,0,0,0,0,0,0,0,0,0,0,0,0,0,0,0,0,0,0,0,0,0,0,0,0,0,1.4707,1.4707,1.4639,1.4707,1.4639,1.458,1.458,1.4512,1.458,1.4512,1.4512,1.4453,1.4512,1.4521,1.4521,1.4453,1.4453,1.4453,1.4453,1.4453,1.4453,1.4453,1.4453,1.4395,1.4453,1.4395,1.4453,1.4453,1.4453,1.4453,1.4453,1.4395,1.4395,1.4395,1.4395,1.4336,1.4336,1.4336,1.4336,1.4336,1.4336,1.4336,1.4336,1.4277,1.4277,1.4277,1.4277,1.4277,1.4209,1.4209,1.4209,1.4209,1.415,1.415,1.415,1.4092,1.4092,1.4092,1.4092,1.4092,1.4092,1.4092,1.4092,1.4092,1.4092,1.4092,1.4092,1.4092,1.4033,1.4033,1.4033,1.3984,1.3926,1.3926,1.3926,1.3926,1.3926,1.3867,1.3926,1.3926,1.3867,1.3926,1.3867,1.3926,1.3926,1.3926,1.3867,1.3867,1.3809,1.3809,1.375,1.375,1.375,1.375,1.375,1.375,1.3701,1.3701,1.3701,1.3701,1.3701,1.3701,1.3701,1.3643,1.3643,1.3643,1.3643,1.3643,1.3643,1.3643,1.3584,1.3643,1.3584,1.3584,1.3584,1.3535,1.3535,1.3477,1.3477,1.3477,1.3477,1.3477,1.3477,1.3477,1.3477,1.3477,1.3428,1.3428,1.3428,1.3428,1.3379,1.3379,1.332,1.332,1.332,1.332,1.3379,1.332,1.332,1.332,1.3379,1.3428,1.3428,1.3428,1.332,1.332,1.332,1.3271,1.3271,0,0,0,0,0,0,0,0,0,0,0,0,0,0,0,0,0,0,0,0,0,0,0,0,0,0,0,0,0,0,0,0
1.2412,1.2412,1.2451,1.2451,1.2451,1.2451,1.25,1.25,1.2549,1.2598,1.2598,1.2598,1.2598,1.2646,1.2646,1.2695,1.2734,1.2734,1.2783,1.2783,1.2783,1.2783,1.2881,1.2881,1.2881,1.2939,1.2939,1.2988,1.3037,1.3037,1.3037,1.3086,1.3086,1.3086,1.3086,1.3135,1.3135,1.3193,1.3193,1.3242,1.3242,1.3291,1.3291,1.3291,1.335,1.335,1.335,1.3398,1.3398,1.3457,1.3457,1.3457,1.3457,1.3457,1.3506,1.3506,1.3564,1.3613,1.3672,1.3672,1.3672,1.3672,1.373,1.373,1.373,1.373,1.3789,1.3789,1.3838,1.3896,1.3896,1.3955,1.3955,1.3955,1.4014,1.4072,1.4072,1.4072,1.4131,1.4131,1.4248,1.4248,1.4248,1.4316,1.4316,1.4316,1.4375,1.4316,1.4434,1.4434,1.4434,1.4434,1.4434,1.4434,1.4434,1.4434,1.4434,1.1367,0,1.1367,1.1328,1.1328,1.1328,1.1328,1.1328,1.1328,1.1328,1.1328,1.1299,1.1299,1.1299,1.126,1.1299,1.1299,1.1299,1.1299,1.1328,1.1299,1.1328,1.1299,1.1299,1.1338,1.1299,1.1299,1.1299,1.1299,1.1299,1.1338,1.1338,1.1338,1.1338,1.1338,1.1338,1.1338,1.1406,1.1406,1.1377,1.1377,1.1406,1.1406,1.1406,1.1406,1.1406,1.1406,1.1406,1.1406,1.1406,1.1406,1.1406,1.1406,1.1416,1.1416,1.1416,1.1416,1.1416,1.1416,1.1455,1.1455,1.1455,1.1455,1.1455,1.1494,1.1494,1.1494,1.1494,1.1494,1.1533,1.1533,1.1533,1.1533,1.1533,1.1533,1.1533,1.1533,1.1533,1.1533,1.1533,1.1533,1.1533,1.1533,1.1533,1.1533,1.1533,1.1572,1.1572,1.1572,1.1572,1.1572,1.1572,1.1611,1.1611,1.1611,1.1611,1.1611,1.1611,1.165,1.1611,1.165,1.165,1.165,1.165,1.165,1.165,1.165,1.1689,1.165,1.165,1.1689,1.1689,1.1729,1.1729,1.1689,1.1729,1.1689,1.1729,1.1729,1.1729,1.1729,1.1729,1.1729,1.1729,1.1777,1.1777,1.1738,1.1738,1.1738,1.1738,1.1738,1.1738,1.1777,1.1777,1.1777,1.1777,1.1777,1.1777,1.1777,1.1777,1.1777,1.1777,1.1777,1.1777,1.1777,1.1777,1.1816,1.1777,1.1816,1.1855,1.1855,1.1855,1.1855,1.1855,1.1855,1.1904,1.1904,1.1904,1.1943,1.1943,1.1943,1.1943,1.1943,1.1943,1.1943,1.1943,1.1943,1.1943,1.1943,1.1943,1.1943,1.1943,1.1943,1.1943,1.1943,1.1943,1.1943,1.1943,1.1982,1.1982,1.1982,1.1982,1.1982,1.1982,1.1982,1.2031,1.1982,1.1982,1.1982,1.1982,1.1982,1.2031,1.2031,1.2031,1.2031,1.2031,1.207,1.207,1.207,1.207,1.207,1.207,1.207,1.207,1.2119,1.207,1.2119,1.2119,1.2158,0,0,0,0,0,0,0,0,0,0,0,0,0,0,0,0,0,0,0,0,0,0,0,0,0,0,0,0,0,1.4707,1.4707,1.4639,1.4707,1.4639,1.458,1.458,1.4521,1.458,1.4521,1.4521,1.4453,1.4453,1.4521,1.4521,1.4453,1.4453,1.4453,1.4453,1.4453,1.4453,1.4453,1.4453,1.4453,1.4453,1.4395,1.4453,1.4453,1.4453,1.4453,1.4453,1.4453,1.4395,1.4395,1.4395,1.4336,1.4336,1.4336,1.4336,1.4336,1.4336,1.4336,1.4336,1.4277,1.4277,1.4277,1.4277,1.4277,1.4277,1.4277,1.4219,1.4219,1.415,1.415,1.415,1.415,1.415,1.4092,1.4092,1.4092,1.4092,1.4092,1.4092,1.4092,1.4092,1.4092,1.4092,1.4092,1.4102,1.4102,1.4043,1.3984,1.3926,1.3926,1.3926,1.3926,1.3926,1.3867,1.3926,1.3867,1.3926,1.3926,1.3867,1.3926,1.3926,1.3926,1.3867,1.3867,1.3809,1.3809,1.375,1.375,1.375,1.375,1.375,1.375,1.3701,1.375,1.3701,1.3701,1.3701,1.3701,1.3701,1.3701,1.3643,1.3643,1.3643,1.3643,1.3643,1.3643,1.3594,1.3594,1.3594,1.3594,1.3594,1.3535,1.3535,1.3477,1.3477,1.3477,1.3477,1.3477,1.3477,1.3486,1.3486,1.3486,1.3428,1.3428,1.3428,1.3428,1.3428,1.3379,1.3379,1.332,1.332,1.332,1.332,1.332,1.3379,1.332,1.332,1.3428,1.3428,1.3428,1.332,1.332,1.3271,1.3271,1.3271,0,0,0,0,0,0,0,0,0,0,0,0,0,0,0,0,0,0,0,0,0,0,0,0,0,0,0,0,0,0,0,0
1.2412,1.2461,1.2461,1.2461,1.2461,1.2461,1.25,1.25,1.2549,1.2549,1.2598,1.2598,1.2598,1.2646,1.2646,1.2695,1.2695,1.2744,1.2783,1.2783,1.2793,1.2793,1.2891,1.2891,1.2891,1.2939,1.2939,1.2988,1.3037,1.3037,1.3037,1.3086,1.3086,1.3086,1.3135,1.3135,1.3193,1.3193,1.3242,1.3242,1.3291,1.3291,1.3291,1.3291,1.335,1.335,1.3398,1.3398,1.3398,1.3457,1.3457,1.3457,1.3457,1.3506,1.3506,1.3564,1.3613,1.3672,1.3672,1.3672,1.373,1.373,1.373,1.373,1.373,1.3789,1.3789,1.3789,1.3896,1.3896,1.3896,1.3955,1.3955,1.3955,1.4072,1.4072,1.4072,1.4072,1.4131,1.4131,1.4248,1.4248,1.4248,1.4316,1.4375,1.4375,1.4375,1.4375,1.4375,1.4434,1.4434,1.4502,1.4434,1.4434,1.4434,1.4502,1.4502,0,0,1.1328,1.1328,1.1328,1.1328,1.1328,1.1328,1.1328,1.1328,1.1328,1.1299,1.1299,1.1299,1.1299,1.1299,1.1299,1.1299,1.1299,1.1299,1.1338,1.1338,1.1299,1.1299,1.1338,1.1299,1.1338,1.1338,1.1299,1.1338,1.1338,1.1338,1.1338,1.1338,1.1338,1.1338,1.1377,1.1406,1.1406,1.1377,1.1377,1.1416,1.1416,1.1377,1.1416,1.1377,1.1416,1.1416,1.1416,1.1416,1.1416,1.1416,1.1416,1.1416,1.1416,1.1416,1.1416,1.1416,1.1416,1.1416,1.1416,1.1455,1.1455,1.1455,1.1494,1.1494,1.1494,1.1494,1.1533,1.1533,1.1533,1.1533,1.1533,1.1533,1.1533,1.1533,1.1533,1.1533,1.1533,1.1533,1.1533,1.1572,1.1533,1.1533,1.1533,1.1572,1.1572,1.1572,1.1572,1.1572,1.1572,1.1572,1.1611,1.1611,1.1611,1.1611,1.1611,1.1611,1.165,1.1611,1.165,1.165,1.165,1.165,1.165,1.165,1.165,1.165,1.165,1.165,1.1689,1.1689,1.1689,1.1729,1.1689,1.1689,1.1729,1.1729,1.1729,1.1729,1.1738,1.1738,1.1738,1.1738,1.1777,1.1738,1.1738,1.1738,1.1738,1.1738,1.1777,1.1777,1.1777,1.1777,1.1777,1.1777,1.1777,1.1777,1.1777,1.1777,1.1777,1.1777,1.1777,1.1777,1.1777,1.1777,1.1777,1.1777,1.1816,1.1855,1.1855,1.1855,1.1855,1.1855,1.1904,1.1904,1.1904,1.1904,1.1943,1.1943,1.1943,1.1943,1.1943,1.1943,1.1943,1.1943,1.1943,1.1943,1.1943,1.1943,1.1943,1.1943,1.1943,1.1943,1.1943,1.1982,1.1982,1.1943,1.1943,1.1982,1.1982,1.1982,1.1982,1.1982,1.1982,1.2031,1.2031,1.1992,1.1992,1.1992,1.1992,1.2031,1.2031,1.207,1.2031,1.207,1.207,1.207,1.207,1.207,1.207,1.207,1.207,1.207,1.2119,1.207,1.2119,1.207,0,0,0,0,0,0,0,0,0,0,0,0,0,0,0,0,0,0,0,0,0,0,0,0,0,0,0,0,0,0,1.4707,1.4707,1.4707,1.4707,1.4639,1.4639,1.458,1.4521,1.458,1.4521,1.4521,1.4521,1.4521,1.4521,1.4521,1.4453,1.4453,1.4453,1.4453,1.4453,1.4453,1.4453,1.4453,1.4453,1.4453,1.4453,1.4395,1.4453,1.4453,1.4453,1.4395,1.4395,1.4395,1.4336,1.4336,1.4336,1.4336,1.4336,1.4336,1.4336,1.4336,1.4336,1.4336,1.4277,1.4336,1.4277,1.4277,1.4277,1.4277,1.4277,1.4277,1.4219,1.4219,1.415,1.416,1.416,1.416,1.4092,1.4092,1.4092,1.4102,1.4102,1.4102,1.4102,1.4102,1.4102,1.4102,1.4102,1.4102,1.4102,1.4043,1.4043,1.3984,1.3926,1.3926,1.3926,1.3926,1.3867,1.3867,1.3867,1.3867,1.3867,1.3867,1.3926,1.3926,1.3926,1.3926,1.3867,1.3867,1.3809,1.3809,1.375,1.375,1.375,1.375,1.376,1.3701,1.3701,1.3701,1.3701,1.3701,1.3701,1.3701,1.3701,1.3701,1.3643,1.3643,1.3643,1.3643,1.3594,1.3594,1.3594,1.3594,1.3594,1.3594,1.3594,1.3535,1.3535,1.3486,1.3535,1.3535,1.3486,1.3486,1.3486,1.3486,1.3486,1.3428,1.3428,1.3428,1.3428,1.3428,1.3428,1.3428,1.3379,1.332,1.332,1.332,1.3379,1.3428,1.3428,1.3486,1.3486,1.3486,1.3486,1.332,1.332,1.332,1.3271,1.332,0,0,0,0,0,0,0,0,0,0,0,0,0,0,0,0,0,0,0,0,0,0,0,0,0,0,0,0,0,0,0,0
1.2461,1.2461,1.2461,1.2461,1.2461,1.25,1.25,1.2549,1.2598,1.2598,1.2598,1.2598,1.2598,1.2646,1.2646,1.2695,1.2744,1.2744,1.2793,1.2793,1.2793,1.2793,1.2891,1.2891,1.2891,1.2939,1.2939,1.2988,1.3037,1.3037,1.3037,1.3086,1.3086,1.3135,1.3135,1.3193,1.3193,1.3193,1.3242,1.3242,1.3291,1.3291,1.3291,1.335,1.335,1.3398,1.3398,1.3398,1.3457,1.3457,1.3457,1.3457,1.3457,1.3506,1.3506,1.3564,1.3613,1.3672,1.3672,1.3672,1.373,1.373,1.373,1.373,1.373,1.3789,1.3838,1.3838,1.3896,1.3896,1.3896,1.3955,1.3955,1.3955,1.4072,1.4072,1.4072,1.4131,1.4131,1.4131,1.4258,1.4258,1.4258,1.4316,1.4375,1.4375,1.4375,1.4375,1.4434,1.4434,1.4434,1.4434,1.4434,1.4434,1.4434,1.4434,0,0,0,1.1328,1.1367,1.1328,1.1328,1.1328,1.1328,1.1338,1.1338,1.1338,1.1299,1.1299,1.1299,1.1299,1.1299,1.1299,1.1299,1.1299,1.1299,1.1338,1.1338,1.1338,1.1299,1.1299,1.1299,1.1338,1.1338,1.1299,1.1338,1.1338,1.1338,1.1338,1.1338,1.1338,1.1338,1.1338,1.1416,1.1416,1.1416,1.1416,1.1416,1.1416,1.1416,1.1416,1.1416,1.1416,1.1416,1.1416,1.1416,1.1416,1.1416,1.1416,1.1455,1.1416,1.1416,1.1416,1.1416,1.1416,1.1416,1.1416,1.1416,1.1455,1.1455,1.1494,1.1494,1.1494,1.1494,1.1533,1.1533,1.1533,1.1533,1.1533,1.1533,1.1533,1.1533,1.1533,1.1533,1.1533,1.1533,1.1533,1.1572,1.1533,1.1533,1.1533,1.1572,1.1572,1.1572,1.1572,1.1572,1.1572,1.1572,1.1611,1.1611,1.1611,1.1611,1.1611,1.1611,1.1611,1.1611,1.1611,1.165,1.165,1.165,1.165,1.165,1.165,1.165,1.165,1.165,1.1689,1.1689,1.1738,1.1738,1.1738,1.1738,1.1738,1.1738,1.1738,1.1738,1.1738,1.1738,1.1738,1.1738,1.1777,1.1738,1.1738,1.1777,1.1777,1.1738,1.1777,1.1777,1.1777,1.1777,1.1777,1.1777,1.1777,1.1777,1.1777,1.1777,1.1777,1.1777,1.1777,1.1777,1.1777,1.1816,1.1816,1.1816,1.1816,1.1855,1.1855,1.1855,1.1855,1.1855,1.1904,1.1855,1.1904,1.1904,1.1943,1.1943,1.1943,1.1943,1.1943,1.1943,1.1943,1.1943,1.1943,1.1943,1.1943,1.1943,1.1943,1.1982,1.1943,1.1982,1.1982,1.1982,1.1982,1.1943,1.1943,1.1992,1.1992,1.1992,1.1992,1.1992,1.1992,1.1992,1.2031,1.2031,1.2031,1.2031,1.1992,1.2031,1.2031,1.207,1.2031,1.207,1.2031,1.207,1.207,1.207,1.207,1.207,1.207,1.207,1.2119,1.207,1.2119,1.207,0,0,0,0,0,0,0,0,0,0,0,0,0,0,0,0,0,0,0,0,0,0,0,0,0,0,0,0,0,0,1.4707,1.4707,1.4639,1.4648,1.4648,1.4648,1.458,1.4521,1.4521,1.4521,1.4521,1.4521,1.4521,1.4521,1.4521,1.4521,1.4521,1.4453,1.4521,1.4453,1.4453,1.4453,1.4453,1.4453,1.4453,1.4453,1.4453,1.4453,1.4521,1.4453,1.4395,1.4395,1.4395,1.4395,1.4395,1.4336,1.4336,1.4336,1.4336,1.4336,1.4336,1.4336,1.4336,1.4277,1.4277,1.4277,1.4277,1.4277,1.4277,1.4277,1.4277,1.4219,1.4219,1.4219,1.416,1.416,1.416,1.4102,1.4102,1.4102,1.4102,1.4102,1.4102,1.4102,1.4102,1.4102,1.4102,1.4102,1.4102,1.4102,1.4043,1.4043,1.4043,1.3984,1.3926,1.3926,1.3926,1.3867,1.3926,1.3867,1.3867,1.3867,1.3867,1.3926,1.3926,1.3926,1.3926,1.3926,1.3867,1.3867,1.3809,1.3809,1.3809,1.376,1.376,1.376,1.376,1.376,1.376,1.3701,1.3701,1.3701,1.3701,1.3701,1.3701,1.3643,1.3643,1.3643,1.3643,1.3594,1.3594,1.3594,1.3594,1.3643,1.3594,1.3594,1.3643,1.3594,1.3594,1.3594,1.3535,1.3486,1.3486,1.3486,1.3486,1.3486,1.3486,1.3486,1.3486,1.3428,1.3428,1.3428,1.3428,1.3428,1.3379,1.3379,1.3379,1.3428,1.3428,1.3428,1.3428,1.3486,1.3486,1.3486,1.332,1.332,1.332,1.332,1.332,0,0,0,0,0,0,0,0,0,0,0,0,0,0,0,0,0,0,0,0,0,0,0,0,0,0,0,0,0,0,0,0
1.2412,1.2461,1.2461,1.2461,1.2461,1.25,1.25,1.2549,1.2598,1.2598,1.2598,1.2598,1.2646,1.2646,1.2646,1.2695,1.2744,1.2793,1.2793,1.2793,1.2793,1.2842,1.2891,1.2891,1.2891,1.2939,1.2939,1.2988,1.3037,1.3037,1.3037,1.3086,1.3135,1.3135,1.3193,1.3193,1.3193,1.3242,1.3242,1.3242,1.3291,1.3291,1.3291,1.335,1.3398,1.3398,1.3398,1.3457,1.3457,1.3457,1.3457,1.3457,1.3506,1.3506,1.3506,1.3564,1.3623,1.3672,1.3672,1.3672,1.373,1.373,1.373,1.3789,1.3789,1.3848,1.3848,1.3848,1.3896,1.3896,1.3896,1.3955,1.3955,1.4014,1.4072,1.4072,1.4072,1.4131,1.4131,1.4131,1.4258,1.4258,1.4316,1.4375,1.4375,1.4375,1.4434,1.4434,1.4434,1.4434,1.4434,1.4434,1.4434,1.4434,1.4434,1.4434,0,0,0,0,1.1338,1.1338,1.1338,1.1338,1.1338,1.1338,1.1338,1.1338,1.1299,1.1299,1.126,1.1299,1.1299,1.1299,1.1299,1.1299,1.1299,1.1338,1.1338,1.1338,1.1299,1.1299,1.1299,1.1338,1.1338,1.1338,1.1338,1.1338,1.1338,1.1338,1.1338,1.1338,1.1338,1.1338,1.1416,1.1416,1.1416,1.1416,1.1416,1.1416,1.1416,1.1416,1.1416,1.1416,1.1416,1.1416,1.1416,1.1416,1.1416,1.1416,1.1416,1.1416,1.1416,1.1455,1.1455,1.1416,1.1416,1.1455,1.1455,1.1455,1.1494,1.1494,1.1494,1.1494,1.1494,1.1533,1.1533,1.1533,1.1533,1.1533,1.1533,1.1533,1.1533,1.1533,1.1533,1.1533,1.1533,1.1533,1.1572,1.1572,1.1572,1.1572,1.1572,1.1572,1.1572,1.1572,1.1572,1.1572,1.1572,1.1611,1.1611,1.1611,1.1611,1.1611,1.1611,1.165,1.1611,1.1611,1.165,1.165,1.165,1.165,1.165,1.165,1.1689,1.165,1.1689,1.1689,1.1689,1.1689,1.1738,1.1689,1.1689,1.1738,1.1738,1.1738,1.1738,1.1738,1.1738,1.1738,1.1777,1.1777,1.1738,1.1738,1.1777,1.1777,1.1738,1.1777,1.1777,1.1777,1.1777,1.1777,1.1777,1.1777,1.1777,1.1777,1.1777,1.1777,1.1777,1.1777,1.1777,1.1777,1.1816,1.1816,1.1816,1.1816,1.1855,1.1855,1.1855,1.1855,1.1904,1.1904,1.1904,1.1904,1.1904,1.1943,1.1943,1.1943,1.1943,1.1982,1.1943,1.1943,1.1943,1.1943,1.1943,1.1943,1.1943,1.1982,1.1992,1.1992,1.1992,1.1992,1.1992,1.1992,1.1943,1.1943,1.1943,1.1943,1.1943,1.1992,1.1992,1.1992,1.1992,1.1992,1.2031,1.2031,1.2031,1.2031,1.2031,1.207,1.207,1.207,1.207,1.207,1.207,1.2119,1.207,1.207,1.207,1.208,1.208,1.208,1.208,1.2119,1.208,1.2119,0,0,0,0,0,0,0,0,0,0,0,0,0,0,0,0,0,0,0,0,0,0,0,0,0,0,0,0,0,1.4707,1.4707,1.4648,1.4707,1.4648,1.4648,1.458,1.458,1.458,1.4521,1.4521,1.4521,1.4521,1.4521,1.4521,1.4521,1.4521,1.4521,1.4521,1.4521,1.4453,1.4453,1.4453,1.4453,1.4453,1.4453,1.4453,1.4521,1.4521,1.4463,1.4395,1.4463,1.4395,1.4395,1.4336,1.4336,1.4336,1.4336,1.4336,1.4336,1.4336,1.4336,1.4336,1.4336,1.4336,1.4277,1.4277,1.4277,1.4277,1.4277,1.4277,1.4219,1.4219,1.4219,1.416,1.416,1.416,1.4102,1.4102,1.4102,1.4102,1.4102,1.4102,1.4102,1.4102,1.4102,1.4102,1.4102,1.4102,1.4043,1.4043,1.4043,1.3984,1.3984,1.3926,1.3926,1.3926,1.3867,1.3867,1.3867,1.3867,1.3867,1.3867,1.3926,1.3926,1.3926,1.3926,1.3926,1.3867,1.3867,1.3809,1.3809,1.3809,1.3809,1.3809,1.376,1.376,1.376,1.376,1.3701,1.3701,1.3701,1.3701,1.3701,1.3701,1.3643,1.3643,1.3643,1.3643,1.3594,1.3594,1.3643,1.3643,1.3643,1.3594,1.3594,1.3594,1.3594,1.3643,1.3594,1.3535,1.3486,1.3486,1.3486,1.3486,1.3486,1.3486,1.3486,1.3486,1.3486,1.3428,1.3428,1.3428,1.3428,1.3428,1.3428,1.3379,1.3428,1.3428,1.3379,1.3486,1.3486,1.3486,1.3486,1.333,1.333,1.333,1.333,1.333,0,0,0,0,0,0,0,0,0,0,0,0,0,0,0,0,0,0,0,0,0,0,0,0,0,0,0,0,0,0,0,0
1.2412,1.2412,1.2461,1.2461,1.2461,1.25,1.25,1.2549,1.2598,1.2598,1.2598,1.2598,1.2646,1.2646,1.2695,1.2744,1.2793,1.2793,1.2793,1.2793,1.2793,1.2842,1.2891,1.2891,1.2939,1.2939,1.2988,1.3037,1.3037,1.3037,1.3037,1.3086,1.3135,1.3135,1.3193,1.3193,1.3193,1.3242,1.3242,1.3291,1.3291,1.3291,1.3291,1.335,1.3398,1.3457,1.3457,1.3457,1.3457,1.3506,1.3506,1.3506,1.3506,1.3506,1.3564,1.3564,1.3623,1.3672,1.3672,1.373,1.373,1.373,1.373,1.3789,1.3789,1.3848,1.3848,1.3896,1.3896,1.3955,1.3955,1.3955,1.3955,1.3955,1.4014,1.4072,1.4072,1.4131,1.4131,1.4131,1.4258,1.4258,1.4316,1.4375,1.4375,1.4375,1.4434,1.4434,1.4434,1.4434,1.4434,1.4434,1.4434,1.4443,1.4502,1.4443,0,1.1406,0,1.1367,1.1367,1.1338,1.1338,1.1338,1.1338,1.1338,1.1338,1.1338,1.1299,1.1299,1.126,1.126,1.1299,1.1299,1.1299,1.1299,1.1299,1.1338,1.1338,1.1338,1.1338,1.1299,1.1338,1.1338,1.1338,1.1338,1.1338,1.1338,1.1338,1.1338,1.1338,1.1338,1.1338,1.1338,1.1416,1.1416,1.1416,1.1416,1.1416,1.1416,1.1416,1.1416,1.1416,1.1416,1.1416,1.1416,1.1416,1.1416,1.1455,1.1455,1.1416,1.1416,1.1416,1.1416,1.1455,1.1455,1.1455,1.1455,1.1455,1.1494,1.1494,1.1494,1.1533,1.1533,1.1533,1.1533,1.1533,1.1533,1.1533,1.1533,1.1533,1.1533,1.1533,1.1533,1.1533,1.1533,1.1533,1.1533,1.1572,1.1572,1.1533,1.1572,1.1572,1.1572,1.1572,1.1572,1.1572,1.1572,1.1572,1.1611,1.1611,1.1611,1.1611,1.1611,1.1611,1.1611,1.1611,1.1611,1.165,1.165,1.165,1.165,1.165,1.165,1.1689,1.165,1.165,1.1689,1.1689,1.1689,1.1738,1.1689,1.1689,1.1738,1.1738,1.1738,1.1738,1.1738,1.1738,1.1738,1.1777,1.1777,1.1777,1.1777,1.1777,1.1777,1.1738,1.1777,1.1777,1.1777,1.1777,1.1777,1.1777,1.1777,1.1777,1.1777,1.1777,1.1777,1.1777,1.1816,1.1777,1.1816,1.1816,1.1816,1.1816,1.1816,1.1865,1.1865,1.1865,1.1865,1.1865,1.1865,1.1865,1.1904,1.1904,1.1943,1.1943,1.1943,1.1943,1.1982,1.1992,1.1943,1.1943,1.1943,1.1943,1.1943,1.1943,1.1943,1.1943,1.1943,1.1992,1.1992,1.1992,1.1992,1.1943,1.1943,1.1943,1.1943,1.1943,1.1992,1.1992,1.1992,1.1943,1.1992,1.2031,1.2031,1.2031,1.2031,1.2031,1.207,1.207,1.207,1.207,1.208,1.208,1.2119,1.208,1.208,1.208,1.208,1.208,1.208,1.208,1.208,1.208,0,0,0,0,0,0,0,0,0,0,0,0,0,0,0,0,0,0,0,0,0,0,0,0,0,0,0,0,0,0,1.4707,1.4707,1.4648,1.4707,1.4648,1.4648,1.458,1.458,1.458,1.458,1.458,1.4521,1.4521,1.4521,1.4521,1.4521,1.4521,1.4521,1.4521,1.4521,1.4521,1.4463,1.4463,1.4463,1.4463,1.4463,1.4463,1.4521,1.4521,1.4463,1.4463,1.4395,1.4395,1.4395,1.4336,1.4336,1.4336,1.4336,1.4336,1.4336,1.4336,1.4336,1.4336,1.4336,1.4336,1.4277,1.4277,1.4277,1.4277,1.4277,1.4277,1.4277,1.4277,1.4219,1.4219,1.416,1.416,1.4102,1.4102,1.4102,1.4102,1.4102,1.4102,1.4102,1.4102,1.4102,1.4102,1.4102,1.4102,1.4043,1.4043,1.4043,1.3984,1.3984,1.3926,1.3926,1.3867,1.3867,1.3867,1.3867,1.3867,1.3867,1.3867,1.3926,1.3926,1.3926,1.3926,1.3926,1.3926,1.3867,1.3867,1.3867,1.3867,1.3809,1.3809,1.376,1.376,1.376,1.376,1.3701,1.3701,1.3701,1.3701,1.3701,1.3701,1.3701,1.3701,1.3643,1.3643,1.3594,1.3594,1.3643,1.3643,1.3643,1.3594,1.3594,1.3594,1.3594,1.3594,1.3594,1.3535,1.3535,1.3535,1.3486,1.3486,1.3486,1.3486,1.3486,1.3486,1.3486,1.3428,1.3428,1.3428,1.3428,1.3428,1.3379,1.3379,1.3428,1.3428,1.3379,1.3428,1.3486,1.3428,1.333,1.333,1.333,1.333,1.333,1.333,0,0,0,0,0,0,0,0,0,0,0,0,0,0,0,0,0,0,0,0,0,0,0,0,0,0,0,0,0,0,0,0
1.2412,1.2412,1.2412,1.2461,1.2461,1.251,1.2549,1.2549,1.2598,1.2598,1.2646,1.2646,1.2646,1.2646,1.2695,1.2744,1.2793,1.2793,1.2793,1.2793,1.2793,1.2842,1.2891,1.2891,1.2939,1.2939,1.2988,1.3037,1.3037,1.3037,1.3086,1.3086,1.3145,1.3145,1.3193,1.3193,1.3242,1.3242,1.3242,1.3301,1.3301,1.3301,1.335,1.335,1.3398,1.3457,1.3457,1.3457,1.3457,1.3506,1.3506,1.3506,1.3506,1.3564,1.3564,1.3623,1.3623,1.3672,1.373,1.373,1.373,1.373,1.3789,1.3789,1.3789,1.3848,1.3848,1.3896,1.3896,1.3955,1.3955,1.4014,1.3955,1.4014,1.4072,1.4131,1.4072,1.4131,1.4131,1.4131,1.4258,1.4258,1.4316,1.4375,1.4375,1.4375,1.4443,1.4443,1.4443,1.4502,1.4502,1.4502,1.4502,1.4502,1.4502,1.4502,1.4443,0,1.1377,1.1338,1.1338,1.1338,1.1338,1.1338,1.1338,1.1338,1.1299,1.1299,1.1299,1.126,1.126,1.126,1.1299,1.1299,1.1299,1.1299,1.1299,1.1338,1.1338,1.1338,1.1338,1.1338,1.1338,1.1338,1.1338,1.1338,1.1338,1.1338,1.1338,1.1338,1.1338,1.1338,1.1338,1.1338,1.1416,1.1416,1.1416,1.1416,1.1416,1.1416,1.1416,1.1416,1.1416,1.1416,1.1416,1.1416,1.1416,1.1416,1.1455,1.1455,1.1455,1.1416,1.1416,1.1416,1.1455,1.1455,1.1455,1.1455,1.1455,1.1494,1.1494,1.1533,1.1533,1.1533,1.1533,1.1533,1.1533,1.1533,1.1533,1.1533,1.1533,1.1533,1.1533,1.1533,1.1533,1.1533,1.1533,1.1533,1.1572,1.1572,1.1572,1.1572,1.1572,1.1572,1.1572,1.1572,1.1572,1.1572,1.1572,1.1611,1.1611,1.1611,1.1611,1.1611,1.1611,1.1611,1.1611,1.1611,1.165,1.165,1.165,1.165,1.165,1.1689,1.1689,1.1689,1.1689,1.1689,1.1689,1.1689,1.1689,1.1689,1.1699,1.1699,1.1738,1.1738,1.1738,1.1738,1.1738,1.1738,1.1738,1.1777,1.1777,1.1777,1.1777,1.1777,1.1738,1.1738,1.1777,1.1777,1.1777,1.1777,1.1777,1.1777,1.1777,1.1777,1.1777,1.1777,1.1777,1.1816,1.1816,1.1816,1.1816,1.1816,1.1865,1.1865,1.1865,1.1865,1.1865,1.1865,1.1865,1.1904,1.1865,1.1904,1.1943,1.1943,1.1943,1.1943,1.1992,1.1992,1.1943,1.1943,1.1943,1.1943,1.1943,1.1943,1.1943,1.1943,1.1992,1.1992,1.1992,1.1992,1.1992,1.1992,1.1943,1.1943,1.1943,1.1943,1.1943,1.1992,1.1992,1.1992,1.1992,1.2031,1.2031,1.2031,1.2031,1.2031,1.2031,1.2031,1.208,1.208,1.208,1.208,1.208,1.2119,1.2119,1.208,1.208,1.208,1.208,1.208,1.208,1.208,1.208,1.2119,0,0,0,0,0,0,0,0,0,0,0,0,0,0,0,0,0,0,0,0,0,0,0,0,0,0,0,0,0,1.4707,1.4707,1.4648,1.4707,1.4648,1.4648,1.458,1.458,1.458,1.458,1.458,1.4521,1.4521,1.4521,1.4521,1.4521,1.4521,1.4521,1.4521,1.4521,1.4521,1.4463,1.4521,1.4463,1.4463,1.4463,1.4463,1.4521,1.4521,1.4521,1.4463,1.4463,1.4463,1.4395,1.4395,1.4395,1.4336,1.4336,1.4336,1.4336,1.4336,1.4336,1.4336,1.4336,1.4277,1.4277,1.4277,1.4277,1.4277,1.4277,1.4277,1.4277,1.4277,1.4219,1.4219,1.4219,1.416,1.416,1.4102,1.4102,1.4102,1.4102,1.4102,1.4102,1.4102,1.4102,1.4102,1.4102,1.4102,1.4043,1.4043,1.4043,1.3984,1.3926,1.3926,1.3926,1.3867,1.3867,1.3867,1.3867,1.3867,1.3867,1.3867,1.3926,1.3926,1.3926,1.3926,1.3926,1.3926,1.3926,1.3867,1.3867,1.3867,1.3867,1.3809,1.376,1.376,1.376,1.376,1.376,1.3701,1.3701,1.3701,1.3701,1.3701,1.3701,1.3701,1.3643,1.3643,1.3594,1.3643,1.3643,1.3643,1.3643,1.3594,1.3594,1.3594,1.3594,1.3594,1.3594,1.3535,1.3535,1.3535,1.3486,1.3486,1.3486,1.3486,1.3486,1.3486,1.3486,1.3428,1.3428,1.3428,1.3428,1.3428,1.3379,1.3379,1.3428,1.3428,1.3428,1.3428,1.3486,1.3486,1.3428,1.333,1.333,1.333,1.333,1.333,0,0,0,0,0,0,0,0,0,0,0,0,0,0,0,0,0,0,0,0,0,0,0,0,0,0,0,0,0,0,0,0
1.2412,1.2412,1.2412,1.2461,1.2461,1.251,1.2549,1.2598,1.2598,1.2598,1.2646,1.2646,1.2646,1.2646,1.2695,1.2744,1.2793,1.2793,1.2793,1.2793,1.2842,1.2842,1.2891,1.2891,1.2939,1.2939,1.2988,1.3037,1.3037,1.3037,1.3037,1.3086,1.3145,1.3145,1.3193,1.3242,1.3242,1.3242,1.3301,1.3301,1.3301,1.335,1.335,1.335,1.3398,1.3457,1.3457,1.3457,1.3457,1.3506,1.3506,1.3506,1.3564,1.3564,1.3623,1.3623,1.3623,1.3672,1.373,1.373,1.373,1.373,1.3789,1.3789,1.3848,1.3848,1.3906,1.3906,1.3906,1.3955,1.3906,1.3955,1.3955,1.4014,1.4131,1.4072,1.4072,1.4131,1.4141,1.4141,1.4258,1.4258,1.4316,1.4316,1.4375,1.4375,1.4443,1.4443,1.4443,1.4502,1.4502,1.4502,1.4502,1.4502,1.4561,1.4561,1.4629,0,1.1377,1.1338,1.1338,1.1338,1.1338,1.1338,1.1338,1.1338,1.1338,1.1338,1.1299,1.1299,1.126,1.126,1.1299,1.1299,1.1299,1.1299,1.1299,1.1299,1.1338,1.1338,1.1338,1.1338,1.1338,1.1338,1.1338,1.1338,1.1338,1.1338,1.1338,1.1338,1.1338,1.1338,1.1338,1.1377,1.1416,1.1416,1.1416,1.1416,1.1416,1.1416,1.1416,1.1377,1.1416,1.1416,1.1416,1.1416,1.1416,1.1416,1.1455,1.1455,1.1455,1.1416,1.1416,1.1416,1.1455,1.1455,1.1455,1.1494,1.1494,1.1494,1.1494,1.1533,1.1533,1.1533,1.1533,1.1533,1.1533,1.1533,1.1533,1.1533,1.1533,1.1533,1.1533,1.1533,1.1533,1.1533,1.1533,1.1533,1.1572,1.1572,1.1572,1.1572,1.1572,1.1572,1.1572,1.1572,1.1572,1.1572,1.1572,1.1611,1.1611,1.1611,1.1611,1.1611,1.1611,1.165,1.1611,1.165,1.165,1.165,1.165,1.165,1.165,1.165,1.1689,1.1699,1.165,1.1699,1.1699,1.1699,1.1699,1.1699,1.1699,1.1738,1.1738,1.1699,1.1738,1.1738,1.1738,1.1738,1.1738,1.1738,1.1738,1.1738,1.1777,1.1777,1.1738,1.1738,1.1777,1.1777,1.1777,1.1777,1.1777,1.1777,1.1777,1.1777,1.1777,1.1777,1.1777,1.1816,1.1816,1.1816,1.1816,1.1816,1.1865,1.1816,1.1865,1.1865,1.1865,1.1904,1.1904,1.1904,1.1904,1.1904,1.1943,1.1943,1.1943,1.1943,1.1992,1.1992,1.1943,1.1992,1.1943,1.1943,1.1943,1.1943,1.1943,1.1943,1.1992,1.1943,1.1992,1.1992,1.1992,1.1992,1.1943,1.1943,1.1943,1.1943,1.1943,1.1992,1.1992,1.1992,1.1992,1.1992,1.1992,1.2031,1.2031,1.1992,1.2031,1.2031,1.208,1.208,1.208,1.208,1.208,1.2119,1.208,1.2031,1.208,1.2031,1.208,1.208,1.2031,1.2031,1.2031,1.208,0,0,0,0,0,0,0,0,0,0,0,0,0,0,0,0,0,0,0,0,0,0,0,0,0,0,0,0,0,1.4648,1.4648,1.4648,1.4707,1.4648,1.4648,1.4648,1.458,1.458,1.458,1.458,1.4521,1.4521,1.4521,1.4521,1.4521,1.4521,1.4521,1.4521,1.4521,1.4521,1.4521,1.4521,1.4521,1.4463,1.4463,1.4463,1.4521,1.4521,1.4521,1.4521,1.4521,1.4463,1.4395,1.4395,1.4395,1.4336,1.4336,1.4336,1.4336,1.4336,1.4336,1.4336,1.4336,1.4336,1.4277,1.4277,1.4277,1.4277,1.4277,1.4277,1.4277,1.4277,1.4219,1.4219,1.4219,1.4219,1.416,1.416,1.4102,1.4102,1.4102,1.4102,1.4102,1.4102,1.4102,1.4102,1.4102,1.4102,1.4043,1.4043,1.4043,1.3984,1.3984,1.3926,1.3926,1.3926,1.3867,1.3867,1.3867,1.3867,1.3867,1.3867,1.3926,1.3926,1.3926,1.3926,1.3926,1.3926,1.3926,1.3867,1.3926,1.3867,1.3867,1.3867,1.3818,1.3818,1.3818,1.376,1.376,1.376,1.3701,1.3701,1.3701,1.3701,1.3701,1.3701,1.3643,1.3652,1.3652,1.3652,1.3652,1.3652,1.3594,1.3594,1.3535,1.3594,1.3535,1.3535,1.3535,1.3535,1.3535,1.3535,1.3486,1.3486,1.3486,1.3486,1.3486,1.3486,1.3486,1.3428,1.3486,1.3428,1.3428,1.3428,1.3379,1.3379,1.3428,1.3428,1.3379,1.3379,1.3486,1.3486,1.3438,1.3438,1.333,1.333,1.333,1.333,0,0,0,0,0,0,0,0,0,0,0,0,0,0,0,0,0,0,0,0,0,0,0,0,0,0,0,0,0,0,0,0
1.2412,1.2412,1.2412,1.2461,1.251,1.251,1.2549,1.2598,1.2598,1.2598,1.2646,1.2646,1.2646,1.2695,1.2695,1.2695,1.2744,1.2793,1.2793,1.2793,1.2842,1.2842,1.2891,1.2939,1.2988,1.2988,1.2988,1.3037,1.3037,1.3037,1.3086,1.3086,1.3145,1.3145,1.3193,1.3242,1.3242,1.3242,1.3301,1.3301,1.3301,1.335,1.335,1.3408,1.3408,1.3457,1.3457,1.3516,1.3516,1.3516,1.3564,1.3516,1.3564,1.3564,1.3623,1.3623,1.3623,1.3672,1.373,1.373,1.373,1.373,1.3789,1.3789,1.3848,1.3848,1.3906,1.3906,1.3906,1.3965,1.3965,1.3965,1.3965,1.4014,1.4141,1.4072,1.4141,1.4141,1.4141,1.4141,1.4258,1.4258,1.4316,1.4375,1.4375,1.4443,1.4443,1.4443,1.4443,1.4502,1.4502,1.4502,1.4502,1.4561,1.4561,1.4561,1.4629,1.1377,1.1377,1.1338,1.1338,1.1338,1.1338,1.1338,1.1338,1.1338,1.1299,1.1338,1.1299,1.1299,1.126,1.126,1.126,1.126,1.1299,1.1299,1.1299,1.1299,1.1338,1.1338,1.1338,1.1338,1.1338,1.1338,1.1338,1.1338,1.1338,1.1338,1.1338,1.1338,1.1338,1.1338,1.1338,1.1377,1.1416,1.1416,1.1416,1.1416,1.1416,1.1416,1.1377,1.1377,1.1377,1.1416,1.1416,1.1416,1.1416,1.1416,1.1455,1.1455,1.1455,1.1416,1.1416,1.1416,1.1455,1.1455,1.1455,1.1494,1.1494,1.1494,1.1494,1.1533,1.1533,1.1533,1.1533,1.1533,1.1533,1.1533,1.1533,1.1533,1.1533,1.1533,1.1533,1.1533,1.1533,1.1533,1.1533,1.1533,1.1572,1.1572,1.1572,1.1572,1.1572,1.1572,1.1572,1.1572,1.1572,1.1572,1.1572,1.1611,1.1611,1.1611,1.1611,1.1611,1.1611,1.1611,1.1611,1.165,1.165,1.165,1.165,1.165,1.165,1.165,1.165,1.1699,1.1699,1.1699,1.1699,1.1738,1.1738,1.1699,1.1699,1.1738,1.1738,1.1699,1.1738,1.1738,1.1738,1.1738,1.1738,1.1738,1.1738,1.1738,1.1738,1.1738,1.1738,1.1738,1.1738,1.1738,1.1777,1.1777,1.1777,1.1777,1.1777,1.1816,1.1777,1.1816,1.1777,1.1816,1.1816,1.1816,1.1816,1.1816,1.1865,1.1816,1.1865,1.1865,1.1865,1.1904,1.1904,1.1904,1.1904,1.1943,1.1943,1.1943,1.1943,1.1943,1.1992,1.1992,1.1943,1.1992,1.1943,1.1943,1.1992,1.1943,1.1943,1.1943,1.1943,1.1943,1.1943,1.1992,1.1943,1.1992,1.1943,1.1943,1.1943,1.1943,1.1943,1.1992,1.1992,1.1992,1.1992,1.1992,1.1992,1.1992,1.1992,1.1992,1.2031,1.2031,1.208,1.2031,1.208,1.208,1.208,1.2119,1.208,1.2031,1.208,1.2031,1.208,1.208,1.2031,1.208,1.208,1.208,0,0,0,0,0,0,0,0,0,0,0,0,0,0,0,0,0,0,0,0,0,0,0,0,0,0,0,0,0,1.4648,1.4648,1.4648,1.4707,1.4648,1.4648,1.458,1.458,1.458,1.458,1.458,1.458,1.458,1.458,1.458,1.458,1.458,1.4521,1.4521,1.4521,1.4521,1.4521,1.4521,1.4521,1.4463,1.4463,1.4463,1.4521,1.4521,1.4521,1.4521,1.4521,1.4463,1.4463,1.4395,1.4395,1.4395,1.4404,1.4404,1.4336,1.4336,1.4336,1.4336,1.4336,1.4336,1.4277,1.4336,1.4336,1.4277,1.4277,1.4277,1.4277,1.4277,1.4277,1.4219,1.4219,1.4219,1.416,1.416,1.4102,1.416,1.4102,1.4102,1.4102,1.4102,1.4102,1.4102,1.4102,1.4102,1.4043,1.4043,1.4043,1.3984,1.3984,1.3926,1.3926,1.3926,1.3867,1.3867,1.3867,1.3867,1.3867,1.3867,1.3926,1.3926,1.3926,1.3926,1.3926,1.3926,1.3926,1.3926,1.3926,1.3926,1.3867,1.3867,1.3867,1.3867,1.3867,1.3818,1.376,1.376,1.3701,1.3701,1.3701,1.3701,1.3701,1.3701,1.3652,1.3652,1.3652,1.3652,1.3652,1.3652,1.3594,1.3594,1.3594,1.3594,1.3594,1.3535,1.3594,1.3535,1.3535,1.3535,1.3486,1.3486,1.3486,1.3486,1.3486,1.3486,1.3486,1.3438,1.3486,1.3428,1.3428,1.3428,1.3428,1.3379,1.3438,1.3438,1.3438,1.3438,1.3486,1.3438,1.3438,1.3438,1.333,1.3379,1.333,1.333,0,0,0,0,0,0,0,0,0,0,0,0,0,0,0,0,0,0,0,0,0,0,0,0,0,0,0,0,0,0,0,0
1.2412,1.2412,1.2412,1.2461,1.251,1.251,1.2549,1.2598,1.2598,1.2646,1.2646,1.2646,1.2646,1.2695,1.2695,1.2744,1.2744,1.2793,1.2793,1.2793,1.2842,1.2842,1.2891,1.2939,1.2988,1.2988,1.2988,1.3037,1.3037,1.3037,1.3096,1.3096,1.3145,1.3193,1.3193,1.3242,1.3242,1.3242,1.3301,1.3301,1.3301,1.335,1.335,1.3408,1.3457,1.3457,1.3457,1.3516,1.3516,1.3564,1.3564,1.3564,1.3623,1.3564,1.3623,1.3623,1.3682,1.3682,1.373,1.373,1.373,1.373,1.3789,1.3848,1.3848,1.3906,1.3906,1.3906,1.3906,1.3965,1.3965,1.3965,1.3965,1.4023,1.4141,1.4141,1.4141,1.4141,1.4141,1.4199,1.4258,1.4258,1.4316,1.4375,1.4375,1.4443,1.4443,1.4443,1.4502,1.4502,1.4502,1.4502,1.4502,1.457,1.457,1.4629,1.4629,1.1377,1.1377,1.1338,1.1338,1.1338,1.1338,1.1338,1.1338,1.1299,1.1299,1.1299,1.1299,1.126,1.126,1.126,1.126,1.126,1.126,1.1299,1.1299,1.1299,1.1338,1.1338,1.1299,1.1338,1.1338,1.1338,1.1338,1.1338,1.1338,1.1338,1.1338,1.1338,1.1338,1.1338,1.1377,1.1377,1.1416,1.1416,1.1416,1.1416,1.1416,1.1377,1.1377,1.1377,1.1377,1.1416,1.1416,1.1416,1.1416,1.1416,1.1455,1.1455,1.1455,1.1416,1.1416,1.1416,1.1455,1.1455,1.1455,1.1494,1.1494,1.1494,1.1533,1.1533,1.1533,1.1533,1.1533,1.1533,1.1533,1.1494,1.1533,1.1494,1.1533,1.1533,1.1533,1.1533,1.1533,1.1533,1.1533,1.1572,1.1572,1.1572,1.1572,1.1572,1.1572,1.1572,1.1572,1.1572,1.1572,1.1572,1.1572,1.1611,1.1611,1.1611,1.1611,1.1611,1.165,1.165,1.165,1.1611,1.165,1.165,1.165,1.165,1.165,1.165,1.165,1.1699,1.1699,1.1699,1.1699,1.1699,1.1699,1.1699,1.1738,1.1738,1.1738,1.1699,1.1738,1.1738,1.1738,1.1738,1.1738,1.1738,1.1738,1.1738,1.1738,1.1738,1.1738,1.1738,1.1738,1.1738,1.1777,1.1777,1.1777,1.1777,1.1777,1.1777,1.1777,1.1777,1.1777,1.1816,1.1816,1.1816,1.1816,1.1816,1.1865,1.1816,1.1865,1.1865,1.1865,1.1865,1.1904,1.1904,1.1865,1.1904,1.1943,1.1943,1.1943,1.1943,1.1943,1.1943,1.1943,1.1943,1.1943,1.1943,1.1943,1.1943,1.1943,1.1943,1.1943,1.1943,1.1943,1.1992,1.1992,1.1992,1.1992,1.1953,1.1953,1.1953,1.1953,1.1953,1.1992,1.1992,1.1992,1.1992,1.1992,1.1992,1.1992,1.1992,1.1992,1.2031,1.2031,1.2031,1.208,1.208,1.208,1.2119,1.208,1.208,1.208,1.2031,1.208,1.208,1.2031,1.208,1.208,1.2119,0,0,0,0,0,0,0,0,0,0,0,0,0,0,0,0,0,0,0,0,0,0,0,0,0,0,0,0,0,1.4648,1.458,1.4648,1.4648,1.4648,1.4648,1.458,1.458,1.458,1.4648,1.4648,1.4648,1.4648,1.4648,1.4648,1.458,1.458,1.4521,1.4521,1.4521,1.4521,1.4521,1.4521,1.4521,1.4463,1.4463,1.4463,1.4521,1.4521,1.4521,1.4521,1.4521,1.4463,1.4463,1.4404,1.4404,1.4404,1.4404,1.4404,1.4336,1.4336,1.4336,1.4336,1.4336,1.4336,1.4277,1.4336,1.4336,1.4277,1.4336,1.4277,1.4277,1.4277,1.4277,1.4219,1.4219,1.4219,1.4219,1.416,1.416,1.416,1.416,1.416,1.4102,1.4102,1.4102,1.4102,1.4102,1.4102,1.4043,1.4043,1.4043,1.4043,1.3984,1.3984,1.3926,1.3926,1.3867,1.3867,1.3867,1.3867,1.3867,1.3867,1.3984,1.3926,1.3926,1.3926,1.3926,1.3926,1.3926,1.3926,1.3926,1.3926,1.3926,1.3867,1.3867,1.3867,1.3867,1.3818,1.376,1.376,1.3701,1.3701,1.3701,1.3701,1.3701,1.3701,1.3652,1.3652,1.3652,1.3652,1.3652,1.3652,1.3594,1.3594,1.3594,1.3594,1.3594,1.3594,1.3594,1.3545,1.3545,1.3545,1.3486,1.3486,1.3486,1.3486,1.3486,1.3486,1.3486,1.3438,1.3486,1.3486,1.3438,1.3438,1.3438,1.3438,1.3486,1.3486,1.3438,1.3486,1.3438,1.3438,1.3438,1.3438,1.3379,1.3379,1.333,1.333,0,0,0,0,0,0,0,0,0,0,0,0,0,0,0,0,0,0,0,0,0,0,0,0,0,0,0,0,0,0,0,0
1.2412,1.2412,1.2412,1.2461,1.251,1.2549,1.2598,1.2598,1.2598,1.2646,1.2646,1.2646,1.2695,1.2695,1.2695,1.2744,1.2744,1.2793,1.2793,1.2842,1.2842,1.2842,1.2939,1.2939,1.2988,1.2988,1.3037,1.3037,1.3037,1.3037,1.3096,1.3096,1.3145,1.3193,1.3242,1.3242,1.3242,1.3301,1.3301,1.3301,1.3301,1.335,1.335,1.3408,1.3408,1.3457,1.3457,1.3516,1.3516,1.3564,1.3564,1.3564,1.3623,1.3623,1.3623,1.3682,1.3682,1.3682,1.373,1.373,1.373,1.3789,1.3789,1.3848,1.3906,1.3906,1.3906,1.3906,1.3965,1.3965,1.3965,1.3965,1.4023,1.4023,1.4141,1.4141,1.4141,1.4141,1.4199,1.4199,1.4258,1.4316,1.4375,1.4375,1.4375,1.4443,1.4443,1.4443,1.4443,1.4502,1.4502,1.4502,1.4502,1.4502,1.457,1.457,1.1377,1.1338,1.1338,1.1338,1.1338,1.1338,1.1338,1.1338,1.1338,1.1338,1.1338,1.1299,1.1299,1.126,1.126,1.1299,1.1299,1.126,1.126,1.1338,1.1299,1.1338,1.1338,1.1338,1.1338,1.1338,1.1338,1.1338,1.1338,1.1338,1.1338,1.1338,1.1338,1.1338,1.1338,1.1338,1.1377,1.1377,1.1416,1.1416,1.1416,1.1416,1.1416,1.1416,1.1377,1.1377,1.1377,1.1416,1.1416,1.1416,1.1416,1.1416,1.1416,1.1455,1.1416,1.1416,1.1455,1.1455,1.1455,1.1455,1.1494,1.1533,1.1533,1.1533,1.1533,1.1533,1.1533,1.1533,1.1533,1.1533,1.1533,1.1494,1.1533,1.1533,1.1533,1.1533,1.1533,1.1533,1.1533,1.1533,1.1533,1.1572,1.1572,1.1572,1.1572,1.1572,1.1572,1.1572,1.1572,1.1572,1.1572,1.1572,1.1572,1.165,1.1611,1.1611,1.1611,1.1611,1.165,1.165,1.166,1.166,1.166,1.1699,1.1699,1.1699,1.165,1.165,1.1699,1.1699,1.1699,1.1738,1.1738,1.1738,1.1699,1.1699,1.1738,1.1738,1.1738,1.1699,1.1738,1.1738,1.1738,1.1738,1.1738,1.1738,1.1738,1.1738,1.1738,1.1738,1.1738,1.1738,1.1738,1.1738,1.1777,1.1777,1.1777,1.1777,1.1777,1.1777,1.1777,1.1816,1.1777,1.1816,1.1816,1.1816,1.1816,1.1816,1.1816,1.1826,1.1865,1.1865,1.1865,1.1865,1.1865,1.1904,1.1904,1.1904,1.1904,1.1943,1.1943,1.1943,1.1943,1.1943,1.1943,1.1943,1.1943,1.1943,1.1943,1.1943,1.1943,1.1953,1.1992,1.1992,1.1992,1.1992,1.1992,1.1992,1.1992,1.1953,1.1953,1.1953,1.1953,1.1992,1.1992,1.1992,1.1992,1.1992,1.1992,1.1992,1.1992,1.1992,1.1992,1.2031,1.2031,1.2031,1.208,1.2031,1.208,1.2119,1.208,1.208,1.208,1.2031,1.208,1.208,1.2031,1.208,1.208,1.2119,1.2168,0,0,0,0,0,0,0,0,0,0,0,0,0,0,0,0,0,0,0,0,0,0,0,0,0,0,0,0,1.4648,1.4648,1.4648,1.4717,1.4648,1.4648,1.458,1.458,1.458,1.4648,1.4648,1.4648,1.4648,1.4648,1.4648,1.4648,1.459,1.459,1.4521,1.4521,1.4521,1.4521,1.4521,1.4521,1.4463,1.4463,1.4463,1.459,1.4521,1.4521,1.4521,1.4521,1.4463,1.4463,1.4404,1.4404,1.4404,1.4404,1.4404,1.4336,1.4336,1.4336,1.4336,1.4336,1.4336,1.4277,1.4277,1.4277,1.4277,1.4277,1.4277,1.4277,1.4277,1.4277,1.4277,1.4219,1.4219,1.4219,1.416,1.416,1.416,1.416,1.416,1.4102,1.4102,1.4102,1.4102,1.4102,1.4102,1.4043,1.4043,1.4043,1.4043,1.3984,1.3984,1.3926,1.3926,1.3867,1.3926,1.3867,1.3867,1.3867,1.3867,1.3926,1.3926,1.3926,1.3926,1.3926,1.3926,1.3926,1.3926,1.3926,1.3926,1.3877,1.3877,1.3877,1.3877,1.3818,1.3818,1.376,1.376,1.3701,1.3701,1.3701,1.3701,1.3701,1.3701,1.3652,1.3652,1.3652,1.3652,1.3652,1.3652,1.3594,1.3594,1.3594,1.3594,1.3594,1.3594,1.3594,1.3545,1.3545,1.3486,1.3486,1.3486,1.3486,1.3486,1.3486,1.3486,1.3486,1.3486,1.3486,1.3486,1.3438,1.3438,1.3438,1.3438,1.3438,1.3438,1.3438,1.3438,1.3438,1.3486,1.3379,1.3438,1.3379,1.3379,1.333,1.333,0,0,0,0,0,0,0,0,0,0,0,0,0,0,0,0,0,0,0,0,0,0,0,0,0,0,0,0,0,0,0,0
1.2412,1.2412,1.2461,1.251,1.2559,1.2559,1.2598,1.2598,1.2598,1.2646,1.2646,1.2646,1.2695,1.2695,1.2744,1.2744,1.2793,1.2793,1.2842,1.2842,1.2842,1.2842,1.2939,1.2939,1.2988,1.3037,1.3037,1.3037,1.3037,1.3096,1.3096,1.3096,1.3145,1.3193,1.3242,1.3242,1.3301,1.3301,1.3301,1.3301,1.3301,1.335,1.335,1.3408,1.3408,1.3457,1.3457,1.3516,1.3516,1.3564,1.3564,1.3623,1.3623,1.3623,1.3682,1.3682,1.3682,1.3682,1.373,1.373,1.373,1.3789,1.3789,1.3848,1.3906,1.3906,1.3906,1.3906,1.3965,1.3965,1.3965,1.3965,1.4023,1.4023,1.4141,1.4082,1.4141,1.4141,1.4141,1.4199,1.4258,1.4316,1.4375,1.4443,1.4443,1.4443,1.4443,1.4443,1.4502,1.4502,1.4502,1.4502,1.4502,1.4502,1.4502,1.4502,1.1377,1.1338,1.1338,1.1338,1.1338,1.1338,1.1338,1.1338,1.1338,1.1338,1.1338,1.1338,1.1299,1.1299,1.1299,1.1299,1.1299,1.1338,1.1338,1.1338,1.1338,1.1338,1.1338,1.1338,1.1338,1.1338,1.1338,1.1338,1.1338,1.1338,1.1338,1.1338,1.1338,1.1338,1.1338,1.1338,1.1377,1.1377,1.1416,1.1416,1.1416,1.1416,1.1416,1.1416,1.1377,1.1377,1.1377,1.1416,1.1416,1.1416,1.1416,1.1416,1.1416,1.1416,1.1455,1.1455,1.1455,1.1455,1.1494,1.1455,1.1494,1.1533,1.1533,1.1533,1.1533,1.1533,1.1533,1.1533,1.1494,1.1533,1.1494,1.1494,1.1494,1.1494,1.1533,1.1533,1.1533,1.1533,1.1533,1.1533,1.1533,1.1533,1.1572,1.1572,1.1533,1.1572,1.1572,1.1572,1.1572,1.1572,1.1572,1.1572,1.1572,1.1611,1.1611,1.1611,1.1611,1.166,1.166,1.166,1.166,1.166,1.166,1.1699,1.1699,1.1699,1.1699,1.1699,1.1699,1.1699,1.1699,1.1699,1.1699,1.1699,1.1699,1.1699,1.1699,1.1738,1.1699,1.1699,1.1738,1.1738,1.1738,1.1738,1.1738,1.1738,1.1738,1.1738,1.1738,1.1738,1.1738,1.1738,1.1738,1.1738,1.1777,1.1777,1.1777,1.1777,1.1777,1.1777,1.1816,1.1816,1.1826,1.1826,1.1826,1.1826,1.1826,1.1826,1.1826,1.1777,1.1865,1.1865,1.1865,1.1865,1.1865,1.1904,1.1904,1.1904,1.1943,1.1943,1.1943,1.1943,1.1943,1.1943,1.1953,1.1953,1.1953,1.1953,1.1953,1.1953,1.1953,1.1953,1.1953,1.1992,1.1992,1.1992,1.1992,1.1992,1.1992,1.1992,1.1992,1.1953,1.1953,1.1992,1.1992,1.1992,1.1992,1.1992,1.1992,1.1992,1.1992,1.2031,1.1992,1.2031,1.2031,1.2031,1.208,1.208,1.208,1.208,1.208,1.208,1.208,1.208,1.208,1.208,1.2031,1.208,1.208,1.2119,1.2168,1.2207,0,0,0,0,0,0,0,0,0,0,0,0,0,0,0,0,0,0,0,0,0,0,0,0,0,0,1.4775,1.4648,1.4648,1.4717,1.4717,1.4717,1.4648,1.4648,1.4648,1.4648,1.4648,1.4648,1.4648,1.4648,1.4648,1.4648,1.4648,1.459,1.459,1.4521,1.4521,1.4521,1.4521,1.4521,1.4521,1.4521,1.4521,1.4521,1.459,1.4521,1.459,1.4521,1.4521,1.4521,1.4463,1.4463,1.4404,1.4404,1.4404,1.4404,1.4336,1.4336,1.4404,1.4336,1.4404,1.4336,1.4336,1.4336,1.4346,1.4277,1.4346,1.4277,1.4277,1.4277,1.4277,1.4277,1.4277,1.4277,1.4219,1.4219,1.4219,1.4219,1.416,1.416,1.4102,1.4102,1.4102,1.4102,1.4102,1.4102,1.4102,1.4043,1.4043,1.4043,1.4043,1.3984,1.3926,1.3926,1.3926,1.3926,1.3926,1.3926,1.3877,1.3877,1.3926,1.3926,1.3926,1.3926,1.3926,1.3926,1.3926,1.3926,1.3926,1.3926,1.3877,1.3877,1.3877,1.3877,1.3877,1.3818,1.3818,1.376,1.3701,1.3701,1.3701,1.3701,1.3701,1.3701,1.3652,1.3652,1.3652,1.3652,1.3652,1.3652,1.3594,1.3594,1.3594,1.3594,1.3594,1.3594,1.3545,1.3545,1.3486,1.3486,1.3486,1.3486,1.3486,1.3486,1.3486,1.3486,1.3486,1.3438,1.3545,1.3486,1.3486,1.3438,1.3438,1.3438,1.3438,1.3438,1.3438,1.3438,1.3486,1.3438,1.3438,1.3438,1.3379,1.3379,1.333,1.333,0,0,0,0,0,0,0,0,0,0,0,0,0,0,0,0,0,0,0,0,0,0,0,0,0,0,0,0,0,0,0,0
1.2412,1.2461,1.2461,1.251,1.2559,1.2559,1.2598,1.2598,1.2598,1.2646,1.2646,1.2646,1.2695,1.2695,1.2744,1.2744,1.2793,1.2793,1.2842,1.2842,1.2842,1.2891,1.2939,1.2988,1.2988,1.3037,1.3037,1.3037,1.3096,1.3096,1.3096,1.3145,1.3145,1.3193,1.3252,1.3252,1.3301,1.3301,1.3301,1.3301,1.3301,1.335,1.3408,1.3408,1.3408,1.3457,1.3457,1.3516,1.3457,1.3457,1.3516,1.3564,1.3623,1.3623,1.3682,1.3682,1.3682,1.373,1.373,1.373,1.373,1.3789,1.3789,1.3848,1.3906,1.3906,1.3906,1.3906,1.3965,1.3965,1.3965,1.3965,1.4023,1.4023,1.4141,1.4082,1.4141,1.4199,1.4199,1.4199,1.4316,1.4316,1.4385,1.4385,1.4443,1.4443,1.4443,1.4502,1.4502,1.4502,1.4502,1.4502,1.457,1.457,1.457,1.457,1.1377,1.1377,1.1377,1.1338,1.1338,1.1338,1.1338,1.1338,1.1338,1.1338,1.1338,1.1338,1.1299,1.1299,1.1299,1.1299,1.126,1.126,1.1299,1.1299,1.1338,1.1338,1.1338,1.1338,1.1338,1.1338,1.1338,1.1338,1.1338,1.1338,1.1338,1.1338,1.1338,1.1338,1.1338,1.1338,1.1377,1.1377,1.1416,1.1416,1.1416,1.1416,1.1416,1.1416,1.1416,1.1416,1.1416,1.1416,1.1416,1.1416,1.1416,1.1416,1.1416,1.1455,1.1455,1.1455,1.1455,1.1455,1.1494,1.1494,1.1494,1.1533,1.1533,1.1533,1.1533,1.1533,1.1533,1.1533,1.1494,1.1494,1.1494,1.1494,1.1533,1.1494,1.1533,1.1533,1.1533,1.1533,1.1533,1.1533,1.1533,1.1533,1.1572,1.1572,1.1533,1.1572,1.1572,1.1572,1.1572,1.1572,1.1572,1.1572,1.1611,1.166,1.166,1.166,1.166,1.166,1.1699,1.1699,1.1699,1.1699,1.1699,1.1699,1.1699,1.1699,1.1699,1.1699,1.1699,1.1699,1.1699,1.1699,1.1699,1.1699,1.1738,1.1738,1.1738,1.1738,1.1738,1.1699,1.1738,1.1738,1.1738,1.1738,1.1738,1.1738,1.1738,1.1738,1.1738,1.1738,1.1738,1.1738,1.1738,1.1738,1.1777,1.1777,1.1777,1.1777,1.1777,1.1777,1.1826,1.1826,1.1826,1.1826,1.1826,1.1826,1.1826,1.1826,1.1826,1.1826,1.1865,1.1865,1.1865,1.1865,1.1904,1.1904,1.1904,1.1953,1.1953,1.1953,1.1953,1.1953,1.1953,1.1953,1.1953,1.1953,1.1953,1.1953,1.1953,1.1953,1.1992,1.1992,1.1992,1.1992,1.1992,1.1992,1.1992,1.1992,1.1992,1.1992,1.1992,1.1992,1.1953,1.1992,1.1992,1.1992,1.1992,1.1992,1.1992,1.2031,1.2031,1.2031,1.2031,1.2031,1.2031,1.208,1.2031,1.208,1.208,1.208,1.208,1.2031,1.208,1.208,1.208,1.208,1.208,1.208,1.208,1.2119,1.2168,1.2168,0,0,0,0,0,0,0,0,0,0,0,0,0,0,0,0,0,0,0,0,0,0,0,0,0,0,1.4775,1.4648,1.4648,1.4717,1.4717,1.4717,1.4648,1.459,1.459,1.4648,1.4648,1.4648,1.4648,1.4648,1.4648,1.4648,1.4648,1.459,1.459,1.459,1.459,1.4521,1.4521,1.4521,1.4521,1.4521,1.4521,1.4521,1.459,1.4521,1.459,1.4521,1.4521,1.4521,1.4463,1.4463,1.4404,1.4404,1.4404,1.4404,1.4404,1.4404,1.4404,1.4404,1.4404,1.4346,1.4346,1.4346,1.4346,1.4277,1.4346,1.4277,1.4277,1.4277,1.4277,1.4277,1.4277,1.4277,1.4219,1.4219,1.4219,1.4219,1.416,1.416,1.416,1.4102,1.4102,1.4102,1.4102,1.4102,1.4043,1.4043,1.4043,1.4043,1.4043,1.3984,1.3926,1.3984,1.3926,1.3926,1.3926,1.3926,1.3877,1.3877,1.3984,1.3926,1.3926,1.3926,1.3926,1.3926,1.3926,1.3926,1.3877,1.3877,1.3877,1.3877,1.3877,1.3877,1.3877,1.3818,1.3818,1.376,1.376,1.3701,1.3701,1.3701,1.3701,1.3701,1.3652,1.3652,1.3652,1.3652,1.3652,1.3652,1.3594,1.3594,1.3594,1.3594,1.3594,1.3594,1.3594,1.3545,1.3545,1.3486,1.3486,1.3486,1.3486,1.3486,1.3486,1.3486,1.3486,1.3486,1.3545,1.3486,1.3486,1.3486,1.3438,1.3438,1.3486,1.3486,1.3486,1.3486,1.3486,1.3438,1.3438,1.3438,1.3438,1.3438,1.3438,1.3379,0,0,0,0,0,0,0,0,0,0,0,0,0,0,0,0,0,0,0,0,0,0,0,0,0,0,0,0,0,0,0,0
1.2461,1.2461,1.2461,1.2559,1.2559,1.2559,1.2598,1.2598,1.2598,1.2646,1.2646,1.2646,1.2695,1.2695,1.2744,1.2744,1.2793,1.2842,1.2842,1.2842,1.2891,1.2891,1.2939,1.2988,1.2988,1.3047,1.3047,1.3096,1.3096,1.3096,1.3096,1.3145,1.3145,1.3193,1.3252,1.3252,1.3301,1.3301,1.3301,1.3301,1.3301,1.335,1.335,1.3408,1.3408,1.3457,1.3457,1.3457,1.3457,1.3457,1.3516,1.3564,1.3623,1.3623,1.3682,1.3682,1.3682,1.373,1.373,1.373,1.3789,1.3789,1.3789,1.3906,1.3906,1.3906,1.3906,1.3906,1.3965,1.3965,1.3965,1.3965,1.4023,1.4023,1.4141,1.4082,1.4141,1.4199,1.4199,1.4258,1.4316,1.4385,1.4385,1.4385,1.4385,1.4443,1.4443,1.4502,1.4502,1.4502,1.4502,1.457,1.457,1.457,1.4629,1.1494,1.1377,1.1377,1.1377,1.1377,1.1338,1.1338,1.1338,1.1338,1.1338,1.1338,1.1338,1.1338,1.1299,1.1299,1.1299,1.1299,1.126,1.126,1.1338,1.1338,1.1338,1.1338,1.1338,1.1338,1.1338,1.1338,1.1338,1.1338,1.1338,1.1338,1.1338,1.1338,1.1338,1.1338,1.1338,1.1338,1.1338,1.1377,1.1416,1.1416,1.1416,1.1416,1.1416,1.1416,1.1416,1.1416,1.1416,1.1416,1.1416,1.1416,1.1416,1.1416,1.1416,1.1455,1.1455,1.1455,1.1455,1.1455,1.1494,1.1494,1.1494,1.1533,1.1533,1.1533,1.1533,1.1533,1.1533,1.1494,1.1494,1.1494,1.1494,1.1494,1.1494,1.1494,1.1533,1.1533,1.1533,1.1533,1.1533,1.1533,1.1533,1.1533,1.1533,1.1533,1.1572,1.1572,1.1572,1.1572,1.1572,1.1572,1.1572,1.1611,1.1611,1.166,1.166,1.166,1.166,1.1699,1.1699,1.1699,1.1699,1.1699,1.1699,1.1699,1.1699,1.1699,1.1699,1.1699,1.1699,1.1699,1.1699,1.1699,1.1738,1.1738,1.1738,1.1738,1.1738,1.1738,1.1738,1.1738,1.1738,1.1738,1.1738,1.1738,1.1738,1.1738,1.1738,1.1777,1.1777,1.1738,1.1738,1.1738,1.1738,1.1777,1.1777,1.1777,1.1777,1.1777,1.1777,1.1826,1.1826,1.1826,1.1826,1.1826,1.1826,1.1826,1.1865,1.1826,1.1865,1.1826,1.1865,1.1865,1.1904,1.1904,1.1904,1.1904,1.1904,1.1953,1.1953,1.1953,1.1953,1.1953,1.1953,1.1953,1.1953,1.1953,1.1953,1.1953,1.1953,1.1953,1.1992,1.1992,1.1992,1.1992,1.1992,1.1992,1.1992,1.1992,1.1992,1.1992,1.1992,1.1992,1.1992,1.1992,1.1992,1.1992,1.1992,1.2031,1.1992,1.2031,1.2041,1.2041,1.2041,1.2041,1.2041,1.2041,1.2041,1.208,1.208,1.208,1.208,1.208,1.208,1.2119,1.208,1.208,1.2041,1.208,1.208,1.2119,1.2168,1.2168,0,0,0,0,0,0,0,0,0,0,0,0,0,0,0,0,0,0,0,0,0,0,0,0,0,0,1.4775,1.4648,1.4648,1.4717,1.4648,1.4648,1.4648,1.4648,1.4648,1.4648,1.4717,1.4648,1.4717,1.4648,1.4648,1.4648,1.4648,1.459,1.4648,1.459,1.459,1.4521,1.4521,1.4521,1.4521,1.4521,1.4521,1.4463,1.459,1.4521,1.459,1.4521,1.4521,1.4521,1.4521,1.4463,1.4463,1.4404,1.4404,1.4404,1.4404,1.4404,1.4404,1.4346,1.4404,1.4346,1.4346,1.4346,1.4346,1.4277,1.4346,1.4277,1.4277,1.4277,1.4277,1.4277,1.4277,1.4277,1.4277,1.4219,1.4219,1.4219,1.416,1.416,1.416,1.4102,1.4102,1.4102,1.4102,1.4102,1.4043,1.4043,1.4043,1.4043,1.4043,1.4043,1.3984,1.3984,1.3984,1.3984,1.3926,1.3926,1.3936,1.3877,1.3936,1.3936,1.3936,1.3936,1.3936,1.3936,1.3936,1.3936,1.3877,1.3936,1.3877,1.3877,1.3877,1.3877,1.3877,1.3818,1.3818,1.376,1.376,1.3701,1.3701,1.3701,1.3701,1.3652,1.3652,1.3652,1.3652,1.3652,1.3652,1.3652,1.3652,1.3594,1.3652,1.3594,1.3594,1.3594,1.3594,1.3545,1.3545,1.3486,1.3486,1.3486,1.3486,1.3486,1.3486,1.3486,1.3486,1.3486,1.3438,1.3486,1.3438,1.3486,1.3486,1.3438,1.3486,1.3486,1.3486,1.3486,1.3486,1.3486,1.3438,1.3438,1.3438,1.3486,1.3438,1.3379,0,0,0,0,0,0,0,0,0,0,0,0,0,0,0,0,0,0,0,0,0,0,0,0,0,0,0,0,0,0,0,0
1.2461,1.251,1.251,1.2559,1.2559,1.2607,1.2607,1.2607,1.2646,1.2646,1.2646,1.2646,1.2695,1.2744,1.2744,1.2793,1.2793,1.2842,1.2842,1.2842,1.2891,1.2939,1.2939,1.2988,1.3047,1.3047,1.3047,1.3096,1.3096,1.3096,1.3145,1.3145,1.3145,1.3193,1.3252,1.3252,1.3301,1.3301,1.3301,1.3301,1.3301,1.335,1.3408,1.3408,1.3457,1.3457,1.3457,1.3457,1.3457,1.3457,1.3516,1.3564,1.3623,1.3682,1.3682,1.3682,1.3682,1.374,1.374,1.3789,1.3789,1.3789,1.3848,1.3906,1.3906,1.3906,1.3906,1.3906,1.3906,1.3965,1.3965,1.3965,1.4023,1.4082,1.4082,1.4141,1.4141,1.4199,1.4199,1.4258,1.4385,1.4385,1.4385,1.4385,1.4443,1.4443,1.4443,1.4502,1.4502,1.4502,1.4502,1.4502,1.457,1.457,1.4629,1.1494,1.1494,1.1377,1.1377,1.1377,1.1377,1.1338,1.1338,1.1338,1.1338,1.1338,1.1338,1.1299,1.1299,1.1299,1.1338,1.1338,1.126,1.1299,1.1299,1.1338,1.1338,1.1338,1.1338,1.1338,1.1338,1.1338,1.1338,1.1338,1.1338,1.1338,1.1338,1.1338,1.1338,1.1338,1.1338,1.1338,1.1338,1.1338,1.1416,1.1416,1.1416,1.1416,1.1416,1.1416,1.1416,1.1416,1.1416,1.1416,1.1416,1.1416,1.1416,1.1455,1.1455,1.1455,1.1455,1.1416,1.1455,1.1455,1.1494,1.1494,1.1533,1.1533,1.1533,1.1533,1.1533,1.1533,1.1533,1.1533,1.1533,1.1533,1.1533,1.1494,1.1494,1.1494,1.1533,1.1533,1.1533,1.1533,1.1533,1.1533,1.1533,1.1533,1.1533,1.1533,1.1572,1.1533,1.1572,1.1572,1.1572,1.1572,1.1572,1.1621,1.1621,1.166,1.166,1.166,1.166,1.1699,1.1699,1.1699,1.1699,1.1699,1.1699,1.1699,1.1699,1.1699,1.1699,1.1699,1.1699,1.1699,1.1699,1.1699,1.1738,1.1738,1.1738,1.1738,1.1738,1.1738,1.1738,1.1738,1.1738,1.1738,1.1738,1.1738,1.1738,1.1738,1.1777,1.1777,1.1777,1.1777,1.1777,1.1738,1.1777,1.1777,1.1777,1.1777,1.1777,1.1777,1.1777,1.1826,1.1826,1.1826,1.1826,1.1826,1.1826,1.1826,1.1865,1.1826,1.1826,1.1826,1.1865,1.1865,1.1904,1.1904,1.1904,1.1904,1.1904,1.1953,1.1953,1.1953,1.1953,1.1953,1.1953,1.1953,1.1953,1.1953,1.1953,1.1953,1.1953,1.1992,1.1992,1.1992,1.1992,1.1992,1.1992,1.1992,1.1992,1.1992,1.1992,1.1992,1.1992,1.1992,1.1992,1.1992,1.1992,1.2041,1.2041,1.2041,1.2041,1.2041,1.2041,1.2041,1.2041,1.2041,1.2041,1.208,1.2041,1.208,1.208,1.208,1.208,1.208,1.208,1.208,1.208,1.208,1.2041,1.208,1.208,1.2129,1.2168,0,0,0,0,0,0,0,0,0,0,0,0,0,0,0,0,0,0,0,0,0,0,0,0,0,0,0,1.4775,1.4717,1.4648,1.4717,1.4717,1.4717,1.4717,1.4648,1.4648,1.4648,1.4648,1.4648,1.4648,1.4648,1.4648,1.4648,1.4648,1.4648,1.4648,1.4648,1.459,1.459,1.459,1.459,1.4521,1.4521,1.4531,1.4531,1.459,1.459,1.459,1.459,1.4531,1.4531,1.4531,1.4463,1.4463,1.4404,1.4404,1.4463,1.4404,1.4404,1.4404,1.4404,1.4346,1.4346,1.4346,1.4346,1.4346,1.4277,1.4346,1.4277,1.4287,1.4287,1.4287,1.4287,1.4287,1.4287,1.4287,1.4219,1.4219,1.4219,1.4219,1.416,1.416,1.4102,1.4102,1.4102,1.4102,1.4102,1.4102,1.4043,1.4043,1.4043,1.4043,1.4043,1.3984,1.3984,1.3984,1.3984,1.3936,1.3936,1.3936,1.3936,1.3984,1.3936,1.3936,1.3936,1.3877,1.3877,1.3877,1.3877,1.3877,1.3877,1.3877,1.3877,1.3818,1.3818,1.3818,1.3818,1.3818,1.376,1.376,1.376,1.3711,1.3711,1.3711,1.3652,1.3652,1.3652,1.3652,1.3652,1.3652,1.3652,1.3652,1.3652,1.3652,1.3594,1.3594,1.3594,1.3594,1.3545,1.3545,1.3545,1.3545,1.3545,1.3486,1.3486,1.3486,1.3486,1.3486,1.3486,1.3486,1.3545,1.3438,1.3486,1.3486,1.3438,1.3486,1.3486,1.3486,1.3486,1.3486,1.3438,1.3438,1.3438,1.3438,1.3438,1.3389,1.3438,0,0,0,0,0,0,0,0,0,0,0,0,0,0,0,0,0,0,0,0,0,0,0,0,0,0,0,0,0,0,0,0
1.2461,1.251,1.251,1.2559,1.2559,1.2607,1.2607,1.2607,1.2646,1.2646,1.2646,1.2695,1.2695,1.2744,1.2744,1.2793,1.2793,1.2842,1.2842,1.2842,1.2891,1.2939,1.2988,1.2988,1.3047,1.3047,1.3096,1.3096,1.3096,1.3145,1.3145,1.3193,1.3193,1.3252,1.3252,1.3301,1.3301,1.3301,1.3301,1.3301,1.335,1.335,1.3408,1.3408,1.3457,1.3457,1.3516,1.3516,1.3457,1.3516,1.3516,1.3623,1.3682,1.3682,1.3682,1.3682,1.374,1.374,1.374,1.3789,1.3789,1.3789,1.3848,1.3906,1.3906,1.3906,1.3965,1.3965,1.3965,1.3965,1.3965,1.4023,1.4023,1.4082,1.4082,1.4141,1.4141,1.4199,1.4199,1.4199,1.4385,1.4385,1.4385,1.4385,1.4443,1.4443,1.4443,1.4502,1.4502,1.4502,1.457,1.457,1.457,1.4629,1.4629,1.1455,1.1377,1.1377,1.1377,1.1377,1.1377,1.1377,1.1338,1.1338,1.1338,1.1338,1.1338,1.1338,1.1299,1.1299,1.1299,1.1299,1.1299,1.1299,1.1299,1.1299,1.1338,1.1338,1.1338,1.1338,1.1338,1.1338,1.1338,1.1338,1.1338,1.1338,1.1338,1.1338,1.1338,1.1338,1.1338,1.1338,1.1338,1.1338,1.1416,1.1416,1.1416,1.1416,1.1416,1.1416,1.1416,1.1416,1.1416,1.1416,1.1416,1.1416,1.1416,1.1455,1.1455,1.1455,1.1455,1.1416,1.1455,1.1455,1.1494,1.1494,1.1533,1.1533,1.1533,1.1533,1.1533,1.1533,1.1533,1.1533,1.1533,1.1533,1.1533,1.1533,1.1494,1.1494,1.1533,1.1533,1.1533,1.1533,1.1533,1.1533,1.1533,1.1533,1.1533,1.1533,1.1572,1.1572,1.1572,1.1572,1.1572,1.1572,1.1572,1.1582,1.1621,1.166,1.166,1.166,1.1699,1.1699,1.1738,1.1738,1.1738,1.1699,1.1699,1.1699,1.1699,1.1699,1.1699,1.1699,1.1699,1.1699,1.1699,1.1699,1.1738,1.1699,1.1738,1.1738,1.1738,1.1738,1.1738,1.1738,1.1699,1.1738,1.1699,1.1738,1.1738,1.1738,1.1738,1.1777,1.1777,1.1777,1.1777,1.1777,1.1777,1.1777,1.1777,1.1777,1.1777,1.1777,1.1777,1.1826,1.1826,1.1865,1.1826,1.1865,1.1826,1.1865,1.1865,1.1826,1.1826,1.1826,1.1865,1.1865,1.1904,1.1865,1.1865,1.1904,1.1904,1.1904,1.1904,1.1953,1.1953,1.1953,1.1953,1.1953,1.1953,1.1953,1.1953,1.1953,1.1992,1.1992,1.1992,1.1992,1.1992,1.1992,1.1992,1.1992,1.1992,1.1992,1.1992,1.1992,1.1992,1.1992,1.1992,1.1992,1.1992,1.1992,1.1992,1.2041,1.2041,1.2041,1.2041,1.2041,1.2041,1.2041,1.2041,1.2041,1.2041,1.208,1.208,1.208,1.208,1.208,1.208,1.2129,1.2129,1.208,1.208,1.2129,1.2129,1.2168,0,0,0,0,0,0,0,0,0,0,0,0,0,0,0,0,0,0,0,0,0,0,0,0,0,0,0,0,1.4775,1.4775,1.4717,1.4717,1.4717,1.4717,1.4717,1.4648,1.4648,1.4648,1.4717,1.4648,1.4648,1.4648,1.4648,1.4648,1.459,1.459,1.4648,1.459,1.459,1.459,1.459,1.459,1.459,1.4531,1.4531,1.4531,1.459,1.459,1.459,1.459,1.459,1.4531,1.4531,1.4531,1.4463,1.4463,1.4463,1.4463,1.4463,1.4404,1.4404,1.4404,1.4346,1.4346,1.4346,1.4346,1.4346,1.4287,1.4346,1.4287,1.4287,1.4287,1.4287,1.4287,1.4287,1.4287,1.4287,1.4219,1.4219,1.4219,1.4219,1.416,1.416,1.416,1.4102,1.4102,1.4102,1.4102,1.4102,1.4102,1.4102,1.4102,1.4043,1.4043,1.4043,1.4043,1.3984,1.3994,1.3936,1.3936,1.3936,1.3877,1.3936,1.3936,1.3936,1.3936,1.3877,1.3877,1.3877,1.3877,1.3877,1.3877,1.3877,1.3877,1.3818,1.3818,1.3818,1.3877,1.3818,1.376,1.376,1.376,1.3711,1.3711,1.3711,1.3652,1.3652,1.3652,1.3652,1.3652,1.3652,1.3652,1.3652,1.3652,1.3652,1.3594,1.3652,1.3594,1.3594,1.3594,1.3545,1.3545,1.3545,1.3545,1.3486,1.3486,1.3486,1.3486,1.3486,1.3486,1.3486,1.3486,1.3486,1.3486,1.3486,1.3438,1.3486,1.3486,1.3438,1.3438,1.3438,1.3438,1.3438,1.3438,1.3389,1.3389,1.3389,1.3438,0,0,0,0,0,0,0,0,0,0,0,0,0,0,0,0,0,0,0,0,0,0,0,0,0,0,0,0,0,0,0,0
1.251,1.251,1.2559,1.2559,1.2607,1.2607,1.2607,1.2607,1.2646,1.2646,1.2646,1.2695,1.2695,1.2744,1.2744,1.2793,1.2793,1.2842,1.2842,1.2842,1.2891,1.2939,1.2939,1.2998,1.3047,1.3047,1.3096,1.3096,1.3096,1.3145,1.3145,1.3193,1.3193,1.3252,1.3301,1.3252,1.3301,1.3301,1.3301,1.3359,1.3359,1.3408,1.3408,1.3408,1.3457,1.3457,1.3516,1.3516,1.3516,1.3574,1.3574,1.3623,1.3682,1.3682,1.374,1.3682,1.374,1.374,1.374,1.3789,1.3789,1.3789,1.3848,1.3906,1.3906,1.3906,1.3965,1.3965,1.3965,1.3965,1.4023,1.4023,1.4082,1.4082,1.4082,1.4141,1.4141,1.4199,1.4199,1.4199,1.4326,1.4385,1.4385,1.4385,1.4443,1.4443,1.4443,1.4512,1.4512,1.4512,1.457,1.4512,1.457,1.4629,1.457,1.457,1.1455,1.1377,1.1416,1.1377,1.1377,1.1377,1.1377,1.1377,1.1338,1.1338,1.1338,1.1338,1.1338,1.1299,1.1299,1.1299,1.1299,1.1299,1.1299,1.1299,1.1338,1.1338,1.1338,1.1338,1.1338,1.1338,1.1338,1.1338,1.1338,1.1338,1.1338,1.1338,1.1338,1.1338,1.1338,1.1338,1.1338,1.1338,1.1416,1.1416,1.1416,1.1416,1.1416,1.1416,1.1416,1.1416,1.1416,1.1416,1.1416,1.1416,1.1455,1.1455,1.1455,1.1455,1.1455,1.1455,1.1455,1.1455,1.1494,1.1494,1.1533,1.1533,1.1533,1.1533,1.1533,1.1533,1.1533,1.1533,1.1533,1.1533,1.1533,1.1533,1.1533,1.1533,1.1533,1.1533,1.1533,1.1533,1.1533,1.1533,1.1533,1.1533,1.1533,1.1572,1.1572,1.1582,1.1582,1.1582,1.1582,1.1582,1.1582,1.1582,1.1621,1.166,1.1699,1.1699,1.1699,1.1699,1.1738,1.1738,1.1738,1.1738,1.1738,1.1738,1.1738,1.1738,1.1699,1.1699,1.1699,1.1699,1.1699,1.1699,1.1738,1.1738,1.1738,1.1738,1.1738,1.1738,1.1738,1.1738,1.1738,1.1738,1.1738,1.1738,1.1738,1.1738,1.1777,1.1777,1.1777,1.1777,1.1777,1.1777,1.1787,1.1787,1.1787,1.1787,1.1787,1.1787,1.1787,1.1826,1.1826,1.1826,1.1826,1.1826,1.1826,1.1826,1.1865,1.1865,1.1826,1.1826,1.1865,1.1865,1.1904,1.1865,1.1865,1.1865,1.1904,1.1904,1.1904,1.1953,1.1953,1.1953,1.1953,1.1953,1.1953,1.1953,1.1953,1.1953,1.1953,1.1992,1.1992,1.1992,1.1992,1.1992,1.1992,1.1992,1.1992,1.1992,1.1992,1.1992,1.1992,1.1992,1.1992,1.1992,1.2041,1.1992,1.1992,1.1992,1.1992,1.1992,1.2041,1.2041,1.2041,1.2041,1.2041,1.2041,1.2041,1.208,1.208,1.208,1.208,1.208,1.208,1.2129,1.208,1.208,1.2041,1.2129,1.2129,0,0,0,0,0,0,0,0,0,0,0,0,0,0,0,0,0,0,0,0,0,0,0,0,0,0,0,0,1.4775,1.4775,1.4775,1.4717,1.4775,1.4717,1.4717,1.4717,1.4717,1.4717,1.4648,1.4717,1.4717,1.4648,1.4648,1.4648,1.4648,1.4648,1.4648,1.4648,1.4648,1.4648,1.459,1.459,1.459,1.459,1.4531,1.4531,1.4531,1.459,1.459,1.459,1.459,1.459,1.459,1.4531,1.4463,1.4463,1.4463,1.4463,1.4463,1.4463,1.4404,1.4404,1.4404,1.4346,1.4346,1.4346,1.4346,1.4346,1.4287,1.4346,1.4287,1.4287,1.4287,1.4287,1.4287,1.4287,1.4287,1.4229,1.4229,1.4229,1.4229,1.4229,1.416,1.416,1.4102,1.416,1.416,1.4102,1.4102,1.4102,1.4102,1.4102,1.4102,1.4043,1.4043,1.4043,1.4053,1.3994,1.3994,1.3994,1.3994,1.3936,1.3936,1.3994,1.3994,1.3936,1.3936,1.3877,1.3877,1.3877,1.3877,1.3877,1.3877,1.3877,1.3877,1.3877,1.3818,1.3818,1.3877,1.3818,1.3818,1.3818,1.376,1.3711,1.3711,1.3711,1.3711,1.3652,1.3652,1.3652,1.3652,1.3652,1.3652,1.3652,1.3652,1.3652,1.3594,1.3652,1.3594,1.3594,1.3594,1.3545,1.3545,1.3545,1.3486,1.3486,1.3486,1.3486,1.3486,1.3545,1.3486,1.3486,1.3486,1.3486,1.3486,1.3486,1.3486,1.3496,1.3496,1.3438,1.3438,1.3438,1.3438,1.3438,1.3438,1.3438,1.3389,1.3389,1.3438,0,0,0,0,0,0,0,0,0,0,0,0,0,0,0,0,0,0,0,0,0,0,0,0,0,0,0,0,0,0,0,0
