1.1279,1.1279,1.1279,1.1279,1.1318,1.1318,1.1318,1.1357,1.1357,1.1357,1.1357,1.1357,1.1357,1.1396,1.1436,0,0,0,0,0,0,0,0,0,0,0,0,0,0,0,0,0,0,0,0,0,0,0,1.168,1.1641,1.1553,1.1436,1.1436,1.1436,1.1396,1.1436,1.1396,1.1396,1.1436,1.1436,1.1436,1.1436,1.1436,1.1436,1.1436,1.1436,1.1436,1.1436,1.1436,1.1436,1.1436,1.1475,1.1475,1.1475,1.1475,1.1475,1.1475,1.1475,1.1514,1.1523,1.1523,1.1523,1.1523,1.1523,1.1523,1.1562,1.1562,1.1562,1.1562,1.1562,1.1562,1.1562,1.1562,1.1602,1.1602,1.1602,1.1641,1.1641,1.1641,1.1641,1.1641,1.1641,1.1602,1.1602,1.1602,1.1602,1.1602,1.1602,1.1641,1.1602,1.1602,1.1641,1.1641,1.1641,1.1641,1.1641,1.1641,1.1641,1.1641,1.1641,1.1641,1.1641,1.1641,1.168,1.168,1.1768,1.168,1.1641,0,1.2744,1.2744,1.1934,0,1.2695,1.2695,0,0,0,0,1.1973,1.2012,1.2012,1.21,1.21,1.2148,1.2148,1.21,1.2236,1.2236,1.2324,1.2324,1.2324,1.2324,1.2373,1.2373,1.2373,1.2422,1.2461,1.251,1.251,1.251,1.2559,1.2559,1.2607,1.251,1.251,1.251,1.251,1.2559,1.2559,1.251,1.2559,1.2607,1.2656,1.2656,1.2607,1.2656,1.2656,1.2656,1.2656,1.2656,1.2656,1.2705,1.2744,1.2744,1.2793,1.2793,1.2793,1.2842,1.2949,1.2998,1.3047,1.3096,1.3096,1.3145,1.3145,1.3145,1.3203,0,1.4766,1.4766,1.4766,1.4766,1.4834,1.4834,1.4834,1.4834,1.4834,1.4834,1.4834,1.4834,1.4834,1.4834,1.4766,1.4766,1.4766,1.4766,1.4766,1.4766,1.4707,1.4707,1.4707,1.4707,1.4707,1.4639,1.4639,1.4639,1.4707,1.4707,1.4707,1.4707,1.4707,1.4707,1.4639,1.4639,1.4639,1.4639,1.4639,1.4639,1.4639,1.4639,1.4639,1.4639,1.4639,1.4639,1.4639,1.4639,1.4639,1.4639,1.4639,1.4639,1.4707,1.4639,1.4639,1.4639,1.4639,1.4639,1.4639,1.4639,1.4639,1.4639,1.4639,1.4639,1.4639,1.458,1.4648,1.4639,1.458,1.4639,1.458,1.4521,1.458,1.458,1.458,1.458,1.458,1.458,1.458,1.458,1.458,1.458,1.4521,1.4521,1.458,1.458,1.4521,1.4521,1.4521,1.4521,1.4453,1.4453,1.4453,1.4453,1.4453,1.4395,1.4453,1.4395,1.4453,1.4453,1.4453,1.4453,1.4453,1.4453,1.4453,1.4395,1.4395,1.4395,1.4395,1.4395,1.4395,1.4395,1.4395,1.4336,1.4336,1.4336,1.4336,1.4336,1.4336,1.4277,1.4336,1.4336,1.4336,1.4336,1.4336,1.4277,1.4277,1.4277,1.4277,1.4277,1.4277,1.4219,1.4219,1.4219,1.4219,1.4219,1.4219,1.4219,1.4219,1.4219,1.4219,1.4219,1.4219,1.4219,1.4219,1.416,1.416,1.416,1.416,1.416,1.416,1.416,1.416,1.4102,1.4102,1.4102,1.4102,1.4102,1.4102,1.4102,1.4043,1.4102,1.4043,1.4043,1.4043,1.4043,1.4043,1.4043,1.4043,1.4043,1.4043,1.4043,1.4043,1.4043,1.4043,1.4043,1.4043,1.4043,1.4043,1.3984,1.4043,1.3984,1.3984,1.3984,1.3984,1.3984,1.3984,1.3984,1.3984,1.3984,1.3926,1.3867,1.3867,1.3867,1.3867,1.3809,1.3867,1.3867,1.3867,1.3867,1.3867,1.3867,1.3867,1.3809,1.3809,1.3809,1.376,1.375,1.375,1.3809,1.3809,1.375,1.375,1.3809,1.3809,1.3809,1.3809,1.376,1.376,1.376,1.376,1.376,1.376,1.376,1.376,1.376,1.376,1.376,1.376,1.376,1.376,1.3701,1.3643,1.3643,1.3643,1.3643,1.3643,1.3643,1.3643,1.3643,1.3643,1.3643,1.3701,1.3643,1.3643,1.3701,1.3643,1.3643,1.3643,1.3643,1.3643,1.3643,1.3594,1.3594,1.3535,1.3535,1.3535,1.3486,1.3535,1.3486,1.3535,1.3535,1.3535,1.3486,1.3486,1.3486,1.3428,1.3486,1.3486,1.3486,1.3486,1.3428,1.3428,1.3428,1.3428,1.3428,1.3379,1.3428,1.3379,0,0,0,0,0,0,0,0,0,0,0,0,0,0,0,0,0,0,0,0,0,0,0,0,0,0,0,0,0,0
1.1318,1.1318,1.1279,1.1318,1.1318,1.1357,1.1318,1.1357,1.1357,1.1357,1.1357,1.1396,1.1396,1.1396,1.1436,0,1.2051,0,0,0,0,0,0,0,0,0,0,0,0,0,0,0,0,0,0,0,0,0,0,1.1592,1.1592,1.1514,1.1475,1.1436,1.1396,1.1436,1.1396,1.1436,1.1436,1.1436,1.1436,1.1436,1.1436,1.1436,1.1436,1.1436,1.1436,1.1436,1.1436,1.1436,1.1436,1.1475,1.1475,1.1475,1.1475,1.1475,1.1523,1.1523,1.1523,1.1523,1.1523,1.1523,1.1523,1.1523,1.1523,1.1523,1.1562,1.1562,1.1562,1.1562,1.1562,1.1562,1.1562,1.1602,1.1602,1.1602,1.1602,1.1641,1.1641,1.1641,1.1641,1.1641,1.1602,1.1602,1.1602,1.1602,1.1602,1.1602,1.1602,1.1602,1.1602,1.1602,1.1641,1.1641,1.1641,1.1641,1.1641,1.1641,1.1641,1.1641,1.1641,1.1641,1.168,1.1719,1.1719,1.1768,1.1768,1.1768,1.1846,1.1885,1.1885,0,1.2695,1.2695,1.2695,0,1.2744,1.2744,1.2744,1.2744,1.2236,1.2021,1.2021,1.2061,1.2061,1.2061,1.21,1.21,1.2148,1.2188,1.2236,1.2236,1.2285,1.2324,1.2324,1.2324,1.2373,1.2373,1.2422,1.2373,1.2373,1.2324,1.2373,1.2373,1.2422,1.2422,1.2422,1.2422,1.2461,1.251,1.2461,1.2461,1.251,1.2607,1.2607,1.2607,1.2607,1.2607,1.2656,1.2656,1.2656,1.2656,1.2705,1.2754,1.2754,1.2803,1.2803,1.2803,1.2852,1.2949,1.2949,1.3047,1.3096,1.3145,1.3203,0,0,1.4834,1.4834,1.4766,1.4766,1.4834,1.4834,1.4834,1.4766,1.4834,1.4834,1.4834,1.4834,1.4834,1.4834,1.4834,1.4834,1.4766,1.4766,1.4766,1.4766,1.4707,1.4766,1.4707,1.4707,1.4707,1.4766,1.4707,1.4707,1.4639,1.4639,1.4707,1.4707,1.4707,1.4707,1.4707,1.4707,1.4707,1.4639,1.4639,1.4639,1.4639,1.4639,1.4639,1.4639,1.4639,1.4639,1.4639,1.4639,1.4639,1.4639,1.4639,1.4639,1.4639,1.4639,1.4639,1.4639,1.4639,1.4639,1.4639,1.4639,1.4639,1.4639,1.4648,1.4648,1.4648,1.4648,1.4648,1.458,1.458,1.458,1.458,1.4648,1.458,1.458,1.458,1.458,1.458,1.458,1.458,1.458,1.458,1.458,1.458,1.458,1.4521,1.4521,1.458,1.458,1.4521,1.458,1.4521,1.4521,1.4453,1.4453,1.4521,1.4521,1.4453,1.4453,1.4453,1.4453,1.4453,1.4395,1.4453,1.4453,1.4453,1.4453,1.4453,1.4453,1.4395,1.4395,1.4395,1.4395,1.4395,1.4336,1.4336,1.4336,1.4336,1.4336,1.4336,1.4336,1.4336,1.4336,1.4336,1.4336,1.4336,1.4277,1.4336,1.4277,1.4277,1.4277,1.4277,1.4277,1.4277,1.4277,1.4277,1.4219,1.4219,1.4219,1.4219,1.4219,1.4219,1.4219,1.4219,1.4219,1.4219,1.4219,1.4219,1.4219,1.416,1.416,1.416,1.416,1.416,1.416,1.416,1.416,1.4102,1.4102,1.4102,1.416,1.4102,1.4102,1.4102,1.4102,1.4102,1.4043,1.4043,1.4043,1.4043,1.4102,1.4043,1.4043,1.4043,1.4043,1.4043,1.4043,1.4043,1.4043,1.4043,1.4043,1.4043,1.3984,1.3984,1.3984,1.3984,1.3984,1.3984,1.3984,1.3984,1.3984,1.3984,1.3984,1.3926,1.3867,1.3867,1.3867,1.3867,1.3867,1.3867,1.3867,1.3867,1.3867,1.3867,1.3867,1.3867,1.3809,1.3809,1.3809,1.3809,1.376,1.376,1.376,1.376,1.376,1.376,1.3809,1.3809,1.3809,1.3809,1.376,1.376,1.376,1.376,1.376,1.376,1.376,1.376,1.376,1.376,1.376,1.3701,1.376,1.376,1.3701,1.3643,1.3643,1.3643,1.3643,1.3643,1.3643,1.3643,1.3643,1.3643,1.3643,1.3701,1.3643,1.3643,1.3643,1.3643,1.3643,1.3643,1.3643,1.3643,1.3643,1.3594,1.3594,1.3594,1.3535,1.3535,1.3535,1.3535,1.3535,1.3535,1.3535,1.3535,1.3486,1.3486,1.3428,1.3428,1.3486,1.3486,1.3486,1.3428,1.3428,1.3428,1.3428,1.3428,1.3428,1.3379,1.3428,1.3379,0,0,0,0,0,0,0,0,0,0,0,0,0,0,0,0,0,0,0,0,0,0,0,0,0,0,0,0,0,0
1.1318,1.1318,1.1318,1.1318,1.1357,1.1357,1.1357,1.1396,1.1396,1.1396,1.1396,1.1396,1.1396,1.1396,1.1436,1.1475,0,0,0,0,0,0,0,0,0,0,0,0,0,0,0,0,0,0,0,0,0,1.168,1.1641,1.1602,1.1553,1.1514,1.1514,1.1436,1.1436,1.1436,1.1436,1.1436,1.1436,1.1396,1.1396,1.1436,1.1436,1.1436,1.1436,1.1436,1.1436,1.1436,1.1436,1.1436,1.1436,1.1484,1.1484,1.1484,1.1523,1.1523,1.1523,1.1523,1.1523,1.1523,1.1523,1.1523,1.1523,1.1523,1.1523,1.1562,1.1562,1.1562,1.1562,1.1562,1.1562,1.1562,1.1562,1.1562,1.1602,1.1602,1.1602,1.1641,1.1602,1.1602,1.1602,1.1602,1.1602,1.1602,1.1602,1.1602,1.1602,1.1602,1.1602,1.1602,1.1602,1.1602,1.1641,1.1641,1.1641,1.1641,1.1641,1.1641,1.1641,1.1641,1.168,1.168,1.168,1.1719,1.1768,1.1807,1.1807,1.1768,1.1807,1.1807,1.1807,1.1846,1.1846,1.1934,1.1934,1.1934,1.1934,1.1973,1.1973,1.2021,1.1973,1.2021,1.2021,1.2021,1.2021,1.2061,1.2021,1.2061,1.2109,1.2148,1.2197,1.2148,1.2197,1.2285,1.2324,1.2324,1.2324,1.2324,1.2324,1.2285,1.2324,1.2324,1.2373,1.2373,1.2373,1.2373,1.2422,1.2422,1.2461,1.251,1.251,1.2461,1.251,1.2559,1.2607,1.2607,1.2607,1.2607,1.2656,1.2656,1.2656,1.2607,1.2656,1.2705,1.2754,1.2803,1.2803,1.2803,0,0,0,0,0,1.4902,1.4834,1.4834,1.4834,1.4834,1.4834,1.4766,1.4834,1.4834,1.4834,1.4834,1.4766,1.4766,1.4766,1.4834,1.4834,1.4766,1.4834,1.4766,1.4834,1.4766,1.4766,1.4766,1.4766,1.4766,1.4766,1.4766,1.4707,1.4766,1.4766,1.4766,1.4707,1.4707,1.4639,1.4707,1.4707,1.4639,1.4639,1.4707,1.4707,1.4639,1.4707,1.4639,1.4639,1.4707,1.4639,1.4639,1.4639,1.4639,1.458,1.4639,1.4639,1.4639,1.4639,1.4639,1.4639,1.4639,1.4639,1.4648,1.4648,1.4707,1.4648,1.4648,1.4648,1.4648,1.4648,1.4648,1.4648,1.4648,1.4648,1.4648,1.458,1.458,1.458,1.458,1.458,1.458,1.458,1.458,1.458,1.458,1.458,1.458,1.458,1.458,1.458,1.458,1.458,1.458,1.458,1.458,1.458,1.4521,1.458,1.4521,1.4521,1.4453,1.4521,1.4521,1.4521,1.4521,1.4453,1.4453,1.4453,1.4453,1.4453,1.4453,1.4463,1.4463,1.4463,1.4463,1.4463,1.4463,1.4395,1.4395,1.4395,1.4395,1.4395,1.4336,1.4336,1.4336,1.4395,1.4395,1.4336,1.4336,1.4336,1.4336,1.4336,1.4336,1.4277,1.4277,1.4277,1.4277,1.4277,1.4277,1.4277,1.4277,1.4277,1.4277,1.4277,1.4219,1.4219,1.4219,1.4219,1.4219,1.4219,1.4219,1.4219,1.4219,1.4219,1.4219,1.4219,1.416,1.416,1.416,1.416,1.416,1.416,1.416,1.416,1.416,1.416,1.4102,1.416,1.4102,1.4102,1.4102,1.4102,1.4102,1.4102,1.4102,1.4102,1.4102,1.4102,1.4043,1.4043,1.4043,1.4043,1.4043,1.3984,1.4043,1.4043,1.4043,1.3984,1.3984,1.3984,1.3984,1.4043,1.3984,1.3984,1.3984,1.3984,1.3984,1.3984,1.3984,1.3984,1.3926,1.3926,1.3867,1.3867,1.3867,1.3867,1.3867,1.3867,1.3867,1.3867,1.3867,1.3867,1.3867,1.3809,1.376,1.3809,1.376,1.376,1.376,1.376,1.376,1.376,1.3809,1.3809,1.3809,1.3809,1.3809,1.376,1.376,1.376,1.376,1.376,1.376,1.376,1.376,1.376,1.376,1.3701,1.3701,1.3701,1.3701,1.3701,1.3643,1.3643,1.3643,1.3643,1.3643,1.3643,1.3643,1.3643,1.3643,1.3701,1.3701,1.3701,1.3701,1.3701,1.3643,1.3643,1.3643,1.3643,1.3643,1.3643,1.3594,1.3594,1.3594,1.3535,1.3535,1.3652,1.3535,1.3535,1.3535,1.3535,1.3486,1.3486,1.3486,1.3486,1.3428,1.3486,1.3486,1.3486,1.3486,1.3428,1.3428,1.3428,1.3428,1.3428,1.3379,1.3379,1.3379,0,0,0,0,0,0,0,0,0,0,0,0,0,0,0,0,0,0,0,0,0,0,0,0,0,0,0,0,0,0
1.1318,1.1318,1.1318,1.1318,1.1318,1.1357,1.1357,1.1396,1.1396,1.1396,1.1396,1.1396,1.1396,1.1396,1.1396,1.1436,1.1436,0,0,0,0,0,0,0,0,0,0,0,0,0,0,0,0,0,0,0,1.168,1.1641,1.1641,1.1602,1.1562,1.1514,1.1475,1.1436,1.1436,1.1436,1.1436,1.1436,1.1436,1.1436,1.1436,1.1406,1.1406,1.1445,1.1445,1.1445,1.1445,1.1445,1.1445,1.1445,1.1445,1.1484,1.1484,1.1484,1.1484,1.1523,1.1523,1.1523,1.1523,1.1523,1.1562,1.1523,1.1562,1.1562,1.1562,1.1562,1.1562,1.1562,1.1523,1.1523,1.1523,1.1562,1.1562,1.1562,1.1562,1.1602,1.1602,1.1602,1.1602,1.1602,1.1602,1.1602,1.1602,1.1641,1.1602,1.1602,1.1602,1.1602,1.1602,1.1602,1.1602,1.1602,1.1602,1.1641,1.1641,1.1641,1.1641,1.1641,1.1641,1.168,1.168,1.1729,1.1729,1.1729,1.1768,1.1768,1.1768,1.1807,1.1807,1.1807,1.1846,1.1846,1.1895,1.1846,1.1895,1.1846,1.1895,1.1973,1.1973,1.2021,1.1973,1.1973,1.2021,1.2021,1.2021,1.2061,1.2021,1.2061,1.2061,1.2109,1.2148,1.2148,1.2197,1.2197,1.2197,1.2236,1.2236,1.2285,1.2285,1.2236,1.2236,1.2285,1.2324,1.2324,1.2324,1.2324,1.2373,1.2422,1.2461,1.2461,1.2461,1.2471,1.251,1.2559,1.2607,1.2607,1.2607,1.2607,1.2656,1.2656,1.2656,1.2607,1.2705,1.2705,1.2754,1.2803,1.2803,0,1.4961,0,1.4961,1.4902,1.4834,1.4834,1.4834,1.4834,1.4834,1.4834,1.4834,1.4834,1.4834,1.4834,1.4834,1.4834,1.4766,1.4834,1.4834,1.4834,1.4834,1.4766,1.4834,1.4766,1.4834,1.4766,1.4766,1.4766,1.4766,1.4766,1.4766,1.4766,1.4766,1.4766,1.4766,1.4775,1.4775,1.4707,1.4707,1.4707,1.4639,1.4707,1.4639,1.4707,1.4707,1.4707,1.4707,1.4707,1.4707,1.4707,1.4707,1.4639,1.4639,1.4639,1.4639,1.4639,1.4648,1.4648,1.4648,1.4648,1.4648,1.4648,1.4707,1.4648,1.4648,1.4707,1.4648,1.4648,1.4648,1.4648,1.4648,1.4648,1.4648,1.4648,1.4648,1.4648,1.4648,1.4648,1.4648,1.4648,1.4648,1.458,1.458,1.458,1.458,1.458,1.458,1.458,1.458,1.458,1.458,1.458,1.458,1.4521,1.458,1.4521,1.4521,1.4521,1.4521,1.4521,1.4521,1.4521,1.4521,1.4521,1.4521,1.4521,1.4521,1.4463,1.4463,1.4463,1.4463,1.4463,1.4463,1.4463,1.4463,1.4463,1.4463,1.4463,1.4463,1.4395,1.4395,1.4395,1.4395,1.4395,1.4395,1.4395,1.4395,1.4395,1.4395,1.4395,1.4395,1.4395,1.4336,1.4336,1.4277,1.4277,1.4277,1.4277,1.4277,1.4277,1.4277,1.4277,1.4277,1.4277,1.4277,1.4277,1.4219,1.4219,1.4219,1.4277,1.4277,1.4277,1.4277,1.4219,1.4219,1.4219,1.4219,1.416,1.416,1.416,1.416,1.416,1.416,1.416,1.416,1.416,1.416,1.416,1.416,1.4102,1.416,1.4102,1.4102,1.4102,1.4102,1.4102,1.4102,1.4102,1.4102,1.4043,1.4043,1.4043,1.4043,1.4043,1.4043,1.4043,1.3984,1.4043,1.3984,1.3984,1.3984,1.3984,1.4043,1.3984,1.3984,1.3984,1.3984,1.4043,1.3984,1.3984,1.3984,1.3926,1.3926,1.3867,1.3867,1.3867,1.3867,1.3867,1.3867,1.3867,1.3867,1.3867,1.3867,1.3867,1.3809,1.3809,1.376,1.376,1.376,1.376,1.376,1.376,1.3818,1.3818,1.3867,1.3867,1.3818,1.3818,1.3818,1.376,1.376,1.376,1.376,1.376,1.376,1.376,1.376,1.376,1.3701,1.3701,1.3701,1.3701,1.3701,1.3643,1.3643,1.3643,1.3701,1.3701,1.3701,1.3643,1.3643,1.3701,1.3701,1.3701,1.3643,1.3643,1.3652,1.3652,1.3652,1.3652,1.3652,1.3652,1.3652,1.3652,1.3594,1.3594,1.3535,1.3535,1.3535,1.3535,1.3535,1.3535,1.3535,1.3535,1.3535,1.3486,1.3486,1.3428,1.3486,1.3486,1.3486,1.3486,1.3486,1.3428,1.3428,1.3428,1.3428,1.3379,1.3428,1.3379,0,0,0,0,0,0,0,0,0,0,0,0,0,0,0,0,0,0,0,0,0,0,0,0,0,0,0,0,0,0
1.1289,1.1289,1.1318,1.1318,1.1318,1.1357,1.1357,1.1357,1.1396,1.1396,1.1396,1.1396,1.1357,1.1396,1.1396,1.1396,1.1436,0,1.1475,0,0,0,0,0,0,0,0,0,1.1553,1.1514,1.1514,1.1514,0,0,0,0,1.1719,1.1602,1.1602,1.1562,1.1562,1.1523,1.1475,1.1436,1.1436,1.1445,1.1445,1.1406,1.1406,1.1406,1.1406,1.1406,1.1406,1.1406,1.1445,1.1445,1.1406,1.1445,1.1445,1.1445,1.1445,1.1484,1.1484,1.1484,1.1484,1.1523,1.1523,1.1523,1.1523,1.1523,1.1562,1.1562,1.1562,1.1562,1.1562,1.1562,1.1602,1.1602,1.1523,1.1523,1.1523,1.1562,1.1562,1.1523,1.1562,1.1562,1.1602,1.1602,1.1562,1.1602,1.1602,1.1602,1.1602,1.1602,1.1602,1.1602,1.1602,1.1602,1.1602,1.1602,1.1602,1.1602,1.1641,1.1641,1.1641,1.1641,1.1641,1.1641,1.1641,1.168,1.168,1.1729,1.1729,1.1768,1.1768,1.1768,1.1768,1.1768,1.1807,1.1807,1.1807,1.1846,1.1846,1.1846,1.1895,1.1846,1.1895,0,1.2021,1.2021,1.1973,1.2021,1.2021,1.2021,1.2021,1.2021,1.2021,1.2021,1.2061,1.2109,1.2148,1.2148,1.2148,1.2148,1.2197,1.2236,1.2236,1.2236,1.2285,1.2236,1.2285,1.2285,1.2324,1.2324,1.2324,1.2324,1.2373,1.2373,1.2471,1.2471,1.2471,1.2471,1.251,1.2559,1.2559,1.2607,1.2607,0,0,1.4961,1.4961,1.4902,1.2607,1.4961,1.4971,1.4902,1.4971,1.4902,1.4971,1.4902,1.4902,1.4834,1.4834,1.4834,1.4834,1.4834,1.4834,1.4834,1.4834,1.4834,1.4834,1.4834,1.4834,1.4834,1.4834,1.4834,1.4834,1.4834,1.4834,1.4834,1.4834,1.4766,1.4834,1.4766,1.4766,1.4775,1.4775,1.4775,1.4775,1.4775,1.4775,1.4775,1.4775,1.4775,1.4775,1.4775,1.4707,1.4707,1.4707,1.4707,1.4707,1.4707,1.4707,1.4707,1.4707,1.4707,1.4707,1.4707,1.4707,1.4648,1.4648,1.4648,1.4648,1.4648,1.4707,1.4648,1.4648,1.4648,1.4648,1.4648,1.4707,1.4707,1.4707,1.4707,1.4648,1.4648,1.4648,1.4648,1.4648,1.4648,1.4648,1.4648,1.4648,1.4648,1.4648,1.4648,1.4648,1.4648,1.458,1.458,1.458,1.458,1.458,1.458,1.458,1.458,1.458,1.458,1.458,1.458,1.458,1.458,1.458,1.458,1.4521,1.4521,1.4521,1.4521,1.4463,1.4521,1.4521,1.4521,1.4521,1.4521,1.4521,1.4463,1.4463,1.4463,1.4463,1.4463,1.4463,1.4463,1.4463,1.4463,1.4463,1.4463,1.4463,1.4463,1.4395,1.4395,1.4395,1.4395,1.4395,1.4395,1.4395,1.4395,1.4395,1.4395,1.4395,1.4395,1.4336,1.4336,1.4277,1.4277,1.4277,1.4277,1.4277,1.4277,1.4277,1.4336,1.4277,1.4277,1.4277,1.4219,1.4219,1.4219,1.4219,1.4277,1.4277,1.4277,1.4277,1.4219,1.4219,1.4219,1.4219,1.416,1.416,1.416,1.416,1.416,1.416,1.416,1.416,1.416,1.416,1.416,1.4219,1.416,1.416,1.416,1.416,1.416,1.416,1.4102,1.416,1.4102,1.416,1.4102,1.4043,1.4043,1.4043,1.4043,1.4043,1.4043,1.4043,1.4043,1.4043,1.3984,1.3984,1.4043,1.4043,1.3984,1.3984,1.3984,1.3984,1.3984,1.3984,1.3984,1.3984,1.3984,1.3984,1.3926,1.3926,1.3867,1.3867,1.3926,1.3926,1.3867,1.3867,1.3867,1.3867,1.3867,1.3809,1.3818,1.376,1.376,1.376,1.376,1.3818,1.376,1.3818,1.3867,1.3867,1.3867,1.3867,1.3867,1.3818,1.3818,1.3818,1.376,1.376,1.376,1.376,1.376,1.376,1.3701,1.3701,1.3701,1.3701,1.376,1.3701,1.3701,1.3701,1.3701,1.3701,1.3701,1.3701,1.3701,1.3701,1.3701,1.3701,1.3701,1.3652,1.3652,1.3652,1.3652,1.3652,1.3652,1.3652,1.3652,1.3652,1.3652,1.3594,1.3594,1.3535,1.3535,1.3535,1.3535,1.3535,1.3535,1.3535,1.3486,1.3486,1.3486,1.3486,1.3428,1.3486,1.3486,1.3486,1.3486,1.3486,1.3428,1.3428,1.3428,1.3428,1.3428,1.3428,1.3379,0,0,0,0,0,0,0,0,0,0,0,0,0,0,0,0,0,0,0,0,0,0,0,0,0,0,0,0,0,0
1.1318,1.1318,1.1318,1.1318,1.1318,1.1357,1.1318,1.1357,1.1357,1.1357,1.1328,1.1357,1.1289,1.1289,1.1289,1.1289,1.1396,1.1396,1.1436,1.1436,1.1436,0,0,0,0,1.1602,1.1436,1.1562,1.1523,1.1523,1.1523,1.1523,1.1289,1.1367,0,1.1289,1.1289,1.1289,1.1562,1.1523,1.1523,1.1445,1.1445,1.1445,1.1406,1.1406,1.1406,1.1406,1.1406,1.1406,1.1406,1.1406,1.1406,1.1406,1.1406,1.1406,1.1406,1.1406,1.1406,1.1406,1.1406,1.1445,1.1445,1.1445,1.1484,1.1484,1.1523,1.1523,1.1523,1.1523,1.1523,1.1523,1.1523,1.1484,1.1562,1.1562,1.1562,1.1523,1.1523,1.1484,1.1523,1.1523,1.1484,1.1484,1.1484,1.1523,1.1523,1.1562,1.1523,1.1562,1.1602,1.1602,1.1602,1.1602,1.1602,1.1602,1.1602,1.1602,1.1602,1.1602,1.1602,1.1602,1.1641,1.1641,1.1641,1.1641,1.1641,1.1641,1.168,1.168,1.168,1.1729,1.1729,1.1768,1.1768,1.1768,1.1768,1.1768,1.1807,1.1807,1.1807,1.1807,1.1807,1.1846,1.1846,1.1846,1.1895,1.1973,1.2021,1.2021,1.2021,1.2021,1.2021,1.2021,1.2021,1.2021,1.2021,1.2061,1.2061,1.2109,1.2109,1.2148,1.2148,1.2148,1.2197,1.2197,1.2197,1.2197,1.2285,1.2236,1.2285,1.2285,1.2324,1.2334,1.2334,1.2334,1.2373,1.2373,1.2422,1.2471,1.2471,1.2471,1.2559,1.2559,1.2559,1.2607,0,0,1.4971,1.4971,1.4971,1.4902,1.4971,1.4902,1.4971,1.4902,1.4971,1.4971,1.4971,1.4902,1.4902,1.4902,1.4902,1.4834,1.4834,1.4834,1.4834,1.4834,1.4834,1.4834,1.4834,1.4834,1.4834,1.4834,1.4834,1.4834,1.4834,1.4834,1.4834,1.4834,1.4834,1.4775,1.4834,1.4775,1.4775,1.4775,1.4775,1.4775,1.4775,1.4775,1.4775,1.4775,1.4775,1.4775,1.4775,1.4775,1.4775,1.4707,1.4707,1.4707,1.4707,1.4707,1.4707,1.4707,1.4707,1.4707,1.4707,1.4707,1.4707,1.4707,1.4648,1.4648,1.4648,1.4707,1.4707,1.4648,1.4648,1.4648,1.4648,1.4707,1.4707,1.4707,1.4707,1.4707,1.4707,1.4648,1.4707,1.4648,1.4648,1.4648,1.4648,1.4648,1.4648,1.4648,1.4648,1.4648,1.4648,1.458,1.458,1.458,1.458,1.458,1.458,1.458,1.458,1.458,1.458,1.458,1.458,1.458,1.458,1.458,1.458,1.458,1.458,1.4521,1.4521,1.4521,1.4521,1.4521,1.459,1.459,1.4521,1.4521,1.4521,1.4463,1.4463,1.4463,1.4463,1.4463,1.4463,1.4463,1.4463,1.4463,1.4463,1.4463,1.4463,1.4463,1.4395,1.4395,1.4395,1.4395,1.4395,1.4463,1.4395,1.4395,1.4395,1.4395,1.4395,1.4395,1.4336,1.4336,1.4277,1.4277,1.4277,1.4277,1.4277,1.4277,1.4277,1.4336,1.4277,1.4277,1.4277,1.4277,1.4277,1.4277,1.4277,1.4277,1.4277,1.4277,1.4277,1.4277,1.4219,1.4219,1.4219,1.416,1.416,1.416,1.416,1.416,1.416,1.416,1.416,1.416,1.416,1.416,1.4219,1.416,1.416,1.416,1.416,1.416,1.4102,1.4102,1.416,1.4102,1.4102,1.4043,1.4043,1.4043,1.4043,1.4043,1.4043,1.4043,1.4043,1.4043,1.4043,1.4043,1.4043,1.4043,1.4043,1.3984,1.3984,1.3984,1.3984,1.3984,1.3984,1.3984,1.3984,1.3984,1.3984,1.3926,1.3926,1.3926,1.3926,1.3926,1.3926,1.3867,1.3926,1.3867,1.3867,1.3867,1.3867,1.3818,1.3818,1.3818,1.3818,1.376,1.3818,1.3818,1.3818,1.3818,1.3867,1.3867,1.3867,1.3867,1.3818,1.3818,1.3818,1.3818,1.376,1.376,1.376,1.376,1.376,1.376,1.3701,1.3701,1.3701,1.376,1.376,1.3701,1.3701,1.3701,1.3701,1.3701,1.3701,1.3701,1.3701,1.3701,1.3701,1.3652,1.3652,1.3652,1.3652,1.3652,1.3652,1.3652,1.3652,1.3652,1.3652,1.3594,1.3594,1.3594,1.3535,1.3535,1.3535,1.3535,1.3535,1.3535,1.3535,1.3486,1.3486,1.3486,1.3486,1.3486,1.3545,1.3486,1.3486,1.3486,1.3486,1.3486,1.3486,1.3486,1.3428,1.3428,1.3438,1.3438,0,0,0,0,0,0,0,0,0,0,0,0,0,0,0,0,0,0,0,0,0,0,0,0,0,0,0,0,0,0
1.1289,1.1289,1.1328,1.1328,1.1289,1.125,0,1.1328,1.1328,1.1328,1.1328,1.1289,1.1172,1.1172,1.1133,1.1367,1.1367,1.1367,1.1396,1.1328,1.1367,0,0,0,1.1104,1.1328,1.1367,1.1484,1.1484,1.1484,1.1406,1.125,1.125,1.1367,1.1289,1.1289,1.1289,1.1289,1.1289,1.1328,1.1328,1.1328,1.1328,1.1328,1.1328,1.1406,1.1367,1.1367,1.1406,1.1367,1.1367,1.1367,1.1367,1.1367,1.1367,1.1367,1.1367,1.1367,1.1367,1.1328,1.1328,1.1367,1.1406,1.1406,1.1406,1.1445,1.1484,1.1484,1.1484,1.1484,1.1484,1.1484,1.1484,1.1484,1.1484,1.1484,1.1523,1.1523,1.1484,1.1484,1.1484,1.1484,1.1484,1.1445,1.1445,1.1484,1.1484,1.1523,1.1484,1.1562,1.1602,1.1602,1.1602,1.1602,1.1602,1.1602,1.1602,1.1602,1.1562,1.1562,1.1602,1.1602,1.1641,1.1641,1.1641,1.1641,1.1641,1.1641,1.168,1.168,1.168,1.168,1.1729,1.1729,1.1729,1.1768,1.1768,1.1768,1.1807,1.1807,1.1807,1.1807,1.1807,1.1807,1.1846,1.1846,1.1895,1.1934,1.1973,1.1973,1.1973,1.1973,1.1973,1.1973,1.2021,1.2021,1.2021,1.2021,1.2021,1.2109,1.2148,1.2148,1.2148,1.2148,1.2148,1.2197,1.2197,1.2148,1.2197,1.2236,1.2285,1.2285,1.2334,1.2373,1.2334,1.2334,1.2373,1.2373,1.2373,0,0,1.4834,1.4834,1.4834,1.4902,1.4902,1.4902,1.4902,1.4902,1.4902,1.4902,1.4902,1.4902,1.4902,1.4902,1.4902,1.4971,1.4971,1.4971,1.4902,1.4902,1.4902,1.4834,1.4834,1.4775,1.4834,1.4834,1.4834,1.4834,1.4834,1.4834,1.4834,1.4834,1.4834,1.4834,1.4834,1.4834,1.4834,1.4834,1.4834,1.4834,1.4775,1.4834,1.4775,1.4775,1.4775,1.4775,1.4775,1.4775,1.4775,1.4775,1.4775,1.4775,1.4775,1.4775,1.4775,1.4775,1.4707,1.4707,1.4775,1.4775,1.4775,1.4775,1.4775,1.4775,1.4775,1.4707,1.4707,1.4707,1.4707,1.4707,1.4707,1.4648,1.4707,1.4707,1.4707,1.4648,1.4648,1.4648,1.4707,1.4707,1.4707,1.4707,1.4707,1.4707,1.4707,1.4707,1.4707,1.4648,1.4648,1.4707,1.4648,1.4648,1.4648,1.4648,1.4648,1.4648,1.4648,1.458,1.458,1.458,1.458,1.458,1.458,1.458,1.458,1.458,1.458,1.458,1.458,1.458,1.458,1.459,1.459,1.4521,1.4521,1.4521,1.4463,1.4463,1.459,1.459,1.459,1.459,1.4521,1.4521,1.4521,1.4463,1.4395,1.4395,1.4463,1.4463,1.4463,1.4463,1.4463,1.4463,1.4463,1.4463,1.4463,1.4463,1.4395,1.4395,1.4395,1.4404,1.4404,1.4404,1.4404,1.4404,1.4404,1.4404,1.4404,1.4404,1.4336,1.4277,1.4336,1.4277,1.4277,1.4277,1.4277,1.4277,1.4277,1.4277,1.4277,1.4277,1.4277,1.4277,1.4277,1.4277,1.4277,1.4277,1.4277,1.4277,1.4277,1.4219,1.4219,1.4219,1.4219,1.416,1.416,1.416,1.416,1.416,1.416,1.416,1.416,1.416,1.416,1.4219,1.416,1.4219,1.416,1.416,1.416,1.416,1.416,1.416,1.416,1.416,1.4102,1.4102,1.4043,1.4043,1.4043,1.4043,1.4043,1.4043,1.4043,1.4043,1.4043,1.4043,1.3984,1.3984,1.3984,1.3984,1.3984,1.3984,1.3984,1.3984,1.3984,1.3984,1.3984,1.3984,1.3984,1.3984,1.3926,1.3926,1.3926,1.3926,1.3867,1.3926,1.3867,1.3867,1.3867,1.3867,1.3818,1.3818,1.3818,1.3818,1.3818,1.3818,1.376,1.3818,1.3877,1.3926,1.3877,1.3877,1.3877,1.3877,1.3877,1.3877,1.3818,1.3818,1.3818,1.3818,1.3818,1.376,1.376,1.376,1.376,1.376,1.376,1.3701,1.3701,1.3701,1.3701,1.3701,1.3701,1.3701,1.3701,1.3701,1.3701,1.3701,1.3652,1.3652,1.3652,1.3652,1.3652,1.3652,1.3652,1.3652,1.3652,1.3652,1.3594,1.3594,1.3594,1.3594,1.3594,1.3545,1.3594,1.3594,1.3545,1.3545,1.3486,1.3486,1.3486,1.3486,1.3438,1.3486,1.3486,1.3486,1.3486,1.3486,1.3486,1.3438,1.3438,1.3438,1.3379,1.3438,1.3438,0,0,0,0,0,0,0,0,0,0,0,0,0,0,0,0,0,0,0,0,0,0,0,0,0,0,0,0,0,0
1.1211,1.125,1.1328,1.1328,1.125,1.1172,1.1211,1.1289,1.125,1.1289,1.1172,1.1133,1.1133,1.1133,1.1133,1.1133,1.1133,1.1133,1.1133,1.1104,1.1104,1.1104,1.1104,1.1064,1.1133,1.1104,1.1133,1.1143,1.125,1.125,1.125,1.1172,1.1172,1.1172,1.1211,1.1211,1.1211,1.125,1.1211,1.125,1.125,1.125,1.125,1.125,1.1211,1.125,1.125,1.125,1.125,1.125,1.1289,1.1289,1.1289,1.1328,1.1328,1.1367,1.1328,1.1328,1.1328,1.1289,1.1328,1.1328,1.1367,1.1367,1.1367,1.1367,1.1406,1.1445,1.1406,1.1445,1.1445,1.1445,1.1445,1.1445,1.1445,1.1484,1.1484,1.1484,1.1484,1.1484,1.1484,1.1484,1.1445,1.1445,1.1445,1.1445,1.1445,1.1484,1.1484,1.1523,1.1562,1.1562,1.1562,1.1562,1.1602,1.1602,1.1602,1.1602,1.1562,1.1602,1.1602,1.1602,1.1641,1.1641,1.1641,1.1641,1.1641,1.168,1.1689,1.1689,1.1689,1.1689,1.1729,1.1768,1.1729,1.1768,1.1768,1.1768,1.1807,1.1807,1.1807,1.1807,1.1807,1.1846,1.1846,1.1846,1.1895,1.1934,1.1973,1.1973,1.1982,1.1982,1.1982,1.2021,1.2021,1.2021,1.2021,1.2021,1.2061,1.2109,1.2148,1.2148,1.2148,1.2148,1.2197,1.2197,1.2197,1.2148,1.2197,1.2236,1.2285,1.2285,1.2334,1.2334,1.2334,1.2334,0,0,1.4834,1.4902,1.4834,1.4834,1.4834,1.4902,1.4971,1.4971,1.4971,1.4902,1.4971,1.4902,1.4902,1.4902,1.4902,1.4902,1.4902,1.4902,1.4971,1.4971,1.4902,1.4902,1.4902,1.4902,1.4834,1.4834,1.4834,1.4834,1.4834,1.4834,1.4834,1.4834,1.4834,1.4834,1.4834,1.4834,1.4834,1.4902,1.4834,1.4834,1.4834,1.4834,1.4834,1.4834,1.4775,1.4775,1.4775,1.4775,1.4775,1.4775,1.4775,1.4775,1.4775,1.4775,1.4775,1.4775,1.4775,1.4775,1.4775,1.4775,1.4775,1.4775,1.4775,1.4775,1.4775,1.4775,1.4775,1.4775,1.4775,1.4775,1.4775,1.4707,1.4707,1.4707,1.4648,1.4707,1.4707,1.4707,1.4648,1.4707,1.4707,1.4775,1.4775,1.4775,1.4775,1.4775,1.4707,1.4707,1.4707,1.4707,1.4648,1.4648,1.4648,1.4707,1.4648,1.4707,1.4648,1.4648,1.4648,1.4648,1.458,1.458,1.458,1.458,1.458,1.458,1.458,1.458,1.459,1.459,1.459,1.459,1.459,1.459,1.459,1.459,1.459,1.4521,1.4521,1.4463,1.4463,1.4521,1.459,1.459,1.4521,1.4521,1.4521,1.4463,1.4463,1.4463,1.4404,1.4463,1.4463,1.4463,1.4463,1.4463,1.4463,1.4463,1.4463,1.4463,1.4463,1.4463,1.4463,1.4404,1.4463,1.4463,1.4404,1.4404,1.4404,1.4404,1.4404,1.4404,1.4404,1.4404,1.4336,1.4336,1.4336,1.4336,1.4277,1.4277,1.4277,1.4277,1.4277,1.4277,1.4277,1.4277,1.4277,1.4277,1.4277,1.4277,1.4277,1.4277,1.4277,1.4277,1.4277,1.4277,1.4219,1.4219,1.4219,1.416,1.416,1.416,1.416,1.416,1.416,1.416,1.416,1.416,1.4219,1.4219,1.4219,1.4219,1.416,1.416,1.416,1.416,1.416,1.416,1.416,1.4102,1.4102,1.4102,1.4043,1.4043,1.4043,1.4043,1.4043,1.4043,1.4043,1.4043,1.4043,1.4043,1.3984,1.3984,1.3984,1.3984,1.3984,1.3984,1.3984,1.3984,1.3984,1.3984,1.3984,1.3984,1.3984,1.3984,1.3984,1.3984,1.3984,1.3926,1.3926,1.3926,1.3867,1.3867,1.3877,1.3818,1.3818,1.3818,1.3818,1.3818,1.3818,1.376,1.3818,1.3818,1.3877,1.3877,1.3877,1.3877,1.3877,1.3877,1.3818,1.3818,1.3818,1.3818,1.3818,1.3818,1.376,1.3818,1.376,1.376,1.376,1.376,1.3701,1.3701,1.3701,1.3652,1.3701,1.3701,1.3701,1.3701,1.3701,1.3701,1.3701,1.3701,1.3701,1.3652,1.3652,1.3652,1.3652,1.3652,1.3652,1.3652,1.3652,1.3594,1.3594,1.3594,1.3594,1.3594,1.3594,1.3594,1.3594,1.3545,1.3545,1.3545,1.3486,1.3486,1.3486,1.3438,1.3486,1.3486,1.3486,1.3486,1.3486,1.3486,1.3438,1.3438,1.3438,1.3379,1.3438,1.3438,0,0,0,0,0,0,0,0,0,0,0,0,0,0,0,0,0,0,0,0,0,0,0,0,0,0,0,0,0,0
1.1172,1.1172,1.1211,1.125,1.125,1.1133,1.1133,1.1133,1.1133,1.1133,1.1133,1.1104,1.1104,1.1133,1.1133,1.1133,1.1133,1.1104,1.1104,1.1104,1.1104,1.1104,1.1104,1.1064,1.1104,1.1143,1.1143,1.1143,1.1172,1.1143,1.1172,1.1143,1.1143,1.1172,1.1172,1.1172,1.1172,1.1211,1.1211,1.1211,1.1211,1.1211,1.1211,1.1211,1.1211,1.1211,1.125,1.1211,1.1211,1.1211,1.125,1.125,1.125,1.1289,1.1289,1.1289,1.125,1.1289,1.125,1.125,1.1328,1.1328,1.1328,1.1367,1.1367,1.1367,1.1367,1.1367,1.1367,1.1406,1.1367,1.1367,1.1367,1.1367,1.1367,1.1406,1.1445,1.1445,1.1445,1.1445,1.1445,1.1445,1.1445,1.1445,1.1445,1.1445,1.1445,1.1484,1.1484,1.1484,1.1523,1.1523,1.1562,1.1562,1.1562,1.1562,1.1523,1.1562,1.1562,1.1562,1.1562,1.1602,1.1602,1.1641,1.1641,1.1641,1.1641,1.1641,1.1689,1.1689,1.1729,1.1729,1.1768,1.1768,1.1768,1.1768,1.1768,1.1768,1.1807,1.1807,1.1807,1.1807,1.1807,1.1855,1.1855,1.1855,1.1895,1.1895,1.1934,1.1982,1.1982,1.1982,1.1982,1.2021,1.2021,1.2021,1.2021,1.2021,1.2148,1.2148,1.2148,1.2148,1.2148,1.2148,1.2197,1.2197,1.2197,1.2197,1.2197,1.2236,1.2285,0,0,0,1.4971,1.4971,1.4902,1.4902,1.4902,1.4902,1.4834,1.4834,1.4902,1.4902,1.4902,1.4971,1.4971,1.4971,1.4971,1.4971,1.4902,1.4902,1.4902,1.4902,1.4834,1.4834,1.4971,1.4902,1.4902,1.4902,1.4902,1.4902,1.4834,1.4834,1.4834,1.4834,1.4834,1.4834,1.4834,1.4834,1.4834,1.4834,1.4834,1.4834,1.4834,1.4834,1.4834,1.4834,1.4834,1.4834,1.4834,1.4834,1.4775,1.4775,1.4775,1.4775,1.4707,1.4775,1.4775,1.4775,1.4775,1.4775,1.4775,1.4775,1.4775,1.4775,1.4775,1.4775,1.4775,1.4775,1.4775,1.4775,1.4775,1.4775,1.4775,1.4775,1.4775,1.4775,1.4775,1.4775,1.4707,1.4707,1.4648,1.4707,1.4707,1.4707,1.4648,1.4648,1.4707,1.4707,1.4844,1.4775,1.4775,1.4775,1.4707,1.4775,1.4775,1.4707,1.4648,1.4707,1.4717,1.4717,1.4717,1.4717,1.4717,1.4648,1.4648,1.4648,1.459,1.459,1.459,1.459,1.459,1.459,1.459,1.459,1.459,1.459,1.459,1.4648,1.459,1.459,1.459,1.459,1.459,1.4521,1.459,1.4521,1.4521,1.4521,1.4521,1.459,1.4521,1.4521,1.4521,1.4463,1.4463,1.4463,1.4404,1.4463,1.4463,1.4463,1.4463,1.4463,1.4463,1.4463,1.4521,1.4521,1.4463,1.4463,1.4463,1.4463,1.4463,1.4463,1.4404,1.4404,1.4404,1.4463,1.4404,1.4404,1.4404,1.4404,1.4336,1.4336,1.4336,1.4336,1.4336,1.4277,1.4277,1.4277,1.4277,1.4277,1.4277,1.4277,1.4277,1.4277,1.4277,1.4277,1.4277,1.4277,1.4277,1.4277,1.4277,1.4219,1.4219,1.4219,1.4219,1.4219,1.4219,1.416,1.416,1.416,1.416,1.416,1.416,1.416,1.4219,1.4219,1.4219,1.416,1.4219,1.416,1.416,1.416,1.416,1.416,1.416,1.416,1.4102,1.4102,1.4102,1.4043,1.4043,1.4043,1.4043,1.4043,1.4043,1.4043,1.4043,1.4043,1.3984,1.3984,1.3984,1.3984,1.3984,1.3984,1.3984,1.3984,1.3984,1.3984,1.3984,1.3984,1.3984,1.3926,1.3984,1.3984,1.3984,1.3926,1.3926,1.3877,1.3877,1.3926,1.3877,1.3818,1.3818,1.3818,1.3818,1.3818,1.3818,1.376,1.3818,1.3818,1.3877,1.3877,1.3877,1.3818,1.3877,1.3877,1.3818,1.3818,1.3818,1.3818,1.3818,1.3818,1.3818,1.3818,1.3818,1.376,1.376,1.376,1.376,1.376,1.3701,1.3652,1.3701,1.3701,1.3701,1.3701,1.3701,1.3701,1.3701,1.3701,1.3701,1.3701,1.3701,1.3652,1.3652,1.3652,1.3652,1.3652,1.3652,1.3652,1.3594,1.3594,1.3594,1.3594,1.3594,1.3594,1.3594,1.3545,1.3545,1.3545,1.3486,1.3486,1.3486,1.3486,1.3545,1.3486,1.3486,1.3486,1.3486,1.3486,1.3438,1.3438,1.3438,1.3438,1.3438,1.3379,0,0,0,0,0,0,0,0,0,0,0,0,0,0,0,0,0,0,0,0,0,0,0,0,0,0,0,0,0,0
1.1104,1.1064,0,1.1133,1.1133,1.1104,1.1104,1.1104,1.1104,1.1104,1.1104,1.1104,1.1104,1.1104,1.1104,1.1104,1.1104,1.1104,1.1104,1.1104,1.1104,1.1104,1.1104,1.1104,1.1104,1.1104,1.1143,1.1143,1.1143,1.1143,1.1143,1.1143,1.1143,1.1143,1.1172,1.1172,1.1172,1.1172,1.1172,1.1172,1.1172,1.1172,1.1172,1.1172,1.1172,1.1182,1.1211,1.1211,1.1182,1.1211,1.1211,1.1211,1.125,1.125,1.125,1.125,1.125,1.125,1.125,1.125,1.1289,1.1289,1.1328,1.1328,1.1328,1.1328,1.1367,1.1367,1.1367,1.1367,1.1367,1.1367,1.1367,1.1367,1.1367,1.1406,1.1406,1.1445,1.1445,1.1445,1.1445,1.1445,1.1445,1.1445,1.1445,1.1445,1.1445,1.1445,1.1445,1.1484,1.1484,1.1523,1.1523,1.1523,1.1523,1.1523,1.1523,1.1523,1.1602,1.1562,1.1602,1.1602,1.1602,1.1641,1.1641,1.1641,1.1641,1.1641,1.1641,1.1689,1.1689,1.1729,1.1729,1.1768,1.1768,1.1768,1.1768,1.1768,1.1807,1.1807,1.1807,1.1807,1.1855,1.1807,1.1855,1.1895,1.1934,1.1982,1.2021,1.2021,1.2021,1.2021,1.2021,1.2021,1.2021,1.2021,1.2021,1.2061,0,0,0,0,1.2148,1.2148,1.2148,1.2197,1.2197,1.2197,1.2197,1.2197,0,0,0,1.4971,1.4971,1.4971,1.4971,1.4971,1.4902,1.4902,1.4902,1.4902,1.4902,1.4971,1.4902,1.4902,1.4971,1.4971,1.4971,1.4971,1.4971,1.4902,1.4902,1.4902,1.4834,1.4902,1.4971,1.4902,1.4902,1.4902,1.4902,1.4902,1.4834,1.4834,1.4834,1.4834,1.4834,1.4834,1.4834,1.4834,1.4834,1.4834,1.4834,1.4834,1.4902,1.4834,1.4902,1.4834,1.4834,1.4834,1.4844,1.4844,1.4844,1.4775,1.4775,1.4775,1.4707,1.4707,1.4775,1.4775,1.4775,1.4775,1.4775,1.4775,1.4775,1.4775,1.4775,1.4775,1.4775,1.4844,1.4775,1.4775,1.4844,1.4775,1.4775,1.4775,1.4775,1.4775,1.4775,1.4775,1.4707,1.4707,1.4648,1.4707,1.4707,1.4707,1.4648,1.4707,1.4707,1.4775,1.4844,1.4775,1.4775,1.4775,1.4775,1.4775,1.4775,1.4717,1.4717,1.4717,1.4717,1.4717,1.4717,1.4717,1.4717,1.4717,1.4648,1.4648,1.4648,1.4648,1.4648,1.459,1.459,1.4648,1.459,1.4648,1.4648,1.459,1.459,1.4648,1.459,1.459,1.459,1.4521,1.4521,1.4521,1.4521,1.4521,1.4521,1.4521,1.4521,1.4521,1.4521,1.4521,1.4521,1.4463,1.4463,1.4463,1.4404,1.4463,1.4463,1.4463,1.4463,1.4463,1.4521,1.4521,1.4521,1.4521,1.4463,1.4463,1.4463,1.4463,1.4463,1.4463,1.4404,1.4404,1.4404,1.4404,1.4404,1.4404,1.4404,1.4404,1.4336,1.4336,1.4336,1.4336,1.4346,1.4277,1.4277,1.4277,1.4219,1.4219,1.4219,1.4277,1.4277,1.4277,1.4277,1.4277,1.4277,1.4277,1.4277,1.4277,1.4277,1.4219,1.4277,1.4219,1.4219,1.4219,1.4219,1.4219,1.416,1.416,1.416,1.416,1.416,1.416,1.4219,1.4219,1.4219,1.4219,1.4219,1.416,1.416,1.416,1.416,1.416,1.416,1.416,1.4102,1.4102,1.4102,1.4102,1.4043,1.4043,1.4043,1.4043,1.4043,1.4043,1.4043,1.4043,1.3984,1.3984,1.3984,1.3984,1.3984,1.3984,1.3984,1.3984,1.3984,1.3984,1.3984,1.3984,1.3984,1.3984,1.3984,1.3984,1.3926,1.3926,1.3926,1.3877,1.3877,1.3877,1.3877,1.3818,1.3877,1.3818,1.3818,1.3818,1.3818,1.3818,1.3818,1.3818,1.3818,1.3877,1.3877,1.3818,1.3877,1.3877,1.3818,1.3818,1.3818,1.3877,1.3818,1.3818,1.3818,1.3818,1.3818,1.3818,1.376,1.376,1.376,1.376,1.376,1.3711,1.376,1.3818,1.376,1.3701,1.3701,1.3701,1.3711,1.3711,1.3711,1.3711,1.3711,1.3711,1.3652,1.3652,1.3652,1.3652,1.3652,1.3652,1.3594,1.3652,1.3594,1.3594,1.3594,1.3594,1.3594,1.3594,1.3545,1.3545,1.3545,1.3545,1.3545,1.3486,1.3545,1.3545,1.3486,1.3486,1.3486,1.3486,1.3438,1.3438,1.3438,1.3438,1.3438,1.3438,0,0,0,0,0,0,0,0,0,0,0,0,0,0,0,0,0,0,0,0,0,0,0,0,0,0,0,0,0,0
1.1064,1.1064,1.1104,1.1133,1.1104,1.1104,1.1104,1.1104,1.1104,1.1104,1.1104,1.1104,1.1104,1.1104,1.1104,1.1104,1.1104,1.1104,1.1104,1.1104,1.1104,1.1104,1.1104,1.1104,1.1104,1.1143,1.1143,1.1143,1.1143,1.1143,1.1143,1.1143,1.1143,1.1143,1.1143,1.1143,1.1143,1.1172,1.1143,1.1143,1.1143,1.1143,1.1182,1.1182,1.1182,1.1182,1.1182,1.1182,1.1182,1.1182,1.1211,1.1211,1.1211,1.125,1.125,1.125,1.125,1.125,1.125,1.125,1.1289,1.1289,1.1289,1.1328,1.1328,1.1328,1.1328,1.1328,1.1367,1.1367,1.1367,1.1367,1.1367,1.1367,1.1367,1.1406,1.1406,1.1445,1.1445,1.1445,1.1445,1.1445,1.1445,1.1445,1.1445,1.1445,1.1445,1.1484,1.1484,1.1484,1.1484,1.1523,1.1523,1.1523,1.1523,1.1523,1.1523,1.1523,1.1562,1.1562,1.1602,1.1602,1.1602,1.1602,1.1602,1.1602,1.1602,1.1602,1.1602,1.165,1.1689,1.1689,1.1689,1.1729,1.1729,1.1768,1.1768,1.1729,1.1807,1.1807,1.1807,1.1807,1.1807,1.1807,1.1855,0,0,0,1.2021,1.2021,1.2021,1.2021,1.2021,1.2021,1.2061,1.2109,0,0,0,0,1.4971,1.4971,1.4971,1.4902,1.4902,1.4971,1.4971,1.4971,1.4902,1.4971,1.4902,1.4971,1.4971,1.4971,1.4971,1.4971,1.4971,1.4971,1.4902,1.4902,1.4902,1.4902,1.4902,1.4902,1.4902,1.4902,1.4971,1.4971,1.4971,1.4971,1.4971,1.4902,1.4902,1.4902,1.4902,1.4902,1.4971,1.4902,1.4902,1.4902,1.4902,1.4902,1.4834,1.4834,1.4834,1.4834,1.4834,1.4834,1.4834,1.4834,1.4834,1.4834,1.4844,1.4844,1.4902,1.4844,1.4902,1.4844,1.4844,1.4844,1.4902,1.4844,1.4844,1.4844,1.4844,1.4844,1.4775,1.4775,1.4844,1.4775,1.4844,1.4844,1.4844,1.4844,1.4844,1.4844,1.4775,1.4775,1.4844,1.4844,1.4844,1.4844,1.4775,1.4775,1.4775,1.4775,1.4775,1.4775,1.4775,1.4775,1.4707,1.4707,1.4707,1.4707,1.4775,1.4707,1.4717,1.4717,1.4717,1.4775,1.4775,1.4775,1.4775,1.4775,1.4775,1.4775,1.4775,1.4775,1.4717,1.4717,1.4717,1.4717,1.4717,1.4717,1.4717,1.4717,1.4717,1.4648,1.4648,1.4648,1.4648,1.4648,1.4648,1.4648,1.4648,1.4648,1.4648,1.4648,1.459,1.459,1.459,1.459,1.459,1.459,1.459,1.459,1.459,1.4521,1.4521,1.459,1.4521,1.459,1.459,1.459,1.4521,1.4521,1.4463,1.4521,1.4463,1.4521,1.4521,1.4521,1.4521,1.4521,1.4521,1.4521,1.4521,1.4521,1.4463,1.4463,1.4463,1.4463,1.4463,1.4463,1.4463,1.4463,1.4463,1.4463,1.4404,1.4404,1.4404,1.4404,1.4404,1.4346,1.4346,1.4277,1.4346,1.4277,1.4277,1.4277,1.4277,1.4277,1.4277,1.4277,1.4277,1.4277,1.4277,1.4277,1.4277,1.4277,1.4219,1.4277,1.4277,1.4219,1.4277,1.4277,1.4219,1.4219,1.4219,1.4219,1.416,1.416,1.416,1.416,1.416,1.416,1.4219,1.4219,1.4219,1.4219,1.4219,1.4219,1.4219,1.4219,1.4219,1.4219,1.416,1.416,1.416,1.416,1.4102,1.4102,1.4102,1.4043,1.4043,1.4043,1.4043,1.4043,1.4043,1.4043,1.3984,1.3984,1.3984,1.3984,1.3984,1.3984,1.3984,1.3984,1.3984,1.3984,1.3984,1.3984,1.3984,1.3984,1.3984,1.3984,1.3984,1.3936,1.3936,1.3877,1.3877,1.3936,1.3877,1.3877,1.3877,1.3877,1.3877,1.3818,1.3818,1.3818,1.3818,1.376,1.3818,1.3818,1.3818,1.3818,1.3877,1.3818,1.3818,1.3818,1.3877,1.3877,1.3877,1.3877,1.3818,1.3818,1.3818,1.3818,1.376,1.376,1.376,1.376,1.376,1.376,1.376,1.3818,1.3818,1.376,1.376,1.376,1.3711,1.3711,1.3711,1.3711,1.3711,1.3652,1.3652,1.3652,1.3652,1.3652,1.3652,1.3652,1.3652,1.3652,1.3594,1.3594,1.3594,1.3594,1.3594,1.3594,1.3594,1.3545,1.3545,1.3545,1.3545,1.3486,1.3545,1.3545,1.3486,1.3486,1.3486,1.3486,1.3438,1.3438,1.3438,1.3438,1.3438,1.3438,0,0,0,0,0,0,0,0,0,0,0,0,0,0,0,0,0,0,0,0,0,0,0,0,0,0,0,0,0,0
1.1064,1.1025,1.1064,1.1104,1.1104,1.1104,1.1104,1.1104,1.1104,1.1104,1.1104,1.1104,1.1104,1.1104,1.1104,1.1104,1.1104,1.1104,1.1104,1.1104,1.1104,1.1104,1.1104,1.1104,1.1104,1.1104,1.1104,1.1104,1.1143,1.1104,1.1143,1.1104,1.1143,1.1143,1.1143,1.1143,1.1143,1.1143,1.1143,1.1143,1.1143,1.1143,1.1143,1.1143,1.1143,1.1143,1.1182,1.1182,1.1182,1.1182,1.1211,1.1211,1.1211,1.1211,1.125,1.125,1.125,1.125,1.125,1.125,1.1289,1.1289,1.1289,1.1328,1.1328,1.1328,1.1328,1.1328,1.1328,1.1328,1.1367,1.1367,1.1367,1.1367,1.1367,1.1406,1.1367,1.1406,1.1445,1.1445,1.1445,1.1445,1.1445,1.1445,1.1445,1.1445,1.1445,1.1484,1.1484,1.1484,1.1484,1.1523,1.1523,1.1523,1.1523,1.1523,1.1562,1.1602,1.1602,1.1602,1.1602,1.1602,1.1602,1.1602,1.1602,1.1602,1.1602,1.1602,1.1602,1.1689,0,0,0,1.5166,1.1768,1.1768,1.1768,1.1768,1.1807,1.1807,1.1768,1.1768,1.1768,1.1807,0,0,0,1.5166,1.5166,1.5166,1.5166,1.5098,1.5098,1.5039,1.5039,1.5039,0,0,1.4902,1.4902,1.4971,1.4971,1.4971,1.4902,1.4902,1.4971,1.5039,1.4971,1.4971,1.4971,1.4971,1.4971,1.4971,1.4971,1.4971,1.4971,1.4971,1.4971,1.4902,1.4902,1.4902,1.4902,1.4902,1.4902,1.4902,1.4971,1.4971,1.4971,1.4971,1.4971,1.4971,1.4971,1.4902,1.4902,1.4902,1.4902,1.4971,1.4971,1.4902,1.4902,1.4902,1.4902,1.4834,1.4834,1.4834,1.4834,1.4844,1.4844,1.4844,1.4844,1.4844,1.4844,1.4844,1.4844,1.4844,1.4844,1.4902,1.4844,1.4902,1.4902,1.4902,1.4902,1.4844,1.4844,1.4844,1.4844,1.4775,1.4775,1.4844,1.4844,1.4844,1.4844,1.4844,1.4844,1.4844,1.4844,1.4844,1.4844,1.4844,1.4844,1.4844,1.4844,1.4844,1.4844,1.4844,1.4775,1.4775,1.4775,1.4775,1.4717,1.4717,1.4717,1.4717,1.4717,1.4775,1.4717,1.4717,1.4717,1.4775,1.4775,1.4775,1.4775,1.4775,1.4775,1.4775,1.4775,1.4775,1.4775,1.4717,1.4717,1.4717,1.4717,1.4717,1.4717,1.4717,1.4717,1.4648,1.4648,1.4648,1.4648,1.4648,1.4648,1.4648,1.4648,1.4648,1.4648,1.4648,1.4648,1.459,1.459,1.459,1.459,1.459,1.459,1.459,1.459,1.459,1.459,1.459,1.459,1.4521,1.459,1.459,1.459,1.4521,1.4521,1.4521,1.4521,1.4463,1.4521,1.4531,1.4531,1.4531,1.4531,1.4531,1.4531,1.4531,1.4531,1.4531,1.4463,1.4463,1.4463,1.4463,1.4463,1.4463,1.4463,1.4463,1.4463,1.4404,1.4404,1.4404,1.4404,1.4404,1.4404,1.4346,1.4346,1.4346,1.4277,1.4277,1.4277,1.4277,1.4277,1.4277,1.4277,1.4277,1.4346,1.4277,1.4277,1.4277,1.4277,1.4287,1.4287,1.4287,1.4287,1.4287,1.4287,1.4287,1.4287,1.4287,1.4219,1.4219,1.4219,1.416,1.416,1.416,1.416,1.4219,1.4219,1.4219,1.4219,1.4219,1.4219,1.4229,1.4229,1.4229,1.4229,1.4229,1.416,1.416,1.4102,1.4102,1.4102,1.4102,1.4043,1.4043,1.4043,1.4043,1.4043,1.4043,1.4043,1.3984,1.4043,1.4043,1.3984,1.3984,1.3984,1.3984,1.3984,1.3984,1.3994,1.3994,1.3994,1.3994,1.3994,1.3984,1.3984,1.3984,1.3994,1.3994,1.3936,1.3877,1.3936,1.3877,1.3877,1.3877,1.3877,1.3877,1.3818,1.3818,1.3818,1.3818,1.376,1.3818,1.3818,1.3818,1.3818,1.3818,1.3818,1.3818,1.3818,1.3877,1.3877,1.3877,1.3818,1.3818,1.3818,1.3818,1.3818,1.376,1.3818,1.3818,1.376,1.376,1.376,1.3818,1.3818,1.3818,1.376,1.376,1.376,1.376,1.376,1.3711,1.3711,1.3711,1.3711,1.3652,1.3711,1.3711,1.3652,1.3652,1.3652,1.3652,1.3652,1.3594,1.3594,1.3594,1.3652,1.3594,1.3594,1.3594,1.3594,1.3594,1.3594,1.3545,1.3486,1.3545,1.3545,1.3486,1.3486,1.3486,1.3486,1.3438,1.3438,1.3486,1.3438,1.3438,1.3438,0,0,0,0,0,0,0,0,0,0,0,0,0,0,0,0,0,0,0,0,0,0,0,0,0,0,0,0,0,0
1.1064,1.1064,1.1064,1.1104,1.1104,1.1104,1.1104,1.1104,1.1104,1.1104,1.1104,1.1104,1.1104,1.1104,1.1104,1.1104,1.1104,1.1104,1.1104,1.1104,1.1104,1.1104,1.1104,1.1104,1.1104,1.1104,1.1104,1.1104,1.1104,1.1104,1.1104,1.1104,1.1104,1.1104,1.1143,1.1143,1.1143,1.1143,1.1143,1.1143,1.1143,1.1143,1.1143,1.1143,1.1143,1.1182,1.1182,1.1182,1.1182,1.1182,1.1211,1.1211,1.1221,1.1221,1.125,1.125,1.125,1.125,1.125,1.125,1.1289,1.1289,1.1289,1.1328,1.1328,1.1328,1.1328,1.1328,1.1328,1.1328,1.1328,1.1367,1.1367,1.1367,1.1367,1.1406,1.1406,1.1406,1.1445,1.1445,1.1445,1.1445,1.1406,1.1445,1.1445,1.1445,1.1445,1.1484,1.1484,1.1484,1.1484,1.1523,1.1523,1.1523,1.1523,1.1602,1.1602,0,0,0,1.4961,1.4902,1.165,1.4961,1.4961,0,1.165,1.165,1.5098,0,0,1.5166,1.5166,1.5166,1.5166,1.5166,1.5166,1.5098,1.5098,1.1807,1.1807,1.1768,0,0,1.5098,1.5098,1.5098,1.5098,1.5098,1.5098,1.5098,1.5098,1.5098,1.5098,1.5107,1.5107,1.5039,1.5039,1.5039,1.5039,1.5039,1.5039,1.5039,1.5039,1.5107,1.5039,1.5039,1.4971,1.4971,1.4971,1.4971,1.4971,1.4971,1.4971,1.4971,1.4971,1.4971,1.4971,1.4971,1.4902,1.4902,1.4902,1.4902,1.4902,1.4902,1.4971,1.4971,1.4971,1.4971,1.4971,1.4971,1.4971,1.4902,1.4902,1.4902,1.4902,1.4971,1.4971,1.4971,1.4902,1.4902,1.4902,1.4902,1.4902,1.4844,1.4844,1.4844,1.4844,1.4844,1.4844,1.4844,1.4844,1.4844,1.4844,1.4844,1.4844,1.4902,1.4902,1.4902,1.4902,1.4902,1.4902,1.4844,1.4844,1.4844,1.4844,1.4775,1.4844,1.4844,1.4844,1.4844,1.4844,1.4844,1.4844,1.4844,1.4844,1.4844,1.4844,1.4844,1.4844,1.4844,1.4844,1.4844,1.4844,1.4844,1.4775,1.4775,1.4775,1.4775,1.4717,1.4717,1.4717,1.4717,1.4775,1.4717,1.4717,1.4717,1.4775,1.4775,1.4775,1.4775,1.4775,1.4775,1.4775,1.4775,1.4775,1.4775,1.4717,1.4717,1.4717,1.4717,1.4717,1.4717,1.4717,1.4717,1.4717,1.4717,1.4648,1.4648,1.4648,1.4648,1.4648,1.4648,1.4648,1.4648,1.4648,1.4648,1.459,1.459,1.459,1.459,1.459,1.459,1.459,1.459,1.459,1.459,1.459,1.459,1.459,1.459,1.459,1.459,1.459,1.4531,1.4531,1.4531,1.4531,1.4463,1.4531,1.4531,1.4531,1.4531,1.4531,1.4531,1.459,1.459,1.4531,1.4531,1.4531,1.4531,1.4463,1.4463,1.4463,1.4463,1.4463,1.4463,1.4463,1.4463,1.4404,1.4404,1.4404,1.4463,1.4463,1.4404,1.4346,1.4346,1.4346,1.4346,1.4346,1.4346,1.4287,1.4346,1.4346,1.4287,1.4346,1.4287,1.4287,1.4287,1.4287,1.4287,1.4287,1.4287,1.4287,1.4287,1.4287,1.4287,1.4287,1.4287,1.4219,1.4219,1.4219,1.4219,1.416,1.416,1.416,1.4229,1.4229,1.4229,1.4229,1.4229,1.4229,1.4229,1.4229,1.4229,1.4229,1.4229,1.416,1.416,1.416,1.4102,1.4102,1.4102,1.4043,1.4043,1.4043,1.4043,1.4102,1.4043,1.4043,1.4043,1.4043,1.4043,1.3994,1.3994,1.3994,1.3994,1.3994,1.3994,1.3994,1.3994,1.3994,1.3994,1.3994,1.4053,1.3994,1.3994,1.3994,1.3994,1.3936,1.3936,1.3936,1.3877,1.3877,1.3877,1.3877,1.3877,1.3877,1.3818,1.376,1.376,1.376,1.3818,1.3818,1.3818,1.3818,1.3818,1.3818,1.3818,1.3877,1.3877,1.3877,1.3818,1.3818,1.3818,1.3818,1.3818,1.376,1.376,1.3818,1.3818,1.376,1.3818,1.376,1.3818,1.3818,1.3818,1.3818,1.376,1.376,1.376,1.376,1.376,1.3711,1.3711,1.3711,1.3711,1.3711,1.3711,1.3652,1.3652,1.3652,1.3652,1.3652,1.3652,1.3594,1.3594,1.3652,1.3652,1.3594,1.3594,1.3604,1.3604,1.3604,1.3545,1.3545,1.3604,1.3545,1.3545,1.3486,1.3486,1.3486,1.3486,1.3486,1.3438,1.3438,1.3438,1.3438,0,0,0,0,0,0,0,0,0,0,0,0,0,0,0,0,0,0,0,0,0,0,0,0,0,0,0,0,0,0
1.1064,1.1064,1.1064,1.1104,1.1104,1.1104,1.1104,1.1104,1.1104,1.1104,1.1104,1.1104,1.1104,1.1104,1.1104,1.1104,1.1104,1.1064,1.1064,1.1104,1.1104,1.1104,1.1104,1.1104,1.1104,1.1104,1.1104,1.1104,1.1104,1.1104,1.1104,1.1104,1.1104,1.1143,1.1143,1.1143,1.1143,1.1143,1.1143,1.1143,1.1143,1.1143,1.1143,1.1143,1.1143,1.1182,1.1182,1.1182,1.1182,1.1182,1.1221,1.1221,1.1221,1.125,1.125,1.125,1.125,1.125,1.125,1.125,1.1328,1.1328,1.1328,1.1328,1.1328,1.1367,1.1328,1.1328,1.1367,1.1367,1.1367,1.1367,1.1367,1.1328,1.1367,0,1.1445,0,1.1445,1.1406,1.1406,1.1445,1.1406,1.1445,1.1445,1.1484,1.1484,1.1484,1.1523,1.1523,1.1523,1.1523,1.1562,1.1562,1.1562,0,0,0,1.4961,1.4961,1.4961,1.4902,1.4902,1.4971,1.4971,1.5166,1.5098,1.5098,1.5166,1.5166,1.5166,1.5166,1.5166,1.5166,1.5166,1.5166,1.5098,1.5098,1.5039,1.5098,1.5039,1.5098,1.5098,1.5098,1.5098,1.5098,1.5098,1.5107,1.5244,1.5176,1.5107,1.5107,1.5107,1.5039,1.5039,1.5039,1.5039,1.5039,1.5039,1.5039,1.5039,1.5039,1.5039,1.5039,1.5107,1.5039,1.5039,1.5039,1.5039,1.5039,1.4971,1.5039,1.4971,1.4971,1.5039,1.4971,1.4971,1.5039,1.4971,1.4971,1.4971,1.4902,1.4902,1.4971,1.4971,1.4971,1.4971,1.4971,1.4971,1.4971,1.4971,1.4971,1.4902,1.4902,1.4902,1.4902,1.5039,1.5039,1.4971,1.4971,1.4971,1.4971,1.4902,1.4971,1.4902,1.4902,1.4902,1.4902,1.4844,1.4844,1.4844,1.4844,1.4844,1.4844,1.4844,1.4844,1.4902,1.4902,1.4902,1.4902,1.4902,1.4902,1.4844,1.4844,1.4844,1.4844,1.4775,1.4844,1.4844,1.4844,1.4844,1.4844,1.4844,1.4844,1.4844,1.4844,1.4844,1.4844,1.4844,1.4844,1.4844,1.4844,1.4844,1.4775,1.4775,1.4775,1.4775,1.4775,1.4775,1.4717,1.4717,1.4717,1.4717,1.4775,1.4717,1.4717,1.4717,1.4717,1.4775,1.4775,1.4844,1.4844,1.4775,1.4775,1.4775,1.4775,1.4717,1.4717,1.4717,1.4717,1.4717,1.4717,1.4717,1.4717,1.4717,1.4717,1.4717,1.4717,1.4717,1.4648,1.4648,1.4648,1.4648,1.4648,1.4648,1.4648,1.4648,1.459,1.459,1.4648,1.459,1.459,1.459,1.459,1.459,1.459,1.459,1.459,1.459,1.459,1.459,1.459,1.459,1.459,1.459,1.459,1.4531,1.4531,1.4531,1.459,1.459,1.459,1.459,1.459,1.459,1.459,1.459,1.459,1.4531,1.4531,1.4531,1.4463,1.4463,1.4463,1.4463,1.4463,1.4463,1.4463,1.4463,1.4463,1.4463,1.4463,1.4463,1.4463,1.4463,1.4404,1.4404,1.4404,1.4404,1.4404,1.4346,1.4346,1.4346,1.4346,1.4346,1.4346,1.4287,1.4287,1.4287,1.4219,1.4287,1.4287,1.4287,1.4287,1.4346,1.4346,1.4287,1.4287,1.4287,1.4229,1.4229,1.4229,1.4229,1.416,1.416,1.416,1.4229,1.4229,1.4229,1.4229,1.4229,1.4229,1.4229,1.4229,1.4229,1.4229,1.4229,1.417,1.417,1.417,1.4102,1.4102,1.4102,1.4043,1.4043,1.4043,1.4043,1.4111,1.4053,1.4053,1.4053,1.4053,1.4053,1.3994,1.3994,1.3994,1.3994,1.3994,1.3994,1.3994,1.3994,1.4053,1.3994,1.3994,1.4053,1.4053,1.3994,1.3994,1.3994,1.3994,1.3936,1.3936,1.3877,1.3877,1.3877,1.3877,1.3877,1.3877,1.3877,1.3818,1.3818,1.376,1.3818,1.3818,1.3818,1.3818,1.3818,1.3818,1.3818,1.3877,1.3877,1.3877,1.3877,1.3818,1.3818,1.3818,1.3818,1.3818,1.3818,1.376,1.3818,1.376,1.3818,1.3818,1.3818,1.3818,1.3818,1.377,1.377,1.3818,1.377,1.377,1.377,1.377,1.377,1.377,1.3711,1.377,1.3711,1.3652,1.3652,1.3652,1.3652,1.3652,1.3652,1.3652,1.3652,1.3652,1.3652,1.3604,1.3652,1.3604,1.3604,1.3604,1.3604,1.3545,1.3604,1.3545,1.3545,1.3545,1.3486,1.3486,1.3486,1.3486,1.3486,1.3496,1.3496,1.3438,0,0,0,0,0,0,0,0,0,0,0,0,0,0,0,0,0,0,0,0,0,0,0,0,0,0,0,0,0,0
1.1064,1.1064,1.1064,1.1104,1.1104,1.1104,1.1104,1.1104,1.1104,1.1104,1.1104,1.1104,1.1104,1.1104,1.1104,1.1104,1.1064,1.1064,1.1064,1.1104,1.1104,1.1104,1.1104,1.1104,1.1104,1.1104,1.1104,1.1104,1.1104,1.1104,1.1104,1.1104,1.1104,1.1104,1.1143,1.1104,1.1143,1.1143,1.1182,1.1182,1.1143,1.1143,1.1143,1.1143,1.1143,1.1182,1.1182,1.1182,1.1182,1.1182,1.1221,1.1221,1.125,1.125,1.125,1.125,1.125,1.1289,1.1289,1.1289,1.1328,1.1328,1.1328,1.1328,1.1328,1.1367,1.1328,1.1328,1.1367,1.1367,1.1367,1.1367,1.1367,1.1328,1.1367,0,0,1.3252,0,1.3252,0,0,0,0,0,0,0,0,1.1523,1.1523,1.1523,1.1562,1.1523,1.1562,0,0,0,1.4971,1.4971,1.5029,1.4971,1.4971,1.4971,1.5029,1.5029,1.5166,1.5166,1.5166,1.5234,1.5166,1.5166,1.5166,1.5098,1.5166,1.5166,1.5098,1.5098,1.5098,1.5039,1.5098,1.5039,1.5107,1.5107,1.5107,1.5107,1.5107,1.5107,1.5176,1.5176,1.5107,1.5107,1.5107,1.5107,1.5107,1.5039,1.5039,1.5039,1.5039,1.5039,1.5039,1.5039,1.5039,1.5039,1.5039,1.5107,1.5039,1.5039,1.5039,1.5039,1.5039,1.4971,1.5039,1.4971,1.4971,1.4971,1.4971,1.4971,1.5039,1.4971,1.4971,1.4971,1.4971,1.4971,1.4971,1.4971,1.4971,1.4971,1.5039,1.4971,1.4971,1.4971,1.4971,1.4902,1.4902,1.4971,1.4971,1.5039,1.5039,1.5039,1.5039,1.4971,1.4971,1.4971,1.4971,1.4971,1.4902,1.4902,1.4902,1.4902,1.4844,1.4844,1.4844,1.4844,1.4844,1.4912,1.4912,1.4912,1.4912,1.4912,1.4912,1.4912,1.4912,1.4844,1.4844,1.4844,1.4844,1.4844,1.4844,1.4844,1.4844,1.4844,1.4844,1.4844,1.4844,1.4844,1.4844,1.4844,1.4844,1.4844,1.4844,1.4844,1.4844,1.4775,1.4775,1.4844,1.4844,1.4844,1.4775,1.4775,1.4775,1.4717,1.4717,1.4717,1.4775,1.4717,1.4717,1.4775,1.4775,1.4775,1.4844,1.4844,1.4844,1.4775,1.4785,1.4785,1.4785,1.4785,1.4717,1.4648,1.4648,1.4648,1.4717,1.4717,1.4717,1.4717,1.4717,1.4717,1.4717,1.4717,1.4648,1.4648,1.4648,1.4648,1.4648,1.4648,1.4648,1.4648,1.459,1.459,1.4648,1.459,1.459,1.459,1.459,1.459,1.4658,1.459,1.459,1.459,1.4658,1.459,1.4658,1.459,1.459,1.459,1.459,1.459,1.4531,1.4531,1.459,1.459,1.459,1.459,1.459,1.459,1.459,1.459,1.459,1.4531,1.459,1.4531,1.4531,1.4463,1.4463,1.4463,1.4463,1.4463,1.4463,1.4463,1.4463,1.4463,1.4463,1.4463,1.4463,1.4463,1.4404,1.4404,1.4404,1.4404,1.4404,1.4404,1.4346,1.4346,1.4346,1.4346,1.4346,1.4287,1.4287,1.4229,1.4229,1.4229,1.4287,1.4287,1.4287,1.4346,1.4346,1.4346,1.4346,1.4287,1.4287,1.4229,1.4229,1.4229,1.416,1.4229,1.416,1.4229,1.4229,1.4229,1.4229,1.4229,1.4229,1.4229,1.4229,1.4229,1.4229,1.4229,1.4229,1.417,1.417,1.4111,1.417,1.417,1.4111,1.4111,1.4111,1.4111,1.4111,1.4053,1.4053,1.4053,1.4053,1.4053,1.3994,1.4053,1.3994,1.3994,1.3994,1.3994,1.3994,1.3994,1.3994,1.3994,1.3994,1.3994,1.3994,1.3994,1.3994,1.3994,1.3936,1.3936,1.3936,1.3877,1.3936,1.3877,1.3936,1.3877,1.3877,1.3877,1.3818,1.376,1.376,1.3818,1.3818,1.3818,1.3818,1.3818,1.3818,1.3818,1.3818,1.3818,1.3877,1.3818,1.3818,1.3818,1.3818,1.3818,1.3818,1.3818,1.3818,1.3818,1.3818,1.3818,1.3818,1.3818,1.3818,1.3818,1.3818,1.3818,1.377,1.377,1.377,1.377,1.3711,1.377,1.3711,1.3711,1.377,1.3711,1.3711,1.3711,1.3652,1.3652,1.3652,1.3652,1.3652,1.3652,1.3652,1.3652,1.3604,1.3604,1.3604,1.3604,1.3604,1.3604,1.3545,1.3604,1.3545,1.3545,1.3545,1.3545,1.3496,1.3496,1.3496,1.3496,1.3496,1.3496,1.3438,0,0,0,0,0,0,0,0,0,0,0,0,0,0,0,0,0,0,0,0,0,0,0,0,0,0,0,0,0,0
1.1064,1.1064,1.1064,1.1104,1.1104,1.1104,1.1104,1.1104,1.1104,1.1104,1.1104,1.1104,1.1104,1.1064,1.1064,1.1104,1.1104,1.1104,0,1.1104,1.1104,1.1104,0,1.1104,1.1104,1.1104,1.1104,1.1104,1.1104,1.1104,1.1104,1.1104,1.1104,1.1104,1.1143,1.1104,1.1143,1.1182,1.1182,1.1182,1.1182,1.1182,1.1182,1.1182,1.1182,1.1143,1.1221,1.1182,0,0,1.3145,1.125,1.125,1.125,1.126,1.1289,1.126,1.126,1.126,1.1289,1.1328,1.1367,0,0,1.3096,1.3203,1.3252,1.1328,1.1367,1.1328,1.1328,1.1328,1.1328,1.1328,0,0,1.3203,1.3203,1.3252,1.3252,1.3252,1.3252,1.3252,1.3311,1.3311,1.3311,1.3311,1.3311,1.3311,1.3311,0,0,0,0,0,0,1.5166,1.5166,1.5166,1.5166,1.5029,1.5029,1.5098,1.5166,1.5166,1.5234,1.5166,1.5166,1.5234,1.5244,1.5166,1.5166,1.5166,1.5166,1.5166,1.5107,1.5107,1.5107,1.5107,1.5107,1.5039,1.5107,1.5107,1.5107,1.5176,1.5176,1.5176,1.5176,1.5176,1.5176,1.5107,1.5107,1.5107,1.5107,1.5107,1.5039,1.5039,1.5039,1.5039,1.5039,1.5039,1.5039,1.5039,1.5039,1.5107,1.5039,1.5039,1.5039,1.5039,1.5039,1.5039,1.5039,1.4971,1.5039,1.5039,1.5039,1.4971,1.5039,1.4971,1.4971,1.4971,1.4971,1.4971,1.4971,1.4971,1.4971,1.5039,1.5039,1.5039,1.5039,1.5039,1.4971,1.4971,1.4971,1.5039,1.5039,1.5107,1.5039,1.5039,1.5039,1.5039,1.4971,1.4971,1.4971,1.4971,1.4902,1.4902,1.4912,1.4912,1.4912,1.4844,1.4844,1.4912,1.4912,1.4971,1.4912,1.4912,1.4912,1.4912,1.4971,1.4912,1.4912,1.4912,1.4912,1.4912,1.4844,1.4844,1.4844,1.4844,1.4844,1.4844,1.4912,1.4844,1.4844,1.4844,1.4844,1.4912,1.4844,1.4912,1.4844,1.4844,1.4844,1.4844,1.4775,1.4844,1.4775,1.4775,1.4775,1.4775,1.4775,1.4717,1.4775,1.4775,1.4775,1.4775,1.4775,1.4785,1.4785,1.4785,1.4844,1.4844,1.4844,1.4785,1.4785,1.4785,1.4785,1.4785,1.4785,1.4717,1.4717,1.4717,1.4717,1.4717,1.4717,1.4717,1.4717,1.4717,1.4717,1.4717,1.4717,1.4648,1.4648,1.4648,1.4648,1.4648,1.4648,1.4658,1.459,1.459,1.4658,1.459,1.459,1.459,1.459,1.4658,1.4658,1.4658,1.4658,1.4658,1.4658,1.4658,1.4658,1.4658,1.4658,1.459,1.4531,1.4531,1.4531,1.4531,1.459,1.459,1.459,1.459,1.459,1.459,1.459,1.459,1.459,1.459,1.459,1.459,1.459,1.4531,1.4463,1.4463,1.4463,1.4463,1.4463,1.4463,1.4473,1.4473,1.4473,1.4473,1.4473,1.4473,1.4473,1.4404,1.4404,1.4404,1.4404,1.4404,1.4346,1.4404,1.4346,1.4346,1.4346,1.4346,1.4287,1.4287,1.4287,1.4287,1.4287,1.4346,1.4287,1.4346,1.4346,1.4346,1.4346,1.4346,1.4287,1.4229,1.4229,1.4229,1.4229,1.4229,1.417,1.4229,1.4229,1.4287,1.4229,1.4229,1.4229,1.4229,1.4229,1.4229,1.4229,1.4229,1.4229,1.417,1.417,1.417,1.417,1.417,1.4111,1.4111,1.4111,1.4111,1.4111,1.4111,1.4053,1.4053,1.4053,1.4053,1.3994,1.4053,1.4053,1.4053,1.4053,1.3994,1.3994,1.3994,1.3994,1.3994,1.3994,1.3994,1.3994,1.3994,1.3994,1.3994,1.3994,1.3936,1.3936,1.3877,1.3936,1.3877,1.3877,1.3877,1.3877,1.3818,1.3818,1.376,1.3818,1.3818,1.3818,1.3818,1.3877,1.3818,1.3877,1.3877,1.3877,1.3877,1.3877,1.3818,1.3818,1.3818,1.3818,1.3818,1.377,1.3818,1.3818,1.3818,1.3818,1.3818,1.3818,1.3818,1.3818,1.3818,1.3818,1.377,1.377,1.377,1.377,1.377,1.377,1.377,1.3711,1.3711,1.377,1.377,1.3711,1.3711,1.3711,1.3652,1.3711,1.3652,1.3652,1.3652,1.3652,1.3652,1.3604,1.3652,1.3604,1.3604,1.3604,1.3545,1.3545,1.3604,1.3545,1.3545,1.3496,1.3496,1.3496,1.3496,1.3496,1.3496,1.3496,1.3496,1.3496,0,0,0,0,0,0,0,0,0,0,0,0,0,0,0,0,0,0,0,0,0,0,0,0,0,0,0,0,0,0
0,1.3623,1.3623,1.3574,1.3574,1.1104,1.1104,1.1104,1.1143,1.1143,1.1104,1.1104,1.1104,1.1104,0,0,0,1.4082,1.4082,1.4082,1.4082,1.4082,1.4141,1.4199,1.4268,1.4268,1.4326,1.4326,1.1143,1.1143,1.1104,1.1104,1.1143,1.1104,1.1104,1.1104,1.1143,1.1182,1.1182,0,0,0,0,0,0,0,1.3252,1.3203,1.3203,1.3203,1.3203,1.3145,1.1221,1.126,1.126,1.126,1.126,1.1289,1.1289,0,0,1.3047,1.3096,1.3096,1.3096,1.3154,1.3203,1.3154,1.3154,1.1367,1.3154,0,1.3154,1.3154,1.3154,1.3154,1.3252,1.3252,1.3252,1.3252,1.3311,1.3311,1.3311,1.3359,1.3311,1.3311,1.3311,1.3359,1.3311,1.3311,1.3467,0,1.5166,1.5166,1.5166,1.5166,1.5166,1.5166,1.5166,1.5166,1.5166,1.5166,1.5166,1.5166,1.5166,1.5166,1.5166,1.5176,1.5176,1.5176,1.5176,1.5176,1.5176,1.5176,1.5176,1.5176,1.5107,1.5107,1.5107,1.5107,1.5039,1.5176,1.5107,1.5107,1.5176,1.5176,1.5176,1.5176,1.5176,1.5176,1.5176,1.5107,1.5107,1.5176,1.5107,1.5039,1.5039,1.5039,1.5039,1.5039,1.5039,1.5039,1.5039,1.5039,1.5107,1.5039,1.5039,1.5039,1.5039,1.5039,1.5039,1.5039,1.4971,1.5039,1.5039,1.5039,1.4971,1.5039,1.4971,1.4971,1.4971,1.4971,1.4971,1.4971,1.4971,1.4971,1.4971,1.4971,1.5039,1.5039,1.5039,1.4971,1.4971,1.4971,1.4971,1.4971,1.5107,1.5039,1.5039,1.5039,1.4971,1.4971,1.4971,1.4971,1.4912,1.4912,1.4912,1.4912,1.4912,1.4912,1.4912,1.4912,1.4912,1.4912,1.4971,1.4912,1.4912,1.4912,1.4912,1.4971,1.4912,1.4844,1.4844,1.4912,1.4912,1.4844,1.4844,1.4844,1.4844,1.4912,1.4912,1.4912,1.4912,1.4912,1.4844,1.4844,1.4844,1.4844,1.4844,1.4844,1.4844,1.4844,1.4775,1.4775,1.4844,1.4775,1.4775,1.4775,1.4775,1.4785,1.4717,1.4785,1.4785,1.4785,1.4785,1.4785,1.4844,1.4844,1.4844,1.4844,1.4844,1.4844,1.4844,1.4785,1.4785,1.4785,1.4785,1.4785,1.4717,1.4717,1.4717,1.4717,1.4717,1.4717,1.4785,1.4717,1.4717,1.4717,1.4717,1.4717,1.4717,1.4658,1.4658,1.4658,1.4658,1.4658,1.4658,1.4658,1.459,1.4658,1.459,1.4658,1.4658,1.4658,1.4658,1.4658,1.4658,1.4658,1.4658,1.4658,1.4658,1.4658,1.4658,1.4658,1.459,1.459,1.459,1.4531,1.4531,1.459,1.459,1.459,1.459,1.459,1.459,1.459,1.459,1.459,1.459,1.459,1.459,1.459,1.4531,1.4531,1.4473,1.4531,1.4473,1.4473,1.4473,1.4473,1.4473,1.4473,1.4473,1.4473,1.4473,1.4473,1.4404,1.4404,1.4404,1.4404,1.4404,1.4404,1.4404,1.4404,1.4346,1.4346,1.4346,1.4346,1.4287,1.4287,1.4287,1.4287,1.4346,1.4346,1.4346,1.4346,1.4346,1.4346,1.4346,1.4287,1.4229,1.4287,1.4229,1.4229,1.4229,1.4229,1.4287,1.4229,1.4287,1.4229,1.4229,1.4229,1.4229,1.4229,1.4229,1.4229,1.4229,1.4229,1.4229,1.4229,1.417,1.417,1.417,1.417,1.417,1.4111,1.4111,1.4111,1.4111,1.4053,1.4053,1.4053,1.4053,1.4053,1.4053,1.4053,1.4053,1.4053,1.3994,1.3994,1.4053,1.3994,1.3994,1.3994,1.3994,1.3994,1.3994,1.3994,1.3994,1.3994,1.3936,1.3936,1.3936,1.3877,1.3877,1.3936,1.3877,1.3877,1.3877,1.3877,1.3877,1.3877,1.3877,1.3877,1.3877,1.3877,1.3877,1.3877,1.3877,1.3877,1.3877,1.3877,1.3877,1.3818,1.3818,1.3818,1.3818,1.3818,1.3818,1.3818,1.3818,1.3818,1.3818,1.3818,1.3818,1.3818,1.3818,1.3818,1.3818,1.377,1.377,1.377,1.3828,1.3828,1.377,1.377,1.377,1.3828,1.377,1.377,1.377,1.3711,1.3711,1.3711,1.3652,1.3652,1.3652,1.3652,1.3652,1.3652,1.3652,1.3652,1.3604,1.3604,1.3545,1.3545,1.3604,1.3545,1.3545,1.3496,1.3545,1.3496,1.3496,1.3496,1.3496,1.3496,1.3496,1.3496,0,0,0,0,0,0,0,0,0,0,0,0,0,0,0,0,0,0,0,0,0,0,0,0,0,0,0,0,0,0
1.3574,1.3623,1.3623,1.3623,1.3623,1.3623,1.3682,1.374,1.3789,1.374,1.3848,1.3848,1.3848,1.3848,1.3906,1.4023,1.4023,1.4082,1.4082,1.4141,1.4141,1.4141,1.4199,1.4199,1.4268,1.4326,1.4326,1.4326,1.4385,1.4385,1.1104,1.4385,1.4453,0,1.1143,1.1104,1.4639,1.1182,1.4639,0,0,0,0,0,0,0,1.3203,1.3203,1.3203,1.3203,1.3203,1.3203,1.3145,1.3145,1.126,1.126,0,1.2998,1.2998,1.2998,1.2998,1.3047,1.3096,1.3096,1.3096,1.3154,1.3154,1.3154,1.3154,1.3154,1.3154,1.3203,1.3154,1.3154,1.3154,1.3154,1.3203,1.3203,1.3252,1.3252,1.3252,1.3252,1.3311,1.3311,1.3359,1.3359,1.3359,1.3418,1.3418,1.3467,1.3467,1.3525,1.5166,1.5166,1.5166,1.5166,1.5244,1.5166,1.5166,1.5166,1.5176,1.5176,1.5176,1.5176,1.5244,1.5176,1.5176,1.5176,1.5176,1.5176,1.5176,1.5176,1.5176,1.5176,1.5176,1.5176,1.5176,1.5107,1.5107,1.5107,1.5039,1.5107,1.5107,1.5107,1.5176,1.5107,1.5176,1.5176,1.5176,1.5176,1.5176,1.5107,1.5107,1.5176,1.5107,1.5107,1.5107,1.5107,1.5107,1.5107,1.5039,1.5039,1.5039,1.5107,1.5107,1.5039,1.5039,1.5039,1.5039,1.5039,1.5039,1.5039,1.5039,1.5039,1.5039,1.5039,1.5039,1.5039,1.5039,1.5039,1.5039,1.4971,1.4971,1.4971,1.5039,1.4971,1.5039,1.5039,1.5039,1.5039,1.4971,1.4971,1.4971,1.4971,1.4971,1.4971,1.5107,1.5039,1.5039,1.5039,1.4971,1.4971,1.4971,1.5039,1.4971,1.4971,1.4971,1.4912,1.4912,1.4912,1.4912,1.4912,1.4912,1.4912,1.4971,1.4912,1.4912,1.4912,1.498,1.498,1.4912,1.4912,1.4912,1.4912,1.4912,1.4844,1.4844,1.4912,1.4912,1.4912,1.4912,1.498,1.4912,1.4912,1.4912,1.4912,1.4912,1.4912,1.4912,1.4844,1.4844,1.4844,1.4785,1.4785,1.4785,1.4785,1.4785,1.4785,1.4785,1.4785,1.4785,1.4785,1.4785,1.4844,1.4785,1.4785,1.4844,1.4844,1.4844,1.4844,1.4844,1.4844,1.4844,1.4844,1.4785,1.4785,1.4785,1.4785,1.4785,1.4785,1.4785,1.4785,1.4785,1.4785,1.4785,1.4717,1.4717,1.4717,1.4717,1.4717,1.4658,1.4658,1.4658,1.4658,1.4658,1.4658,1.4658,1.4658,1.4658,1.4658,1.4658,1.4658,1.4658,1.4658,1.4658,1.4658,1.4658,1.4658,1.4658,1.4658,1.4658,1.4658,1.4658,1.459,1.459,1.459,1.459,1.4531,1.4531,1.459,1.459,1.459,1.459,1.459,1.459,1.459,1.459,1.459,1.459,1.459,1.459,1.459,1.4531,1.4531,1.4531,1.4531,1.4531,1.4473,1.4473,1.4473,1.4473,1.4473,1.4473,1.4473,1.4473,1.4473,1.4473,1.4404,1.4404,1.4404,1.4404,1.4404,1.4404,1.4404,1.4346,1.4404,1.4346,1.4346,1.4346,1.4346,1.4287,1.4346,1.4346,1.4346,1.4346,1.4346,1.4346,1.4346,1.4346,1.4287,1.4287,1.4287,1.4287,1.4229,1.4229,1.4229,1.4287,1.4287,1.4287,1.4229,1.4229,1.4229,1.4287,1.4229,1.4229,1.4229,1.4229,1.4229,1.4229,1.4229,1.4229,1.4229,1.4229,1.4229,1.417,1.417,1.417,1.4111,1.4111,1.4053,1.4053,1.4053,1.4053,1.4053,1.4053,1.4053,1.4053,1.4053,1.3994,1.3994,1.3994,1.3994,1.3994,1.3994,1.3994,1.3994,1.3994,1.3994,1.3994,1.3994,1.3936,1.3936,1.3936,1.3877,1.3877,1.3877,1.3877,1.3936,1.3877,1.3877,1.3877,1.3877,1.3936,1.3936,1.3936,1.3877,1.3877,1.3877,1.3877,1.3877,1.3877,1.3877,1.3877,1.3877,1.3877,1.3818,1.3818,1.3818,1.3818,1.3818,1.3877,1.3818,1.3877,1.3818,1.3828,1.3828,1.3828,1.3828,1.3828,1.377,1.377,1.377,1.3828,1.377,1.377,1.377,1.3828,1.3828,1.3828,1.377,1.3828,1.377,1.377,1.3711,1.3711,1.3652,1.3652,1.3652,1.3652,1.3652,1.3652,1.3652,1.3604,1.3604,1.3604,1.3604,1.3652,1.3545,1.3545,1.3545,1.3545,1.3496,1.3496,1.3496,1.3496,1.3496,1.3496,1.3496,0,0,0,0,0,0,0,0,0,0,0,0,0,0,0,0,0,0,0,0,0,0,0,0,0,0,0,0,0,0
1.3574,1.3623,1.3623,1.3623,1.3623,1.3623,1.3682,1.374,1.3799,1.3848,1.3848,1.3848,1.3848,1.3965,1.4023,1.4082,1.4082,1.4141,1.4141,1.4141,1.4199,1.4199,1.4268,1.4268,1.4268,1.4326,1.4326,1.4385,1.4385,1.4385,1.4453,1.4453,1.4512,1.457,1.4639,1.4639,1.4639,1.4639,1.4639,1.4707,0,0,0,0,0,0,1.3203,1.3203,1.3203,1.3203,1.3203,1.3203,1.3154,1.3154,1.3096,1.3096,1.3047,1.3047,1.2998,1.2998,1.3047,1.3047,1.3096,1.3096,1.3096,1.3096,1.3154,1.3154,1.3096,1.3154,1.3154,1.3154,1.3154,1.3154,1.3154,1.3154,1.3154,1.3203,1.3252,1.3252,1.3252,1.3252,1.3311,1.3311,1.3311,1.3359,1.3359,1.3359,1.3359,1.3467,1.3525,1.3574,0,1.5244,1.5176,1.5176,1.5244,1.5176,1.5244,1.5176,1.5176,1.5176,1.5176,1.5176,1.5176,1.5176,1.5176,1.5176,1.5176,1.5176,1.5176,1.5176,1.5176,1.5176,1.5176,1.5176,1.5176,1.5107,1.5107,1.5107,1.5107,1.5107,1.5107,1.5107,1.5176,1.5107,1.5107,1.5176,1.5176,1.5176,1.5176,1.5107,1.5107,1.5176,1.5107,1.5107,1.5107,1.5107,1.5107,1.5107,1.5107,1.5107,1.5107,1.5107,1.5107,1.5039,1.5039,1.5107,1.5039,1.5039,1.5039,1.5039,1.5039,1.5039,1.5039,1.5039,1.5039,1.5039,1.5039,1.5039,1.5039,1.5039,1.5039,1.5039,1.5039,1.4971,1.5039,1.4971,1.5039,1.5039,1.5039,1.4971,1.4971,1.4971,1.4971,1.4971,1.5039,1.5039,1.5039,1.5039,1.5039,1.4971,1.5039,1.5039,1.5039,1.4971,1.4971,1.4971,1.4912,1.4912,1.4912,1.4912,1.4912,1.4912,1.4912,1.4912,1.4912,1.498,1.498,1.498,1.498,1.498,1.498,1.4912,1.4912,1.4912,1.4912,1.4912,1.4912,1.4912,1.4912,1.498,1.4912,1.4912,1.4912,1.4912,1.4912,1.4912,1.4912,1.4844,1.4844,1.4844,1.4785,1.4785,1.4785,1.4844,1.4844,1.4844,1.4844,1.4844,1.4844,1.4785,1.4785,1.4844,1.4785,1.4844,1.4844,1.4844,1.4844,1.4844,1.4844,1.4844,1.4844,1.4844,1.4844,1.4785,1.4785,1.4785,1.4785,1.4785,1.4785,1.4785,1.4785,1.4785,1.4785,1.4785,1.4785,1.4785,1.4717,1.4717,1.4717,1.4717,1.4658,1.4658,1.4658,1.4658,1.4658,1.4658,1.4658,1.4658,1.4658,1.4658,1.4658,1.4658,1.4658,1.4658,1.4658,1.4658,1.4658,1.4658,1.4658,1.4658,1.4658,1.4658,1.459,1.459,1.459,1.4531,1.4531,1.459,1.459,1.459,1.459,1.459,1.459,1.459,1.4658,1.459,1.459,1.459,1.459,1.459,1.4531,1.4531,1.4531,1.4531,1.4531,1.4531,1.4473,1.4531,1.4473,1.4473,1.4531,1.4531,1.4531,1.4473,1.4404,1.4473,1.4473,1.4473,1.4404,1.4404,1.4404,1.4404,1.4404,1.4404,1.4404,1.4404,1.4346,1.4346,1.4346,1.4346,1.4346,1.4346,1.4346,1.4346,1.4346,1.4346,1.4346,1.4346,1.4287,1.4287,1.4287,1.4287,1.4229,1.4229,1.4287,1.4287,1.4287,1.4287,1.4287,1.4229,1.4229,1.4229,1.4229,1.4229,1.4229,1.4229,1.4229,1.4229,1.4229,1.4229,1.4229,1.417,1.417,1.417,1.417,1.4111,1.4111,1.4111,1.4053,1.4053,1.4053,1.4053,1.4053,1.4053,1.4053,1.4053,1.4053,1.4053,1.3994,1.3994,1.3994,1.3994,1.3994,1.3994,1.3994,1.3994,1.3994,1.3994,1.3994,1.3994,1.3994,1.3936,1.3936,1.3936,1.3936,1.3936,1.3877,1.3936,1.3936,1.3936,1.3994,1.3936,1.3936,1.3936,1.3936,1.3936,1.3877,1.3877,1.3877,1.3877,1.3877,1.3818,1.3877,1.3877,1.3818,1.3818,1.3828,1.3828,1.3877,1.3877,1.3877,1.3877,1.3828,1.3828,1.3828,1.3828,1.3828,1.377,1.377,1.377,1.3828,1.377,1.3828,1.377,1.3828,1.3828,1.377,1.377,1.377,1.377,1.3711,1.3711,1.3652,1.3662,1.3662,1.3662,1.3662,1.3662,1.3662,1.3662,1.3604,1.3604,1.3604,1.3604,1.3662,1.3545,1.3545,1.3545,1.3545,1.3545,1.3496,1.3545,1.3496,1.3496,1.3496,1.3496,0,0,0,0,0,0,0,0,0,0,0,0,0,0,0,0,0,0,0,0,0,0,0,0,0,0,0,0,0,0
1.3574,1.3574,1.3623,1.3623,1.3623,1.3682,1.374,1.3799,1.3799,1.3848,1.3848,1.3848,1.3906,1.4023,1.4023,1.4082,1.4082,1.4141,1.4141,1.4141,1.4209,1.4209,1.4268,1.4268,1.4326,1.4326,1.4385,1.4385,1.4385,1.4385,1.4385,1.4453,1.4512,1.457,1.4639,1.4639,1.4639,1.4639,1.4639,1.4707,0,0,0,0,0,1.3311,1.3252,1.3203,1.3203,1.3203,1.3203,1.3154,1.3154,1.3154,1.3096,1.3096,1.3047,1.3047,1.3047,1.3047,1.3047,1.3047,1.3096,1.3096,1.3096,1.3096,1.3154,1.3154,1.3154,1.3154,1.3154,1.3154,1.3154,1.3154,1.3154,1.3154,1.3203,1.3203,1.3252,1.3252,1.3311,1.3311,1.3311,1.3311,1.3359,1.3359,1.3359,1.3359,1.3359,1.3467,1.3467,0,0,1.5244,1.5176,1.5176,1.5244,1.5176,1.5176,1.5176,1.5176,1.5176,1.5176,1.5176,1.5176,1.5176,1.5176,1.5176,1.5176,1.5176,1.5176,1.5176,1.5176,1.5176,1.5176,1.5176,1.5176,1.5107,1.5107,1.5107,1.5107,1.5176,1.5107,1.5107,1.5176,1.5107,1.5107,1.5176,1.5107,1.5107,1.5176,1.5107,1.5107,1.5176,1.5107,1.5107,1.5107,1.5107,1.5107,1.5107,1.5107,1.5107,1.5107,1.5176,1.5107,1.5107,1.5039,1.5107,1.5039,1.5039,1.5039,1.5039,1.5039,1.5039,1.5039,1.5039,1.5039,1.5039,1.5039,1.5039,1.5039,1.5039,1.5039,1.5107,1.5107,1.5039,1.5039,1.5039,1.5039,1.5039,1.5039,1.5039,1.5039,1.4971,1.498,1.498,1.5039,1.5039,1.5039,1.5039,1.5039,1.5039,1.5039,1.5039,1.5039,1.498,1.498,1.498,1.498,1.498,1.4912,1.4912,1.498,1.498,1.498,1.498,1.498,1.498,1.498,1.498,1.498,1.498,1.498,1.4912,1.4912,1.4912,1.4912,1.4912,1.4912,1.4912,1.4912,1.498,1.4912,1.4912,1.4912,1.4912,1.4912,1.4844,1.4844,1.4844,1.4844,1.4844,1.4785,1.4785,1.4785,1.4785,1.4844,1.4844,1.4844,1.4844,1.4844,1.4844,1.4844,1.4844,1.4844,1.4844,1.4844,1.4844,1.4844,1.4844,1.4844,1.4844,1.4844,1.4844,1.4854,1.4854,1.4785,1.4785,1.4785,1.4785,1.4785,1.4785,1.4785,1.4785,1.4785,1.4785,1.4785,1.4785,1.4785,1.4785,1.4717,1.4717,1.4658,1.4658,1.4658,1.4658,1.4658,1.4658,1.4658,1.4717,1.4658,1.4717,1.4658,1.4658,1.4658,1.4658,1.4658,1.4658,1.4658,1.4658,1.4658,1.4658,1.4658,1.4658,1.459,1.459,1.459,1.459,1.459,1.4658,1.4658,1.4658,1.4658,1.4658,1.459,1.459,1.4658,1.459,1.46,1.46,1.46,1.46,1.46,1.4531,1.4531,1.4531,1.4531,1.4531,1.4473,1.4531,1.4473,1.4473,1.4531,1.4473,1.4473,1.4473,1.4404,1.4473,1.4473,1.4473,1.4404,1.4404,1.4414,1.4414,1.4414,1.4414,1.4414,1.4414,1.4414,1.4414,1.4414,1.4414,1.4414,1.4346,1.4346,1.4346,1.4414,1.4414,1.4346,1.4346,1.4346,1.4346,1.4287,1.4287,1.4287,1.4229,1.4287,1.4287,1.4287,1.4287,1.4287,1.4287,1.4287,1.4287,1.4229,1.4287,1.4287,1.4229,1.4229,1.4229,1.417,1.4229,1.4229,1.417,1.417,1.417,1.417,1.4111,1.4111,1.4111,1.4111,1.4111,1.4111,1.4111,1.4111,1.4053,1.4053,1.4053,1.4053,1.4053,1.3994,1.3994,1.4053,1.3994,1.3994,1.3994,1.3994,1.3994,1.3994,1.3994,1.3994,1.3994,1.3994,1.3936,1.3936,1.3936,1.3936,1.3936,1.3936,1.3936,1.3936,1.3994,1.3994,1.3994,1.3936,1.3936,1.3936,1.3936,1.3877,1.3877,1.3877,1.3877,1.3877,1.3828,1.3877,1.3877,1.3828,1.3828,1.3828,1.3877,1.3877,1.3877,1.3877,1.3877,1.3828,1.3828,1.3828,1.3828,1.377,1.377,1.377,1.3828,1.3828,1.377,1.3828,1.377,1.3828,1.3828,1.377,1.377,1.377,1.377,1.3711,1.3711,1.3711,1.3662,1.3662,1.3662,1.3662,1.3662,1.3662,1.3662,1.3604,1.3604,1.3604,1.3604,1.3662,1.3545,1.3545,1.3545,1.3545,1.3496,1.3545,1.3545,1.3545,1.3496,1.3496,1.3496,0,0,0,0,0,0,0,0,0,0,0,0,0,0,0,0,0,0,0,0,0,0,0,0,0,0,0,0,0,0
1.3623,1.3623,1.3623,1.3623,1.3623,1.3682,1.3799,1.3848,1.3848,1.3848,1.3906,1.3965,1.3965,1.4023,1.4023,1.4082,1.4082,1.4082,1.4082,1.4141,1.4209,1.4209,1.4268,1.4326,1.4326,1.4326,1.4385,1.4385,1.4385,1.4385,1.4385,1.4453,1.4453,1.458,1.458,1.4639,1.4639,1.4639,1.4639,1.4639,0,0,0,0,0,1.3311,1.3252,1.3252,1.3203,1.3203,1.3203,1.3154,1.3154,1.3154,1.3096,1.3096,1.3047,1.3047,1.3047,1.3047,1.3047,1.3047,1.3096,1.3096,1.3154,1.3154,1.3154,1.3154,1.3154,1.3154,1.3154,1.3154,1.3154,1.3154,1.3203,1.3203,1.3252,1.3252,1.3252,1.3311,1.3311,1.3311,1.3311,1.3311,1.3359,1.3359,1.3359,1.3418,1.3467,1.3525,1.3525,0,1.5244,1.5244,1.5244,1.5244,1.5244,1.5244,1.5176,1.5176,1.5176,1.5176,1.5176,1.5176,1.5176,1.5176,1.5176,1.5176,1.5176,1.5176,1.5176,1.5176,1.5176,1.5176,1.5176,1.5176,1.5176,1.5107,1.5107,1.5107,1.5107,1.5176,1.5107,1.5176,1.5176,1.5176,1.5176,1.5176,1.5176,1.5176,1.5176,1.5107,1.5107,1.5176,1.5107,1.5107,1.5107,1.5107,1.5107,1.5107,1.5107,1.5107,1.5107,1.5107,1.5107,1.5039,1.5039,1.5039,1.5039,1.5039,1.5039,1.5039,1.5039,1.5039,1.5039,1.5039,1.5039,1.5039,1.5039,1.5039,1.5107,1.5039,1.5107,1.5107,1.5107,1.5039,1.5039,1.5039,1.5039,1.5039,1.5039,1.5039,1.5039,1.498,1.498,1.498,1.5039,1.5039,1.5039,1.5039,1.5039,1.5039,1.5039,1.5049,1.5049,1.498,1.498,1.4912,1.4912,1.4912,1.4912,1.4912,1.498,1.498,1.498,1.498,1.498,1.498,1.498,1.498,1.498,1.498,1.498,1.498,1.498,1.498,1.4912,1.498,1.4912,1.498,1.4912,1.498,1.4912,1.498,1.4912,1.4912,1.4912,1.4844,1.4844,1.4844,1.4844,1.4844,1.4844,1.4844,1.4844,1.4844,1.4844,1.4844,1.4844,1.4844,1.4844,1.4844,1.4844,1.4912,1.4844,1.4844,1.4844,1.4854,1.4854,1.4854,1.4854,1.4854,1.4854,1.4854,1.4854,1.4854,1.4785,1.4785,1.4854,1.4785,1.4785,1.4854,1.4785,1.4785,1.4785,1.4785,1.4785,1.4785,1.4785,1.4785,1.4785,1.4717,1.4717,1.4717,1.4658,1.4717,1.4717,1.4658,1.4717,1.4717,1.4717,1.4717,1.4658,1.4658,1.4658,1.4658,1.4658,1.4658,1.4658,1.4658,1.4658,1.4658,1.4658,1.4658,1.46,1.459,1.459,1.459,1.459,1.4658,1.4658,1.4658,1.4658,1.46,1.46,1.46,1.4658,1.46,1.46,1.46,1.46,1.46,1.46,1.4531,1.4531,1.4531,1.4531,1.4531,1.4531,1.4531,1.4473,1.4531,1.4531,1.4473,1.4473,1.4473,1.4414,1.4473,1.4473,1.4473,1.4414,1.4414,1.4414,1.4414,1.4414,1.4414,1.4414,1.4414,1.4414,1.4414,1.4414,1.4414,1.4346,1.4346,1.4346,1.4346,1.4414,1.4414,1.4346,1.4346,1.4346,1.4346,1.4346,1.4287,1.4287,1.4287,1.4346,1.4346,1.4287,1.4287,1.4287,1.4287,1.4287,1.4229,1.4229,1.4287,1.4229,1.4229,1.4229,1.4229,1.4229,1.4229,1.4229,1.417,1.417,1.417,1.417,1.4111,1.4111,1.4111,1.4111,1.4111,1.4111,1.4111,1.4111,1.4111,1.4111,1.4053,1.4053,1.4053,1.4053,1.4053,1.4053,1.4053,1.3994,1.3994,1.3994,1.3994,1.3994,1.3994,1.3994,1.3994,1.3994,1.3994,1.3994,1.3994,1.3936,1.3936,1.3936,1.3936,1.3936,1.3994,1.3994,1.3936,1.3936,1.3936,1.3936,1.3936,1.3877,1.3877,1.3877,1.3877,1.3877,1.3877,1.3877,1.3877,1.3877,1.3877,1.3877,1.3877,1.3877,1.3877,1.3877,1.3887,1.3828,1.3828,1.3828,1.3828,1.3828,1.377,1.377,1.3828,1.3828,1.3828,1.3828,1.377,1.3828,1.3828,1.377,1.377,1.377,1.377,1.3711,1.3711,1.3711,1.3711,1.3662,1.3662,1.3662,1.3662,1.3662,1.3662,1.3662,1.3604,1.3604,1.3604,1.3662,1.3604,1.3604,1.3545,1.3604,1.3545,1.3545,1.3545,1.3496,1.3496,1.3496,1.3496,0,0,0,0,0,0,0,0,0,0,0,0,0,0,0,0,0,0,0,0,0,0,0,0,0,0,0,0,0,0
1.3633,1.3633,1.3633,1.3633,1.3682,1.374,1.3857,1.3857,1.3857,1.3857,1.3906,1.3965,1.3965,1.4023,1.4082,1.4082,1.4082,1.4082,1.4082,1.4141,1.4141,1.4268,1.4268,1.4326,1.4326,1.4385,1.4385,1.4385,1.4385,1.4385,1.4385,1.4453,1.4512,1.458,1.458,1.458,1.4639,1.4639,1.4639,1.4639,0,0,0,0,0,1.3359,1.3252,1.3252,1.3203,1.3203,1.3203,1.3203,1.3154,1.3154,1.3096,1.3096,1.3047,1.3047,1.2998,1.3047,1.3047,1.3047,1.3105,1.3105,1.3154,1.3154,1.3154,1.3154,1.3203,1.3154,1.3154,1.3154,1.3154,1.3154,0,1.5244,1.5176,1.5176,1.3262,1.3311,1.3359,1.3311,1.3311,1.3311,1.3311,1.3359,1.3359,1.3418,1.3418,1.3525,1.3525,0,1.5244,1.5244,1.5244,1.5244,1.5244,1.5244,1.5244,1.5244,1.5176,1.5176,1.5176,1.5176,1.5176,1.5176,1.5176,1.5176,1.5176,1.5176,1.5176,1.5176,1.5176,1.5176,1.5176,1.5176,1.5176,1.5107,1.5107,1.5107,1.5107,1.5176,1.5176,1.5176,1.5244,1.5176,1.5176,1.5176,1.5176,1.5176,1.5176,1.5107,1.5107,1.5176,1.5107,1.5107,1.5107,1.5107,1.5107,1.5107,1.5107,1.5039,1.5107,1.5107,1.5107,1.5039,1.5039,1.5039,1.5039,1.5039,1.5039,1.5039,1.5039,1.5107,1.5039,1.5039,1.5039,1.5039,1.5039,1.5039,1.5107,1.5039,1.5107,1.5107,1.5039,1.5039,1.5039,1.498,1.5039,1.5039,1.5039,1.5039,1.5039,1.498,1.498,1.498,1.5049,1.5049,1.5049,1.5049,1.5049,1.5049,1.5049,1.5049,1.498,1.498,1.498,1.4912,1.4912,1.4912,1.4912,1.4912,1.4912,1.4912,1.4912,1.498,1.498,1.498,1.498,1.5049,1.498,1.498,1.498,1.498,1.498,1.498,1.4912,1.498,1.498,1.498,1.4912,1.498,1.4912,1.4912,1.4912,1.4844,1.4912,1.4844,1.4912,1.4844,1.4844,1.4844,1.4844,1.4844,1.4844,1.4844,1.4844,1.4844,1.4844,1.4844,1.4854,1.4854,1.4854,1.4854,1.4854,1.4854,1.4854,1.4854,1.4854,1.4854,1.4854,1.4854,1.4854,1.4854,1.4854,1.4854,1.4854,1.4785,1.4854,1.4785,1.4854,1.4854,1.4785,1.4785,1.4854,1.4785,1.4785,1.4785,1.4785,1.4785,1.4785,1.4785,1.4717,1.4717,1.4717,1.4717,1.4717,1.4658,1.4658,1.4727,1.4727,1.4658,1.4658,1.4658,1.4658,1.4658,1.4658,1.4658,1.4658,1.4658,1.4658,1.4658,1.4658,1.4658,1.46,1.46,1.46,1.46,1.46,1.4658,1.4658,1.4658,1.4658,1.4658,1.46,1.46,1.4658,1.46,1.46,1.46,1.46,1.46,1.46,1.4531,1.4531,1.4531,1.4531,1.4531,1.4531,1.4531,1.4473,1.4473,1.4531,1.4473,1.4473,1.4473,1.4414,1.4473,1.4473,1.4473,1.4473,1.4414,1.4473,1.4473,1.4414,1.4473,1.4414,1.4414,1.4414,1.4414,1.4414,1.4414,1.4346,1.4346,1.4346,1.4346,1.4346,1.4346,1.4346,1.4346,1.4346,1.4346,1.4346,1.4355,1.4287,1.4287,1.4355,1.4355,1.4287,1.4287,1.4287,1.4287,1.4287,1.4287,1.4287,1.4287,1.4287,1.4229,1.4229,1.4229,1.4229,1.4229,1.4229,1.417,1.417,1.417,1.417,1.417,1.417,1.417,1.4111,1.417,1.417,1.417,1.417,1.4111,1.4111,1.4111,1.4053,1.4053,1.4053,1.4053,1.4053,1.4053,1.4053,1.4053,1.4053,1.3994,1.3994,1.3994,1.3994,1.3994,1.3994,1.3994,1.3994,1.3994,1.3936,1.3936,1.3936,1.3936,1.3936,1.3994,1.3994,1.3936,1.3936,1.4053,1.3994,1.3936,1.3877,1.3887,1.3887,1.3887,1.3887,1.3887,1.3887,1.3887,1.3887,1.3887,1.3887,1.3887,1.3887,1.3887,1.3887,1.3887,1.3828,1.3828,1.3828,1.3828,1.3828,1.377,1.3828,1.3828,1.3828,1.3828,1.3887,1.377,1.3887,1.377,1.377,1.3711,1.377,1.377,1.3711,1.3711,1.3662,1.3662,1.3662,1.3662,1.3662,1.3662,1.3711,1.3662,1.3662,1.3604,1.3662,1.3662,1.3662,1.3662,1.3662,1.3604,1.3555,1.3555,1.3604,1.3604,1.3555,1.3555,1.3496,1.3496,0,0,0,0,0,0,0,0,0,0,0,0,0,0,0,0,0,0,0,0,0,0,0,0,0,0,0,0,0,0
1.3633,1.3633,1.3633,1.3682,1.3682,1.374,1.3857,1.3857,1.3857,1.3857,1.3916,1.3916,1.3965,1.4023,1.4023,1.4082,1.4092,1.4082,1.4082,1.415,1.4209,1.4209,1.4268,1.4326,1.4326,1.4326,1.4385,1.4385,1.4385,1.4385,1.4385,1.4453,1.4512,1.458,1.458,1.4639,1.4639,1.4639,1.4639,1.458,0,0,0,0,0,1.3359,1.3252,1.3252,1.3252,1.3203,1.3203,1.3203,1.3154,1.3154,1.3154,1.3105,1.3047,1.2998,1.3047,1.3047,1.3047,1.3047,1.3105,1.3105,1.3203,1.3154,1.3203,1.3203,1.3203,1.3154,1.3203,1.3154,1.3203,0,1.5244,1.5244,1.5244,1.5244,1.5176,1.3311,1.3359,1.3359,1.3418,1.3311,1.3418,1.3359,1.3359,1.3418,0,0,0,0,1.5244,1.5244,1.5244,1.5312,1.5244,1.5244,1.5244,1.5244,1.5176,1.5176,1.5176,1.5176,1.5176,1.5176,1.5176,1.5176,1.5176,1.5176,1.5176,1.5176,1.5176,1.5176,1.5176,1.5176,1.5176,1.5107,1.5176,1.5176,1.5107,1.5244,1.5244,1.5244,1.5244,1.5176,1.5176,1.5244,1.5244,1.5176,1.5176,1.5107,1.5107,1.5176,1.5176,1.5107,1.5107,1.5107,1.5107,1.5107,1.5107,1.5039,1.5039,1.5107,1.5107,1.5039,1.5039,1.5039,1.5039,1.5039,1.5039,1.5039,1.5039,1.5107,1.5107,1.5039,1.5039,1.5039,1.5039,1.5039,1.5039,1.5039,1.5039,1.5039,1.5039,1.5039,1.5039,1.498,1.5039,1.5049,1.5049,1.5049,1.5049,1.5049,1.498,1.498,1.5049,1.5049,1.5049,1.5049,1.2158,1.2158,1.207,0,0,0,1.4844,1.4844,1.4844,1.4912,1.4912,1.4912,1.4912,1.4912,1.4912,1.498,1.2207,1.4912,1.4912,1.2207,1.498,1.498,1.498,1.498,1.5049,1.498,1.4912,1.498,1.4912,1.4912,1.4912,1.498,1.4912,1.4912,1.4912,1.4912,1.4912,1.4912,1.4912,1.4844,1.4844,1.4844,1.4854,1.4854,1.4854,1.4854,1.4854,1.4854,1.4854,1.4854,1.4854,1.4854,1.4854,1.4912,1.4854,1.4912,1.4854,1.4854,1.4854,1.4854,1.4854,1.4854,1.4854,1.4854,1.4854,1.4854,1.4854,1.4785,1.4854,1.4854,1.4854,1.4854,1.4785,1.4785,1.4854,1.4785,1.4785,1.4854,1.4785,1.4785,1.4785,1.4785,1.4727,1.4727,1.4727,1.4727,1.4727,1.4727,1.4727,1.4727,1.4727,1.4727,1.4658,1.4658,1.4658,1.4658,1.4658,1.4658,1.4658,1.4658,1.4658,1.4658,1.4658,1.4658,1.4658,1.46,1.46,1.46,1.46,1.4658,1.4658,1.4658,1.4658,1.4658,1.4658,1.46,1.46,1.46,1.46,1.46,1.46,1.46,1.46,1.46,1.46,1.4531,1.4531,1.4531,1.4531,1.4531,1.4531,1.4531,1.4531,1.4473,1.4473,1.4473,1.4414,1.4473,1.4414,1.4473,1.4473,1.4473,1.4473,1.4473,1.4414,1.4414,1.4473,1.4414,1.4414,1.4414,1.4414,1.4414,1.4414,1.4346,1.4414,1.4355,1.4355,1.4355,1.4355,1.4355,1.4355,1.4355,1.4287,1.4287,1.4287,1.4287,1.4355,1.4355,1.4355,1.4355,1.4287,1.4287,1.4287,1.4287,1.4287,1.4287,1.4287,1.4229,1.4229,1.4229,1.4229,1.4229,1.4229,1.417,1.417,1.417,1.417,1.417,1.417,1.417,1.417,1.417,1.417,1.4229,1.417,1.417,1.4111,1.4111,1.4053,1.4053,1.4053,1.4053,1.4111,1.4053,1.4053,1.4053,1.4053,1.4053,1.4053,1.3994,1.3994,1.3994,1.3994,1.3994,1.3994,1.3994,1.3994,1.3994,1.3994,1.3994,1.3994,1.3994,1.4053,1.3994,1.3936,1.3994,1.3994,1.3936,1.3887,1.3887,1.3887,1.3887,1.3887,1.3887,1.3887,1.3887,1.3887,1.3887,1.3887,1.3887,1.3887,1.3887,1.3887,1.3887,1.3887,1.3828,1.3828,1.3828,1.3828,1.377,1.3828,1.3828,1.3828,1.3828,1.377,1.377,1.3887,1.3828,1.377,1.377,1.377,1.377,1.3711,1.3711,1.3711,1.3711,1.3711,1.3711,1.3711,1.3711,1.3711,1.3711,1.3662,1.3604,1.3604,1.3604,1.3662,1.3662,1.3604,1.3604,1.3604,1.3555,1.3604,1.3604,1.3555,1.3555,1.3555,1.3496,0,0,0,0,0,0,0,0,0,0,0,0,0,0,0,0,0,0,0,0,0,0,0,0,0,0,0,0,0,0
1.3633,1.3633,1.3633,1.3682,1.3682,1.374,1.3857,1.3857,1.3857,1.3857,1.3916,1.3975,1.4033,1.4092,1.4092,1.4092,1.4092,1.415,1.415,1.415,1.415,1.4209,1.4268,1.4268,1.4326,1.4326,1.4326,1.4385,1.4385,1.4385,1.4395,1.4395,1.4512,1.458,1.4639,1.4639,1.4639,1.4639,1.458,1.458,0,0,0,0,0,1.3359,1.3311,1.3252,1.3252,1.3252,1.3203,1.3203,1.3154,1.3154,1.3105,1.3105,1.2998,1.3047,0,0,1.5107,1.5107,1.3105,1.3203,1.3203,1.3203,1.3203,1.3203,1.3203,1.3203,1.3203,0,1.5244,1.5244,1.5244,1.5244,1.5244,1.5244,1.5244,1.5244,1.3311,1.3359,1.3418,1.3311,1.3359,1.3359,1.3359,0,0,0,0,0,0,1.5312,1.5244,1.5312,1.5312,1.5244,1.5244,1.5244,1.5176,1.5176,1.5176,1.5176,1.5176,1.5176,1.5176,1.5176,1.5176,1.5176,1.5176,1.5176,1.5176,1.5176,1.5176,1.5176,1.5176,1.5176,1.5176,1.5176,1.5176,1.5176,1.5244,1.5176,1.5244,1.5176,1.5244,1.5244,1.5244,1.5244,1.5176,1.5176,1.5176,1.5176,1.5176,1.5107,1.5107,1.5107,1.5107,1.5107,1.5107,1.5107,1.5107,1.5107,1.5039,1.5039,1.5039,1.5039,1.5039,1.5039,1.5107,1.5107,1.5107,1.5107,1.5107,1.5107,1.5107,1.5039,1.5039,1.5107,1.5107,1.5049,1.5107,1.5049,1.5049,1.5049,1.5049,1.498,1.5049,1.5049,1.5049,1.5117,1.5117,1.5049,1.5049,1.498,1.5049,1.5049,1.2158,1.2158,1.2158,1.2158,1.207,1.2119,1.2119,1.207,0,0,1.4785,1.4785,1.4785,1.4785,1.2256,1.2256,1.2207,1.2207,1.2207,1.2207,1.2207,1.2256,1.2256,1.2256,0,1.498,1.498,1.498,1.498,1.4912,1.4912,1.4912,1.4912,1.4912,1.4912,1.4912,1.4912,1.4912,1.4854,1.4854,1.4912,1.4854,1.4854,1.4912,1.4854,1.4912,1.4912,1.4912,1.4854,1.4854,1.4854,1.4854,1.4854,1.4854,1.4854,1.4912,1.4912,1.4854,1.4854,1.4854,1.4854,1.4854,1.4854,1.4854,1.4854,1.4854,1.4854,1.4854,1.4854,1.4785,1.4854,1.4854,1.4854,1.4785,1.4785,1.4785,1.4854,1.4785,1.4854,1.4854,1.4785,1.4785,1.4785,1.4785,1.4727,1.4727,1.4727,1.4727,1.4727,1.4658,1.4727,1.4727,1.4727,1.4727,1.4658,1.4658,1.4658,1.4658,1.4658,1.4658,1.4658,1.4658,1.4658,1.4658,1.4658,1.4658,1.4658,1.46,1.46,1.46,1.46,1.4658,1.4658,1.4658,1.4658,1.4658,1.4658,1.46,1.46,1.46,1.46,1.46,1.4531,1.46,1.46,1.4531,1.4531,1.4531,1.4531,1.4531,1.4531,1.4531,1.4531,1.4531,1.4531,1.4531,1.4473,1.4473,1.4473,1.4473,1.4473,1.4473,1.4473,1.4473,1.4473,1.4473,1.4473,1.4414,1.4414,1.4414,1.4414,1.4414,1.4414,1.4414,1.4414,1.4355,1.4355,1.4355,1.4355,1.4355,1.4355,1.4355,1.4355,1.4355,1.4287,1.4287,1.4287,1.4287,1.4355,1.4355,1.4355,1.4355,1.4287,1.4287,1.4287,1.4287,1.4287,1.4287,1.4287,1.4229,1.4229,1.4229,1.4229,1.4229,1.417,1.417,1.417,1.4229,1.417,1.417,1.417,1.417,1.417,1.4229,1.4229,1.417,1.417,1.417,1.4111,1.4111,1.4111,1.4111,1.4053,1.4111,1.4111,1.4053,1.4053,1.4053,1.4053,1.4053,1.4053,1.3994,1.3994,1.3994,1.3994,1.3994,1.3994,1.3994,1.3994,1.3994,1.3994,1.3994,1.3994,1.3994,1.3994,1.3994,1.3936,1.3994,1.3936,1.3887,1.3887,1.3887,1.3887,1.3887,1.3887,1.3887,1.3887,1.3887,1.3887,1.3887,1.3887,1.3887,1.3887,1.3887,1.3887,1.3887,1.3887,1.3887,1.3887,1.3828,1.3828,1.3828,1.3828,1.3887,1.3828,1.3828,1.377,1.3828,1.3828,1.3828,1.377,1.3711,1.377,1.377,1.3711,1.3711,1.3711,1.3711,1.3711,1.377,1.377,1.377,1.377,1.3721,1.3721,1.3662,1.3604,1.3604,1.3662,1.3662,1.3604,1.3604,1.3555,1.3555,1.3604,1.3604,1.3555,1.3555,1.3555,1.3496,0,0,0,0,0,0,0,0,0,0,0,0,0,0,0,0,0,0,0,0,0,0,0,0,0,0,0,0,0,0
1.3633,1.3633,1.3633,1.3682,1.3682,1.3799,1.3857,1.3857,1.3857,1.3857,1.3916,1.3916,1.4033,1.4092,1.4092,1.4092,1.4092,1.415,1.415,1.415,1.415,1.4209,1.4268,1.4268,1.4326,1.4326,1.4395,1.4395,1.4395,1.4395,1.4395,1.4453,1.4512,1.458,1.4639,1.4639,1.4639,1.4639,1.458,1.458,0,0,0,0,1.3799,1.3359,1.3311,1.3311,1.3252,1.3252,1.3203,1.3203,1.3203,1.3154,1.3154,1.3105,1.3047,1.3047,0,0,1.5107,1.5176,1.5176,1.5176,1.3262,1.3203,1.3262,1.3262,0,1.5176,1.5244,1.5244,1.5244,1.5244,1.5244,1.5244,1.5244,1.5312,1.5312,1.5312,1.3369,1.3369,1.3369,1.3369,1.3418,1.3369,0,0,0,0,0,0,0,1.5312,1.5244,1.5312,1.5312,1.5244,1.5244,1.5244,1.5176,1.5176,1.5176,1.5176,1.5176,1.5176,1.5176,1.5176,1.5176,1.5176,1.5176,1.5176,1.5176,1.5176,1.5176,1.5176,1.5176,1.5176,1.5176,1.5176,1.5176,1.5244,1.5244,1.5244,1.5244,1.5244,1.5244,1.5244,1.5244,1.5244,1.5244,1.5176,1.5244,1.5244,1.5176,1.5107,1.5176,1.5176,1.5176,1.5176,1.5107,1.5107,1.5107,1.5107,1.5107,1.5107,1.5039,1.5039,1.5039,1.5039,1.5039,1.5107,1.5039,1.5039,1.5107,1.5107,1.5107,1.5049,1.5049,1.5107,1.5107,1.5107,1.5117,1.5176,1.5117,1.5049,1.5049,1.498,1.498,1.5117,1.5049,1.5049,1.207,1.207,1.207,1.207,1.2158,1.207,1.2158,1.2158,1.2158,1.2158,1.2119,1.2119,1.2119,1.2119,1.2158,1.2158,1.2207,1.2168,1.2256,1.2256,1.2256,1.2256,1.2207,1.2256,1.2256,1.2207,1.2256,1.2256,1.2256,1.2256,1.2256,1.2256,0,0,1.4912,1.4912,1.4912,1.4912,1.4854,1.4912,1.4912,1.4912,1.4912,1.4912,1.4854,1.4854,1.4854,1.4854,1.4854,1.4912,1.4854,1.4912,1.4912,1.4912,1.4854,1.4854,1.4854,1.4912,1.4854,1.4854,1.4854,1.4912,1.4912,1.4854,1.4854,1.4854,1.4854,1.4854,1.4854,1.4854,1.4854,1.4854,1.4854,1.4854,1.4854,1.4785,1.4854,1.4854,1.4854,1.4854,1.4785,1.4785,1.4854,1.4785,1.4854,1.4854,1.4854,1.4854,1.4854,1.4785,1.4785,1.4727,1.4727,1.4727,1.4727,1.4658,1.4727,1.4727,1.4727,1.4658,1.4658,1.4658,1.4658,1.4658,1.4658,1.4658,1.4658,1.4658,1.4658,1.4658,1.4658,1.4658,1.4658,1.46,1.46,1.46,1.46,1.4658,1.4658,1.4658,1.4658,1.4658,1.4658,1.46,1.46,1.46,1.46,1.46,1.46,1.46,1.46,1.4531,1.4531,1.4531,1.4531,1.4531,1.4531,1.4531,1.4531,1.4531,1.4531,1.4531,1.4473,1.4473,1.4473,1.4473,1.4473,1.4473,1.4473,1.4473,1.4473,1.4473,1.4473,1.4414,1.4414,1.4414,1.4414,1.4414,1.4414,1.4414,1.4414,1.4355,1.4414,1.4355,1.4355,1.4355,1.4355,1.4355,1.4355,1.4355,1.4287,1.4287,1.4287,1.4287,1.4355,1.4355,1.4355,1.4355,1.4297,1.4297,1.4297,1.4297,1.4297,1.4297,1.4297,1.4297,1.4229,1.4229,1.4229,1.4229,1.4229,1.417,1.4229,1.4229,1.4229,1.417,1.417,1.4229,1.4229,1.4229,1.4229,1.4238,1.417,1.417,1.417,1.417,1.4111,1.4111,1.4111,1.4111,1.4111,1.4111,1.4053,1.4053,1.4053,1.4053,1.4053,1.3994,1.3994,1.3994,1.3994,1.3994,1.3994,1.3994,1.3994,1.3994,1.3994,1.3994,1.3994,1.3994,1.4053,1.3994,1.3945,1.3994,1.3994,1.3945,1.3887,1.3887,1.3887,1.3887,1.3887,1.3887,1.3887,1.3887,1.3887,1.3887,1.3887,1.3945,1.3887,1.3887,1.3887,1.3887,1.3887,1.3887,1.3887,1.3828,1.3828,1.3828,1.3828,1.3887,1.3828,1.3828,1.3887,1.3887,1.3887,1.3828,1.3828,1.3711,1.3711,1.3721,1.3721,1.3721,1.3721,1.3721,1.377,1.3721,1.3721,1.377,1.3721,1.3721,1.3721,1.3662,1.3662,1.3604,1.3662,1.3662,1.3604,1.3555,1.3555,1.3555,1.3604,1.3604,1.3555,1.3555,1.3496,1.3496,0,0,0,0,0,0,0,0,0,0,0,0,0,0,0,0,0,0,0,0,0,0,0,0,0,0,0,0,0,0
1.3633,1.3633,1.3682,1.374,1.374,1.3799,1.3857,1.3916,1.3916,1.3857,1.3916,1.3916,1.4033,1.4092,1.4092,1.4092,1.4092,1.415,1.415,1.415,1.4209,1.4209,1.4268,1.4326,1.4326,1.4326,1.4395,1.4395,1.4395,1.4453,1.4453,1.4512,1.458,1.458,1.4639,1.4639,1.4639,1.4639,1.458,1.4512,0,0,0,0,0,1.3418,1.3311,1.3262,1.3262,1.3262,1.3203,1.3203,1.3154,1.3154,1.3154,1.3105,1.2998,0,0,1.5107,1.5107,1.5176,1.5176,1.5176,1.5244,1.5244,1.5244,1.5244,1.5176,1.5176,1.5244,1.5244,1.5244,1.5244,1.5244,1.5244,1.5244,1.5312,1.5244,1.5312,1.5312,1.5244,1.3477,1.3311,1.3418,0,0,0,0,0,0,0,0,1.5312,1.5244,1.5312,1.5312,1.5312,1.5244,1.5244,1.5244,1.5244,1.5244,1.5244,1.5176,1.5176,1.5176,1.5176,1.5176,1.5176,1.5176,1.5176,1.5176,1.5176,1.5176,1.5176,1.5176,1.5107,1.5176,1.5176,1.5176,1.5244,1.5244,1.5244,1.5244,1.5244,1.5244,1.5244,1.5244,1.5244,1.5244,1.5244,1.5244,1.5244,1.5244,1.5176,1.5176,1.5176,1.5176,1.5176,1.5176,1.5107,1.5107,1.5107,1.5107,1.5107,1.5039,1.5049,1.5049,1.5049,1.5049,1.5176,1.5107,1.5176,1.5107,1.5117,1.5117,1.5049,1.5049,1.5117,1.2031,1.207,1.207,1.2031,1.2031,1.207,1.2119,1.207,1.207,1.2031,1.2031,1.207,1.207,1.208,1.208,1.208,1.208,1.2158,1.2158,1.2119,1.2168,1.2119,1.2119,1.2119,1.2119,1.2119,1.2168,1.2207,1.2207,1.2207,1.2256,1.2256,1.2256,1.2256,1.2256,1.2256,1.2256,1.2256,1.2256,1.2256,1.2256,1.2256,1.2256,1.2256,1.2256,1.2256,0,0,1.4854,1.4854,1.4912,1.498,1.498,1.4912,1.4912,1.4912,1.4912,1.4854,1.4912,1.4854,1.4854,1.4912,1.4854,1.4912,1.4912,1.4854,1.4854,1.4854,1.4854,1.4854,1.4854,1.4854,1.4854,1.4922,1.4922,1.4922,1.4922,1.4922,1.4854,1.4922,1.4854,1.4854,1.4854,1.4854,1.4854,1.4854,1.4854,1.4854,1.4854,1.4854,1.4854,1.4785,1.4785,1.4785,1.4785,1.4785,1.4785,1.4785,1.4785,1.4854,1.4854,1.4785,1.4785,1.4727,1.4727,1.4727,1.4727,1.4727,1.4727,1.4727,1.4727,1.4658,1.4658,1.4658,1.4658,1.4658,1.4658,1.4658,1.4658,1.4658,1.4658,1.4658,1.4658,1.4658,1.4658,1.4658,1.4658,1.4658,1.4658,1.4658,1.4658,1.4658,1.4658,1.4658,1.4658,1.46,1.46,1.46,1.46,1.46,1.46,1.46,1.46,1.46,1.46,1.46,1.4541,1.4541,1.4541,1.4541,1.4541,1.4541,1.4541,1.4541,1.4473,1.4473,1.4473,1.4473,1.4473,1.4473,1.4473,1.4473,1.4473,1.4473,1.4473,1.4473,1.4414,1.4414,1.4414,1.4414,1.4414,1.4414,1.4414,1.4414,1.4414,1.4355,1.4355,1.4355,1.4355,1.4414,1.4355,1.4355,1.4287,1.4355,1.4297,1.4297,1.4355,1.4355,1.4355,1.4355,1.4297,1.4297,1.4297,1.4297,1.4297,1.4297,1.4297,1.4297,1.4297,1.4229,1.4229,1.4229,1.4229,1.4229,1.4229,1.4229,1.4238,1.4238,1.4238,1.4238,1.4238,1.4238,1.417,1.417,1.417,1.417,1.417,1.4111,1.4111,1.4111,1.4111,1.4111,1.4111,1.4111,1.4053,1.4053,1.4053,1.4053,1.4053,1.4053,1.3994,1.3994,1.3994,1.3994,1.3994,1.3994,1.3994,1.3994,1.3994,1.3994,1.3994,1.3945,1.3994,1.3945,1.3945,1.3945,1.3945,1.3945,1.3887,1.3945,1.3887,1.3887,1.3887,1.3887,1.3887,1.3887,1.3945,1.3945,1.3945,1.3945,1.3887,1.3887,1.3887,1.3887,1.3887,1.3887,1.3887,1.3887,1.3828,1.3828,1.3887,1.3887,1.3828,1.3828,1.3887,1.3887,1.3887,1.3828,1.377,1.3721,1.3721,1.377,1.3721,1.377,1.3721,1.3721,1.377,1.3721,1.377,1.377,1.3721,1.3721,1.3662,1.3662,1.3604,1.3604,1.3662,1.3604,1.3604,1.3555,1.3555,1.3555,1.3555,1.3555,1.3555,1.3555,1.3496,1.3496,0,0,0,0,0,0,0,0,0,0,0,0,0,0,0,0,0,0,0,0,0,0,0,0,0,0,0,0,0,0
1.3633,1.3682,1.3682,1.374,1.3799,1.3799,1.3857,1.3916,1.3916,1.3916,1.3916,1.3916,1.4033,1.4092,1.4092,1.4092,1.4092,1.415,1.415,1.415,1.4209,1.4268,1.4268,1.4326,1.4326,1.4395,1.4395,1.4395,1.4453,1.4453,1.4453,1.458,1.458,1.4639,1.4639,1.4639,1.4639,1.4639,1.458,1.4521,1.4395,1.4521,1.4336,0,0,1.3418,1.3359,1.3262,1.3262,1.3203,1.3203,1.3154,1.3154,1.3154,1.3154,1.3105,0,1.5107,1.5039,1.5107,1.5176,1.5176,1.5176,1.5176,1.5244,1.5244,1.5244,1.5244,1.5244,1.5176,1.5244,1.5244,1.5244,1.5244,1.5244,1.5244,1.5244,1.5244,1.5244,1.5244,1.5312,1.5176,1.5176,1.5107,1.4902,0,0,0,0,0,0,0,0,0,1.5312,1.5312,1.5312,1.5312,1.5244,1.5244,1.5244,1.5244,1.5244,1.5244,1.5244,1.5176,1.5244,1.5244,1.5176,1.5176,1.5176,1.5176,1.5176,1.5176,1.5176,1.5176,1.5176,1.5176,1.5176,1.5176,1.5176,1.5244,1.5244,1.5244,1.5244,1.5244,1.5322,1.5322,1.5322,1.5322,1.5322,1.5322,1.1865,1.1816,1.1816,1.1816,1.1816,1.1865,1.1816,1.1816,1.5176,1.5107,1.5107,1.1865,1.1865,1.1865,1.1904,1.1904,1.1904,1.1904,1.1904,1.1943,1.1904,1.1943,1.1943,1.1943,1.1904,1.1943,1.1943,1.1992,1.1992,1.207,1.207,1.207,1.2031,1.2031,1.208,1.208,1.2031,1.2031,1.2031,1.2031,1.208,1.2031,1.2119,1.208,1.208,1.208,1.2119,1.2119,1.2119,1.2168,1.2119,1.2119,1.2119,1.2119,1.2168,1.2168,1.2207,1.2207,1.2256,1.2256,1.2207,1.2256,1.2256,1.2207,1.2256,1.2256,1.2256,1.2256,1.2256,1.2256,1.2256,1.2256,1.2256,1.2256,0,0,1.498,1.4912,1.4912,1.498,1.498,1.498,1.4912,1.4912,1.4912,1.4922,1.4922,1.4922,1.4922,1.4922,1.4854,1.4922,1.4922,1.4854,1.4854,1.4854,1.4922,1.4922,1.4854,1.4854,1.4854,1.4922,1.4922,1.4922,1.4922,1.4922,1.4922,1.4922,1.4854,1.4922,1.4854,1.4854,1.4854,1.4854,1.4854,1.4854,1.4854,1.4854,1.4854,1.4854,1.4785,1.4785,1.4785,1.4785,1.4785,1.4854,1.4854,1.4854,1.4854,1.4785,1.4785,1.4785,1.4727,1.4727,1.4727,1.4727,1.4727,1.4727,1.4727,1.4727,1.4658,1.4658,1.4658,1.4658,1.46,1.46,1.46,1.4658,1.4658,1.4658,1.4658,1.4658,1.4658,1.4658,1.4658,1.4658,1.4658,1.4727,1.4727,1.4658,1.4658,1.4658,1.4658,1.4658,1.46,1.46,1.46,1.46,1.4541,1.46,1.46,1.46,1.46,1.4541,1.4541,1.4541,1.4541,1.4541,1.4541,1.4541,1.4541,1.4541,1.4473,1.4473,1.4473,1.4473,1.4473,1.4473,1.4473,1.4473,1.4473,1.4473,1.4473,1.4473,1.4473,1.4414,1.4414,1.4414,1.4414,1.4414,1.4414,1.4414,1.4414,1.4414,1.4355,1.4355,1.4355,1.4414,1.4355,1.4355,1.4355,1.4355,1.4355,1.4355,1.4414,1.4355,1.4355,1.4355,1.4297,1.4297,1.4297,1.4297,1.4297,1.4297,1.4297,1.4297,1.4229,1.4238,1.4238,1.4238,1.4238,1.4238,1.4238,1.4238,1.4238,1.4238,1.4238,1.4238,1.4238,1.4238,1.4238,1.417,1.417,1.417,1.418,1.4111,1.418,1.418,1.4111,1.418,1.4111,1.4111,1.4111,1.4053,1.4053,1.4053,1.4053,1.4053,1.3994,1.3994,1.3994,1.3994,1.3994,1.4004,1.4004,1.4004,1.4004,1.4004,1.4004,1.4004,1.4004,1.4004,1.3945,1.3945,1.3945,1.3945,1.3945,1.3945,1.3887,1.3887,1.3887,1.3945,1.3945,1.3945,1.3945,1.3945,1.3945,1.3887,1.3887,1.3887,1.3887,1.3887,1.3887,1.3887,1.3887,1.3887,1.3828,1.3828,1.3828,1.3828,1.3828,1.3828,1.3828,1.3828,1.3828,1.3828,1.3828,1.3721,1.377,1.377,1.3721,1.3721,1.3721,1.3721,1.377,1.3721,1.3721,1.377,1.377,1.3721,1.3721,1.3662,1.3604,1.3604,1.3662,1.3662,1.3604,1.3555,1.3555,1.3555,1.3555,1.3555,1.3555,1.3555,1.3496,1.3496,0,0,0,0,0,0,0,0,0,0,0,0,0,0,0,0,0,0,0,0,0,0,0,0,0,0,0,0,0,0
1.3633,1.3691,1.3691,1.374,1.374,1.3799,1.3857,1.3857,1.3857,1.3916,1.3975,1.4033,1.4033,1.4092,1.4092,1.4092,1.415,1.415,1.415,1.4209,1.4209,1.4268,1.4268,1.4326,1.4326,1.4395,1.4395,1.4395,1.4453,1.4453,1.4521,1.458,1.458,1.4648,1.4648,1.4648,1.4648,1.458,1.458,1.4521,1.4395,0,1.4395,0,1.3467,1.3262,1.3311,1.3262,1.3262,1.3262,1.3203,1.3203,1.3203,0,0,1.5107,1.5176,1.5107,1.5107,1.5107,1.5176,1.5176,1.5176,1.5176,1.5244,1.5244,1.5244,1.5244,1.5244,1.5244,1.5244,1.5244,1.5244,1.5244,1.5244,1.5244,1.5244,1.5244,1.5244,1.5244,1.5244,1.5176,1.5176,1.5107,0,0,0,0,0,0,0,0,0,0,0,1.5312,1.5312,1.5312,1.5244,1.5244,1.5244,1.5244,1.5244,1.5244,1.5244,1.5244,1.5244,1.5244,1.5244,1.5244,1.5176,1.5176,1.5176,1.5176,1.5176,1.5176,1.5176,1.5176,1.1738,1.1738,1.1738,1.1777,1.1738,1.1738,0,0,0,1.5322,1.5391,1.5391,1.5391,1.1865,1.1816,1.1816,1.1816,1.1816,1.1816,1.1816,1.1816,1.1816,1.1865,1.1865,1.1865,1.1865,1.1904,1.1904,1.1904,1.1865,1.1904,1.1904,1.1943,1.1943,1.1943,1.1943,1.1943,1.1943,1.1943,1.1943,1.1992,1.1992,1.2031,1.2031,1.2031,1.208,1.2031,1.2031,1.208,1.208,1.2031,1.2031,1.2031,1.2031,1.2031,1.2031,1.208,1.208,1.208,1.208,1.2119,1.2119,1.2119,1.2119,1.2168,1.2119,1.2168,1.2168,1.2168,1.2168,1.2207,1.2207,1.2207,1.2256,1.2256,1.2256,1.2256,1.2256,1.2256,1.2207,1.2256,1.2256,1.2256,1.2256,1.2256,1.2256,1.2256,1.2295,1.2295,0,0,1.498,1.4922,1.498,1.498,1.498,1.4922,1.4922,1.4922,1.4922,1.4922,1.4922,1.4854,1.4922,1.4922,1.4922,1.4922,1.4854,1.4854,1.4854,1.4922,1.4922,1.4854,1.4922,1.4922,1.499,1.4922,1.4922,1.4922,1.4922,1.4922,1.4922,1.4922,1.4922,1.4922,1.4922,1.4854,1.4854,1.4854,1.4854,1.4854,1.4854,1.4785,1.4785,1.4785,1.4785,1.4785,1.4785,1.4854,1.4854,1.4854,1.4854,1.4854,1.4785,1.4785,1.4785,1.4785,1.4727,1.4727,1.4727,1.4727,1.4727,1.4727,1.4727,1.4658,1.4658,1.4658,1.4658,1.4658,1.4658,1.4658,1.4658,1.4658,1.4658,1.4658,1.4658,1.4658,1.4658,1.4658,1.4658,1.4658,1.4727,1.4668,1.4668,1.4668,1.4668,1.4668,1.4668,1.46,1.46,1.46,1.46,1.46,1.46,1.46,1.4541,1.4541,1.4541,1.4541,1.4541,1.4541,1.4541,1.4541,1.4541,1.4541,1.4541,1.4473,1.4473,1.4473,1.4473,1.4473,1.4473,1.4473,1.4473,1.4473,1.4473,1.4473,1.4473,1.4473,1.4414,1.4414,1.4414,1.4414,1.4414,1.4414,1.4414,1.4414,1.4414,1.4355,1.4355,1.4355,1.4414,1.4355,1.4355,1.4355,1.4355,1.4355,1.4355,1.4414,1.4414,1.4414,1.4355,1.4297,1.4297,1.4297,1.4297,1.4297,1.4297,1.4297,1.4297,1.4238,1.4238,1.4238,1.4238,1.4238,1.4238,1.4238,1.4238,1.4238,1.4238,1.4238,1.4238,1.4238,1.418,1.418,1.418,1.418,1.418,1.418,1.418,1.418,1.418,1.418,1.418,1.4121,1.4121,1.4062,1.4062,1.4062,1.4062,1.4062,1.4062,1.4004,1.4004,1.4004,1.4004,1.4004,1.4004,1.4004,1.4004,1.4004,1.4004,1.4004,1.4004,1.4062,1.4004,1.4004,1.4004,1.3945,1.3945,1.3945,1.3945,1.3945,1.3945,1.3945,1.3945,1.3945,1.3945,1.3945,1.3887,1.3887,1.3887,1.3887,1.3887,1.3887,1.3887,1.3887,1.3887,1.3887,1.3887,1.3828,1.3828,1.3828,1.3828,1.3828,1.3828,1.3828,1.3828,1.3828,1.3828,1.3828,1.3721,1.3721,1.377,1.3721,1.377,1.3721,1.3721,1.3721,1.3721,1.377,1.377,1.377,1.3721,1.3721,1.3662,1.3604,1.3604,1.3662,1.3604,1.3604,1.3555,1.3555,1.3555,1.3604,1.3555,1.3555,1.3555,1.3555,1.3496,0,0,0,0,0,0,0,0,0,0,0,0,0,0,0,0,0,0,0,0,0,0,0,0,0,0,0,0,0,0
1.3691,1.3691,1.3691,1.374,1.3799,1.3799,1.3857,1.3857,1.3857,1.3916,1.3916,1.4033,1.4033,1.4092,1.4092,1.4092,1.415,1.415,1.415,1.4209,1.4209,1.4268,1.4268,1.4336,1.4336,1.4336,1.4395,1.4395,1.4453,1.4453,1.4521,1.458,1.458,1.4648,1.4648,1.4648,1.4648,1.4648,1.458,1.458,1.4521,1.3262,0,0,1.3418,1.3203,1.3203,1.3203,1.3203,0,1.4902,1.4902,1.5107,0,1.4971,1.5107,1.5107,1.5107,1.5107,1.5107,1.5176,1.5176,1.5176,1.5107,1.5244,1.5244,1.5244,1.5244,1.5244,1.5244,1.5244,1.5244,1.5244,1.5244,1.5244,1.5244,1.5244,1.5244,1.1338,1.1338,1.1377,1.1416,1.5107,1.5176,0,0,0,0,0,0,0,0,0,0,0,1.5312,1.5312,1.5312,1.5244,1.5244,1.5244,1.5244,1.5244,1.5244,1.5244,1.5244,1.5244,1.5244,1.5244,1.5244,1.5176,1.5176,1.5176,1.5176,1.5176,1.5176,1.5176,1.1699,1.1699,1.1699,1.1738,1.1738,1.1738,1.1738,1.1777,1.1777,1.1777,0,0,0,1.1816,1.1816,1.1816,1.1816,1.1816,1.1816,1.1816,1.1816,1.1777,1.1777,1.1865,1.1865,1.1865,1.1865,1.1865,1.1865,1.1904,1.1865,1.1865,1.1904,1.1943,1.1943,1.1943,1.1943,1.1943,1.1943,1.1943,1.1992,1.1992,1.1992,1.1992,1.1992,1.2031,1.2031,1.2031,1.2031,1.2031,1.2031,1.2031,1.2031,1.2031,1.2031,1.2031,1.2031,1.208,1.208,1.2119,1.208,1.2119,1.2119,1.2119,1.2119,1.2168,1.2119,1.2168,1.2168,1.2168,1.2168,1.2207,1.2207,1.2207,1.2207,1.2207,1.2256,1.2256,1.2256,1.2207,1.2256,1.2256,1.2256,1.2256,1.2256,1.2256,1.2256,1.2256,1.2256,0,0,1.498,1.498,1.4922,1.498,1.498,1.498,1.498,1.498,1.4922,1.4922,1.4922,1.4922,1.4854,1.4922,1.4922,1.4922,1.4922,1.4854,1.4854,1.4854,1.4922,1.4922,1.4854,1.4922,1.4922,1.499,1.499,1.4922,1.4922,1.4922,1.4922,1.4922,1.4922,1.4922,1.4922,1.4922,1.4854,1.4854,1.4854,1.4854,1.4854,1.4854,1.4785,1.4785,1.4785,1.4785,1.4785,1.4785,1.4785,1.4854,1.4854,1.4854,1.4854,1.4854,1.4795,1.4795,1.4795,1.4727,1.4727,1.4658,1.4727,1.4727,1.4727,1.4658,1.4658,1.4658,1.4658,1.4658,1.4658,1.4658,1.4658,1.4658,1.4658,1.4658,1.4658,1.4668,1.4668,1.4668,1.4668,1.4668,1.4668,1.4727,1.4727,1.4727,1.4668,1.4668,1.4668,1.4668,1.46,1.46,1.46,1.46,1.46,1.46,1.46,1.46,1.4541,1.4541,1.4541,1.4541,1.4541,1.4541,1.4541,1.4541,1.4541,1.4541,1.4473,1.4473,1.4473,1.4473,1.4541,1.4473,1.4473,1.4473,1.4473,1.4473,1.4473,1.4473,1.4473,1.4473,1.4414,1.4414,1.4414,1.4414,1.4414,1.4414,1.4414,1.4414,1.4414,1.4355,1.4355,1.4414,1.4355,1.4355,1.4355,1.4355,1.4355,1.4355,1.4414,1.4355,1.4414,1.4355,1.4355,1.4355,1.4297,1.4297,1.4297,1.4297,1.4297,1.4297,1.4297,1.4238,1.4238,1.4238,1.4238,1.4238,1.4238,1.4238,1.4238,1.4238,1.4238,1.4238,1.4238,1.418,1.418,1.418,1.418,1.418,1.418,1.418,1.4238,1.418,1.418,1.418,1.4121,1.4121,1.4062,1.4062,1.4062,1.4062,1.4062,1.4062,1.4004,1.4004,1.4004,1.4004,1.4004,1.4004,1.4004,1.4004,1.4004,1.4004,1.4004,1.4004,1.4062,1.4004,1.4004,1.4004,1.3945,1.3887,1.3945,1.3945,1.3945,1.3887,1.3945,1.3945,1.3945,1.3945,1.3887,1.3945,1.3887,1.3887,1.3887,1.3887,1.3887,1.3887,1.3887,1.3887,1.3887,1.3887,1.3828,1.3828,1.3828,1.3828,1.3828,1.3828,1.3828,1.3828,1.3828,1.3828,1.3828,1.3828,1.3828,1.3779,1.3779,1.3721,1.3721,1.3721,1.3721,1.3721,1.3721,1.3721,1.3721,1.3721,1.3721,1.3662,1.3604,1.3604,1.3662,1.3662,1.3613,1.3555,1.3555,1.3555,1.3555,1.3555,1.3555,1.3613,1.3555,1.3496,0,0,0,0,0,0,0,0,0,0,0,0,0,0,0,0,0,0,0,0,0,0,0,0,0,0,0,0,0,0
