1.0967,1.0967,1.0967,1.1006,1.1045,1.1045,1.1045,1.1074,1.1074,1.1074,1.1074,1.1074,1.1113,1.1113,1.1113,1.1152,1.1152,1.1152,1.1152,1.1191,1.1191,1.1221,1.1221,1.1221,1.1221,1.123,1.123,1.126,1.126,1.126,1.1299,1.1299,1.1338,1.1338,1.1338,1.1338,1.1377,1.1377,1.1377,1.1377,1.1416,1.1416,1.1455,1.1455,1.1455,1.1494,1.1494,1.1494,1.1494,1.1533,1.1572,1.1572,1.1533,1.1572,1.1572,1.1572,1.165,1.1689,1.1689,1.1689,1.1689,1.1738,1.1738,1.1738,1.1738,1.1738,1.1738,1.1777,1.1777,1.1777,1.1816,1.1816,1.1816,1.1855,1.1855,1.1855,1.1855,1.1904,1.1904,1.1904,1.1943,1.1943,1.1982,1.1982,1.1982,1.1982,1.2031,1.2031,1.2031,1.2031,1.2031,1.207,1.207,1.2031,1.2031,1.2031,1.2031,1.2031,1.1982,1.1982,1.1943,1.1982,1.1982,1.1982,1.1943,1.1982,1.1943,1.1943,1.1943,1.1943,1.1904,1.2031,1.1943,0,1.2031,1.2031,1.2031,1.2031,1.1982,1.1982,1.1982,1.1982,1.1982,1.1982,1.1982,1.1982,1.1982,1.1982,1.1982,1.2031,1.2031,1.1982,1.1982,1.1982,1.1982,1.1943,1.1943,1.1982,1.1992,1.1992,1.1992,1.1943,1.1943,1.1943,1.1943,1.1943,1.1943,1.1943,1.1943,1.1943,1.1943,1.1943,1.1943,1.1943,1.1904,1.1904,1.1904,1.1943,1.1904,1.1904,1.1904,1.1943,1.1943,1.1943,1.1943,1.1904,1.1904,1.1943,1.1943,1.1943,1.1904,1.1943,1.1943,1.1992,0,0,1.2158,1.2207,1.2207,1.2158,1.2158,1.2158,1.2158,1.2119,1.2119,1.1016,1.1016,1.0977,1.0947,1.0908,1.0879,1.0879,1.084,1.084,1.084,1.0811,1.0811,1.0811,1.0811,1.0811,1.0771,1.0771,1.0742,1.0703,1.0703,1.0703,1.0674,1.0674,1.0635,1.0635,1.0635,1.0674,1.0674,1.0635,1.0635,1.0635,1.0635,1.0605,1.0605,1.0576,1.0537,1.0537,1.0508,1.0479,1.0439,1.041,1.041,1.0381,1.0381,1.041,1.041,1.041,1.041,1.041,1.041,1.041,1.0381,1.041,1.041,1.041,1.0381,1.0381,1.0381,1.0352,1.0352,1.0352,1.0352,1.0352,1.0352,1.0381,1.0381,1.0381,1.041,1.0439,1.0479,1.0479,1.0508,1.0537,1.0537,1.0576,1.0605,0,0,1.1787,1.1748,1.1709,1.1709,1.1709,1.1709,1.167,1.167,1.167,1.167,1.167,1.167,1.167,1.167,1.167,1.1631,1.1631,1.1582,1.1631,1.1582,1.1582,1.1582,1.1582,1.1582,1.1543,1.1592,1.1543,1.1592,1.1592,1.1543,1.1543,1.1543,1.1553,1.0508,1.0479,1.0449,1.0352,1.0352,1.0322,1.0322,1.0283,1.0254,1.0225,1.0225,1.0195,1.0195,1.0166,1.0137,1.0137,1.0107,1.0078,1.0107,1.0078,1.0078,1.0078,1.0049,1.0049,1.0049,1.0049,1.0049,1.0049,1.002,1.002,1.002,1.002,1.002,0.99853,0.9956,1.002,1.002,1.002,1.0049,1.0049,1.0049,1.0049,1.0049,1.0078,1.0078,1.0078,1.0078,0,0,1.124,1.124,1.124,1.1211,1.1211,1.124,1.1211,1.1211,1.1211,1.1172,1.1172,1.1172,1.1172,1.1172,1.1172,1.1172,1.1172,1.1133,1.1133,1.1133,1.1133,1.1133,1.1094,1.1104,1.1104,1.1064,1.1064,1.1064,1.1064,1.1064,1.1064,1.1064,1.1064,1.1025,1.1025,1.1025,1.1025,1.1025,1.1025,1.1025,1.0996,1.1025,1.1025,1.1025,1.1025,1.1025,1.1025,1.1025,1.0996,1.0996,1.0996,0,0,0,0,0,0,0,0,0,0,0,0,0,0,0,0,0,0,0,0,0,2.0879,2.0625,2.0488,2.0488,2.0488,2.0488,2.0488,2.0371,2.0488,2.0371,2.0488,2.0371,2.0371,2.0254,2.0371,2.0371,2.0254,2.0254,2.0254,2.0254,2.0254,2.0254,2.0254,2.0254,2.0254,2.0254,2.0137,2.0137,2.0137,2.0137,2.0137,2.0137,2.002,2.002,1.9893,1.9893,2.002,1.9893,1.9893,1.9893,1.9893,2.002,1.9893,1.9893,1.9893,1.9775,1.9775,1.9775,1.9775,1.9775,0,0,0,0,0,0,0,0,0,0,0,0,0,0,0,0,0,0,0,0,0,0,0,0,0,0,0,0,0
1.0967,1.0967,1.1006,1.1006,1.1045,1.1045,1.1045,1.1045,1.1074,1.1074,1.1074,1.1074,1.1113,1.1113,1.1152,1.1152,1.1152,1.1152,1.1191,1.1191,1.1191,1.123,1.123,1.123,1.123,1.123,1.126,1.126,1.126,1.126,1.1299,1.1299,1.1338,1.1338,1.1338,1.1338,1.1377,1.1377,1.1377,1.1377,1.1377,1.1377,1.1455,1.1455,1.1455,1.1494,1.1494,1.1494,1.1533,1.1533,1.1572,1.1572,1.1572,1.1572,1.1572,1.1572,1.165,1.1689,1.1689,1.1689,1.1738,1.1738,1.1738,1.1738,1.1738,1.1777,1.1738,1.1777,1.1816,1.1816,1.1816,1.1816,1.1855,1.1855,1.1855,1.1855,1.1855,1.1904,1.1904,1.1904,1.1904,1.1943,1.1982,1.1982,1.1982,1.1982,1.2031,1.2031,1.2031,1.2031,1.2031,1.2031,1.2031,1.2031,1.1982,1.1982,1.1982,1.1943,1.1943,1.1943,1.1943,1.1943,1.1943,1.1943,1.1943,1.1943,1.1904,1.1904,1.1904,1.1904,1.1904,1.1982,1.1943,1.1943,1.1982,1.1982,1.1943,1.1982,1.1943,1.1943,1.1943,1.1943,1.1943,1.1943,1.1982,1.1982,1.1982,1.1982,1.1982,1.1982,1.1943,1.1992,1.1992,1.1943,1.1992,1.1943,1.1943,1.1943,1.1943,1.1943,1.1943,1.1943,1.1943,1.1943,1.1904,1.1904,1.1904,1.1904,1.1904,1.1904,1.1904,1.1943,1.1943,1.1904,1.1904,1.1904,1.1904,1.1943,1.1904,1.1904,1.1904,1.1904,1.1943,1.1904,1.1865,1.1777,1.1865,1.1904,1.1904,1.1943,1.1904,1.1992,1.1992,0,0,0,0,0,1.2158,1.2158,1.2158,1.2119,1.2158,1.2119,1.2119,1.1016,1.0977,1.0947,1.0908,1.0879,1.0879,1.084,1.084,1.084,1.0811,1.0811,1.0771,1.0771,1.0771,1.0771,1.0771,1.0742,1.0742,1.0703,1.0674,1.0674,1.0674,1.0635,1.0635,1.0635,1.0635,1.0635,1.0674,1.0635,1.0635,1.0635,1.0635,1.0605,1.0605,1.0576,1.0537,1.0537,1.0508,1.0479,1.0439,1.041,1.0381,1.0381,1.0381,1.0381,1.0381,1.0381,1.041,1.0381,1.0381,1.041,1.0381,1.0381,1.0381,1.0381,1.0381,1.0352,1.0352,1.0312,1.0352,1.0312,1.0352,1.0352,1.0352,1.0352,1.0381,1.0381,1.041,1.0439,1.0479,1.0479,1.0508,1.0537,1.0537,1.0537,1.0576,0,0,1.1748,1.1748,1.1709,1.1709,1.167,1.167,1.167,1.167,1.167,1.1631,1.1631,1.1631,1.1631,1.1631,1.1631,1.1582,1.1631,1.1592,1.1592,1.1592,1.1592,1.1543,1.1543,1.1543,1.1553,1.1553,1.1553,1.1592,1.1553,1.1553,1.1553,1.1553,1.1475,1.0508,1.0449,1.0449,1.0352,1.0352,1.0322,1.0322,1.0283,1.0254,1.0225,1.0195,1.0195,1.0166,1.0137,1.0137,1.0107,1.0107,1.0078,1.0078,1.0049,1.0049,1.0049,1.0049,1.002,1.0049,1.0049,1.002,1.002,1.002,0.99853,0.99853,0.99853,0.99853,0.99853,0.99853,0.99853,1.002,0.99853,1.002,1.002,1.0049,1.0049,1.0049,1.0078,1.0078,1.0078,1.0078,1.0078,0,0,1.1211,1.1211,1.1172,1.1172,1.1172,1.1172,1.1172,1.1172,1.1172,1.1172,1.1133,1.1133,1.1133,1.1133,1.1133,1.1133,1.1133,1.1104,1.1104,1.1104,1.1104,1.1064,1.1064,1.1064,1.1064,1.1025,1.1025,1.0996,1.0996,1.1025,1.1025,1.1025,1.1025,1.1025,1.1025,1.1025,1.1025,1.0996,1.0996,1.0996,1.0996,1.0996,1.0996,1.0996,1.0996,1.0996,1.0996,1.0996,1.0996,1.0996,0,0,0,0,0,0,0,0,0,0,0,0,0,0,0,0,0,0,0,0,0,2.0742,2.0625,2.0488,2.0371,2.0371,2.0371,2.0488,2.0371,2.0371,2.0371,2.0371,2.0371,2.0371,2.0254,2.0254,2.0254,2.0254,2.0254,2.0254,2.0254,2.0254,2.0254,2.0254,2.0137,2.0137,2.0137,2.0137,2.002,2.002,2.002,2.002,2.002,1.9893,1.9893,1.9893,1.9893,1.9893,1.9893,1.9893,1.9893,1.9893,1.9893,1.9893,1.9775,1.9775,1.9775,1.9668,1.9668,1.9785,1.9785,0,0,0,0,0,0,0,0,0,0,0,0,0,0,0,0,0,0,0,0,0,0,0,0,0,0,0,0,0
1.0967,1.1006,1.1006,1.1006,1.1045,1.1045,1.1045,1.1045,1.1074,1.1074,1.1074,1.1074,1.1113,1.1113,1.1152,1.1152,1.1152,1.1191,1.1191,1.1191,1.1191,1.123,1.123,1.123,1.123,1.123,1.126,1.126,1.1299,1.1299,1.1299,1.1338,1.1338,1.1338,1.1377,1.1377,1.1338,1.1377,1.1377,1.1377,1.1377,1.1377,1.1416,1.1455,1.1455,1.1494,1.1494,1.1533,1.1533,1.1533,1.1572,1.1572,1.1572,1.1572,1.1611,1.1611,1.165,1.1689,1.1689,1.1738,1.1738,1.1738,1.1738,1.1738,1.1738,1.1738,1.1777,1.1777,1.1816,1.1816,1.1816,1.1855,1.1855,1.1855,1.1855,1.1855,1.1855,1.1904,1.1904,1.1904,1.1904,1.1904,1.1943,1.1943,1.1982,1.1982,1.1982,1.2031,1.2031,1.1982,1.1982,1.1982,1.1982,1.1982,1.1943,1.1943,1.1943,1.1943,1.1904,1.1904,1.1904,1.1943,1.1943,1.1904,1.1904,1.1904,1.1904,1.1904,1.1904,1.1904,1.1904,1.1904,1.1943,1.1943,1.1943,1.1943,1.1904,1.1943,1.1943,1.1943,1.1943,1.1943,1.1943,1.1943,1.1943,1.1943,1.1943,1.1943,1.1943,1.1904,1.1904,1.1904,1.1904,1.1904,1.1904,1.1904,1.1904,1.1943,1.1943,1.1943,1.1943,1.1943,1.1904,1.1904,1.1904,1.1904,1.1904,1.1904,1.1904,1.1865,1.1904,1.1904,1.1904,1.1904,1.1943,1.1904,1.1904,1.1904,1.1904,1.1904,1.1865,1.1865,1.1904,1.1777,1.1777,1.1777,1.1777,1.1826,1.1904,1.1904,1.1904,1.1943,1.1992,0,0,0,0,0,1.2119,1.2168,1.2119,1.2119,1.2119,1.2119,1.2119,1.2119,1.0947,1.0908,1.0908,1.0879,1.0879,1.084,1.084,1.0811,1.0811,1.0811,1.0771,1.0771,1.0771,1.0771,1.0771,1.0742,1.0742,1.0703,1.0674,1.0674,1.0674,1.0635,1.0635,1.0635,1.0635,1.0635,1.0674,1.0635,1.0635,1.0605,1.0605,1.0576,1.0576,1.0537,1.0537,1.0508,1.0479,1.0479,1.0439,1.041,1.0381,1.0381,1.0381,1.0381,1.0381,1.0381,1.0381,1.0381,1.0381,1.0381,1.0381,1.0381,1.0381,1.0352,1.0352,1.0312,1.0352,1.0312,1.0312,1.0312,1.0312,1.0312,1.0352,1.0352,1.0352,1.0381,1.041,1.041,1.0439,1.0479,1.0479,1.0508,1.0508,1.0537,1.0537,0,0,1.1709,1.1709,1.167,1.167,1.167,1.167,1.1631,1.167,1.1631,1.1631,1.1631,1.1592,1.1592,1.1592,1.1592,1.1592,1.1592,1.1553,1.1553,1.1553,1.1553,1.1553,1.1553,1.1514,1.1514,1.1514,1.1514,1.1553,1.1553,1.1553,1.1553,1.1553,1.1514,1.0508,1.0449,1.041,1.0352,1.0322,1.0322,1.0293,1.0254,1.0225,1.0195,1.0195,1.0195,1.0166,1.0137,1.0137,1.0107,1.0107,1.0078,1.0078,1.0049,1.0049,1.0049,1.0049,1.002,0.99853,0.99853,1.002,1.002,0.99853,0.99853,0.99853,0.99853,0.99853,0.9956,0.99853,0.9956,0.99853,0.9956,0.99853,1.002,1.0049,1.0049,1.0049,1.0049,1.0078,1.0107,1.0078,1.0078,1.0078,0,0,1.1172,1.1133,1.1133,1.1172,1.1172,1.1133,1.1133,1.1133,1.1133,1.1133,1.1133,1.1104,1.1104,1.1104,1.1104,1.1104,1.1064,1.1064,1.1064,1.1064,1.1025,1.1025,1.1025,1.1025,1.1025,1.0996,1.0996,1.0996,1.0996,1.0996,1.0996,1.0996,1.0996,1.0996,1.0996,1.0996,1.0957,1.0957,1.0957,1.0957,1.0957,1.0996,1.0996,1.0996,1.0996,1.0996,1.0996,1.0996,1.0957,0,0,0,0,0,0,0,0,0,0,0,0,0,0,0,0,0,0,0,0,2.0879,2.0254,2.0371,2.0371,2.0371,2.0371,2.0371,2.0371,2.0371,2.0371,2.0371,2.0371,2.0371,2.0254,2.0254,2.0254,2.0254,2.0137,2.0254,2.0254,2.0254,2.0254,2.0137,2.0137,2.0137,2.0137,2.0137,2.002,2.002,1.9893,1.9893,1.9893,1.9893,1.9893,1.9893,1.9775,1.9893,1.9893,1.9893,1.9893,1.9893,1.9893,1.9893,1.9893,1.9785,1.9785,1.9785,1.9668,1.9668,1.9785,1.9785,0,0,0,0,0,0,0,0,0,0,0,0,0,0,0,0,0,0,0,0,0,0,0,0,0,0,0,0,0
1.0967,1.1006,1.1006,1.1006,1.1045,1.1045,1.1045,1.1045,1.1074,1.1074,1.1084,1.1084,1.1113,1.1152,1.1152,1.1191,1.1191,1.1191,1.1191,1.1191,1.1191,1.123,1.123,1.123,1.123,1.123,1.126,1.126,1.126,1.1299,1.1299,1.1338,1.1338,1.1377,1.1377,1.1377,1.1377,1.1377,1.1377,1.1377,1.1377,1.1377,1.1416,1.1455,1.1455,1.1494,1.1494,1.1494,1.1533,1.1533,1.1572,1.1572,1.1572,1.1611,1.1611,1.1611,1.165,1.1689,1.1738,1.1738,1.1738,1.1738,1.1738,1.1738,1.1738,1.1777,1.1777,1.1777,1.1816,1.1816,1.1855,1.1855,1.1855,1.1855,1.1855,1.1855,1.1855,1.1855,1.1904,1.1904,1.1904,1.1904,1.1943,1.1943,1.1982,1.1943,1.1982,1.1982,1.1982,1.1982,1.1982,1.1982,1.1943,1.1943,1.1904,1.1904,1.1904,1.1904,1.1904,1.1904,1.1904,1.1904,1.1904,1.1904,1.1904,1.1904,1.1904,1.1904,1.1904,1.1904,1.1904,1.1904,1.1943,1.1943,1.1943,1.1904,1.1904,1.1943,1.1943,1.1943,1.1904,1.1904,1.1943,1.1943,1.1943,1.1904,1.1904,1.1904,1.1904,1.1904,1.1904,1.1865,1.1904,1.1904,1.1865,1.1865,1.1865,1.1865,1.1904,1.1865,1.1826,1.1826,1.1865,1.1865,1.1865,1.1865,1.1865,1.1865,1.1865,1.1826,1.1865,1.1904,1.1904,1.1865,1.1904,1.1865,1.1865,1.1904,1.1904,1.1904,1.1865,1.1826,1.1777,1.1777,1.1738,1.1738,1.1738,1.1787,1.1787,1.1826,1.1904,1.1953,1.1953,1.1953,1.1953,0,0,0,1.2119,1.2119,1.2119,1.2119,1.2119,1.208,1.208,1.1992,1.0908,1.0908,1.0908,1.0879,1.0879,1.0879,1.084,1.084,1.084,1.0811,1.0811,1.0771,1.0771,1.0771,1.0771,1.0742,1.0742,1.0703,1.0674,1.0674,1.0674,1.0635,1.0635,1.0635,1.0635,1.0635,1.0635,1.0635,1.0635,1.0605,1.0576,1.0576,1.0537,1.0508,1.0508,1.0479,1.0479,1.0439,1.041,1.041,1.0381,1.0352,1.0352,1.0381,1.0381,1.0381,1.0381,1.0381,1.0381,1.0381,1.0381,1.0381,1.0381,1.0352,1.0352,1.0352,1.0312,1.0312,1.0312,1.0312,1.0312,1.0312,1.0352,1.0352,1.0352,1.0352,1.0381,1.0381,1.041,1.0439,1.0479,1.0508,1.0508,1.0508,1.0508,0,0,1.167,1.167,1.167,1.1631,1.1631,1.1631,1.1631,1.1631,1.1592,1.1592,1.1592,1.1592,1.1592,1.1592,1.1553,1.1553,1.1553,1.1553,1.1553,1.1553,1.1514,1.1514,1.1514,1.1514,1.1514,1.1514,1.1514,1.1553,1.1553,1.1514,1.1514,1.1514,1.1514,1.041,1.041,1.0381,1.0322,1.0322,1.0293,1.0293,1.0225,1.0195,1.0195,1.0195,1.0166,1.0166,1.0137,1.0107,1.0107,1.0107,1.0078,1.0049,1.0049,1.002,1.002,1.002,1.002,0.99853,0.99853,1.002,1.002,0.99853,0.99853,0.9956,0.9956,0.99853,0.9956,0.9956,0.9956,0.9956,0.9956,0.99853,0.99853,1.002,1.0049,1.0049,1.0049,1.0078,1.0078,1.0078,1.0078,0,0,1.1064,1.1104,1.1104,1.1133,1.1133,1.1133,1.1104,1.1104,1.1104,1.1064,1.1104,1.1064,1.1064,1.1064,1.1064,1.1064,1.1064,1.1025,1.1025,1.1025,1.1025,1.1025,1.0996,1.0996,1.0996,1.0996,1.0996,1.0957,1.0957,1.0996,1.0996,1.0996,1.0957,1.0996,1.0996,1.0957,1.0957,1.0957,1.0957,1.0918,1.0918,1.0918,1.0918,1.0957,1.0957,1.0957,1.0996,1.0996,1.0996,1.0957,1.0918,0,0,0,0,0,0,0,0,0,0,0,0,0,0,0,0,0,0,0,2.0137,2.0371,2.0371,2.0371,2.0254,2.0254,2.0254,2.0371,2.0254,2.0254,2.0254,2.0254,2.0254,2.0254,2.0254,2.0137,2.0137,2.0137,2.0137,2.0137,2.0137,2.0137,2.0137,2.0137,2.0137,2.002,2.002,2.002,2.002,1.9893,1.9893,1.9893,1.9893,1.9893,1.9893,1.9785,1.9893,1.9893,1.9893,1.9785,1.9893,1.9893,1.9902,1.9785,1.9785,1.9785,1.9668,1.9668,1.9668,1.9668,1.9668,0,0,0,0,0,0,0,0,0,0,0,0,0,0,0,0,0,0,0,0,0,0,0,0,0,0,0,0,0
1.1006,1.1006,1.1006,1.1006,1.1045,1.1045,1.1045,1.1045,1.1084,1.1084,1.1084,1.1113,1.1113,1.1152,1.1152,1.1191,1.1191,1.1191,1.1191,1.1191,1.1191,1.123,1.123,1.123,1.123,1.123,1.127,1.127,1.127,1.1299,1.1299,1.1338,1.1338,1.1338,1.1377,1.1377,1.1338,1.1377,1.1377,1.1377,1.1377,1.1377,1.1416,1.1455,1.1455,1.1455,1.1494,1.1494,1.1533,1.1533,1.1572,1.1572,1.1572,1.1611,1.1611,1.1611,1.165,1.1699,1.1738,1.1738,1.1738,1.1738,1.1738,1.1738,1.1738,1.1777,1.1777,1.1777,1.1816,1.1816,1.1855,1.1855,1.1855,1.1855,1.1855,1.1855,1.1855,1.1855,1.1904,1.1904,1.1904,1.1904,1.1943,1.1943,1.1943,1.1943,1.1943,1.1982,1.1943,1.1943,1.1904,1.1904,1.1904,1.1904,1.1865,1.1904,1.1865,1.1865,1.1865,1.1865,1.1865,1.1865,1.1865,1.1865,1.1865,1.1865,1.1904,1.1904,1.1904,1.1865,1.1865,1.1904,1.1904,1.1865,1.1904,1.1904,1.1904,1.1904,1.1943,1.1904,1.1904,1.1904,1.1904,1.1904,1.1904,1.1904,1.1865,1.1904,1.1904,1.1904,1.1826,1.1826,1.1826,1.1865,1.1865,1.1826,1.1826,1.1865,1.1865,1.1865,1.1826,1.1826,1.1826,1.1826,1.1826,1.1826,1.1826,1.1826,1.1826,1.1777,1.1826,1.1826,1.1826,1.1826,1.1904,1.1865,1.1865,1.1904,1.1904,1.1904,1.1865,1.1826,1.1787,1.1787,1.1738,1.1738,1.1738,1.1738,1.1738,1.1787,1.1904,1.1904,1.1904,1.1904,0,0,0,0,1.2119,1.2119,1.208,1.208,1.208,1.2031,1.208,1.2031,1.0908,1.0908,1.0908,1.0879,1.0879,1.0879,1.0879,1.084,1.084,1.0811,1.0811,1.0771,1.0771,1.0771,1.0771,1.0742,1.0742,1.0742,1.0703,1.0703,1.0703,1.0674,1.0635,1.0635,1.0635,1.0635,1.0635,1.0635,1.0605,1.0576,1.0576,1.0537,1.0537,1.0508,1.0508,1.0479,1.0479,1.0439,1.041,1.041,1.0381,1.0352,1.0352,1.0381,1.0381,1.0381,1.0381,1.0381,1.0381,1.0381,1.0381,1.0381,1.0381,1.0352,1.0352,1.0352,1.0312,1.0312,1.0322,1.0322,1.0322,1.0352,1.0352,1.0352,1.0352,1.0352,1.0381,1.0381,1.0381,1.041,1.041,1.0449,1.0479,1.0508,1.0508,1.0508,0,1.1631,1.1631,1.1592,1.1592,1.1592,1.1592,1.1592,1.1592,1.1553,1.1553,1.1553,1.1553,1.1553,1.1553,1.1553,1.1514,1.1514,1.1514,1.1514,1.1514,1.1475,1.1475,1.1475,1.1475,1.1475,1.1475,1.1475,1.1514,1.1514,1.1514,1.1514,1.1514,1.1514,1.042,1.0381,1.0352,1.0322,1.0293,1.0293,1.0254,1.0225,1.0195,1.0195,1.0166,1.0166,1.0137,1.0107,1.0107,1.0107,1.0078,1.0078,1.0049,1.0049,1.002,1.0049,1.002,1.002,1.002,0.99853,1.002,0.99853,0.99853,0.99853,0.9956,0.9956,0.99853,0.9956,0.99853,0.99609,0.99609,0.99609,0.99609,0.99609,1.002,0.99902,0,1.0078,1.0078,1.0078,1.0078,0,0,1.0957,1.1025,1.1064,1.1064,1.1104,1.1104,1.1064,1.1064,1.1064,1.1025,1.1025,1.1025,1.1025,1.1025,1.1025,1.1025,1.1025,1.1025,1.0996,1.0996,1.0996,1.0996,1.0996,1.0996,1.0957,1.0957,1.0957,1.0957,1.0918,1.0918,1.0957,1.0957,1.0957,1.0957,1.0957,1.0957,1.0957,1.0918,1.0918,1.0918,1.0889,1.0889,1.0889,1.0928,1.0928,1.0928,1.0928,1.0957,1.0957,1.0957,1.0957,1.0996,0,0,0,0,0,0,0,0,0,0,0,0,0,0,0,0,0,0,0,2.0254,2.0371,2.0371,2.0371,2.0254,2.0254,2.0254,2.0254,2.0254,2.0254,2.0254,2.0254,2.0254,2.0254,2.0137,2.0137,2.002,2.002,2.002,2.0137,2.0137,2.002,2.002,2.002,2.002,1.9893,1.9893,1.9893,1.9893,1.9893,1.9785,1.9893,1.9893,1.9893,1.9785,1.9902,1.9902,1.9902,1.9902,1.9785,1.9785,1.9785,1.9785,1.9785,1.9668,1.9785,1.9668,1.9551,1.9551,1.9668,1.9668,0,0,0,0,0,0,0,0,0,0,0,0,0,0,0,0,0,0,0,0,0,0,0,0,0,0,0,0,0
1.1006,1.1006,1.1006,1.1045,1.1045,1.1045,1.1045,1.1084,1.1084,1.1084,1.1084,1.1084,1.1152,1.1152,1.1152,1.1191,1.1191,1.1191,1.1191,1.1191,1.1191,1.123,1.123,1.123,1.123,1.123,1.127,1.127,1.127,1.1299,1.1299,1.1338,1.1338,1.1377,1.1377,1.1377,1.1338,1.1377,1.1377,1.1377,1.1377,1.1377,1.1416,1.1455,1.1455,1.1455,1.1494,1.1494,1.1533,1.1533,1.1572,1.1572,1.1572,1.1611,1.1611,1.1611,1.165,1.1699,1.1738,1.1738,1.1738,1.1738,1.1738,1.1738,1.1777,1.1777,1.1777,1.1777,1.1816,1.1816,1.1855,1.1855,1.1855,1.1855,1.1855,1.1855,1.1855,1.1855,1.1904,1.1904,1.1904,1.1904,1.1943,1.1943,1.1943,1.1904,1.1904,1.1904,1.1904,1.1904,1.1904,1.1865,1.1904,1.1865,1.1865,1.1865,1.1865,1.1865,1.1865,1.1865,1.1816,1.1816,1.1865,1.1865,1.1865,1.1865,1.1865,1.1865,1.1865,1.1816,1.1865,1.1865,1.1865,1.1865,1.1865,1.1865,1.1865,1.1904,1.1904,1.1904,1.1865,1.1865,1.1865,1.1865,1.1826,1.1826,1.1777,1.1777,1.1865,1.1865,1.1826,1.1777,1.1777,1.1865,1.1826,1.1826,1.1826,1.1826,1.1865,1.1826,1.1826,1.1777,1.1826,1.1826,1.1777,1.1787,1.1787,1.1787,1.1787,1.1787,1.1738,1.1738,1.1738,1.1787,1.1826,1.1826,1.1787,1.1826,1.1826,1.1826,1.1865,1.1787,1.1738,1.1787,1.1738,1.1699,1.1738,1.1738,1.1787,0,1.1787,1.1826,1.1826,0,0,1.1865,0,0,0,1.2031,1.2031,1.1992,1.1992,1.1992,1.1992,1.1992,1.0908,1.0908,1.0908,1.0908,1.0879,1.0879,1.0879,1.084,1.084,1.084,1.0811,1.0771,1.0771,1.0771,1.0771,1.0742,1.0742,1.0742,1.0703,1.0703,1.0703,1.0674,1.0635,1.0635,1.0635,1.0674,1.0645,1.0645,1.0605,1.0605,1.0537,1.0537,1.0537,1.0508,1.0479,1.0479,1.0479,1.0439,1.041,1.0381,1.0381,1.0352,1.0352,1.0381,1.0381,1.0381,1.0381,1.0381,1.0381,1.0381,1.0381,1.0381,1.0352,1.0352,1.0352,1.0352,1.0322,1.0322,1.0322,1.0322,1.0352,1.0352,1.0352,1.0352,1.0352,1.0352,1.0381,1.0381,1.0381,1.041,1.0449,1.0449,1.0479,1.0508,1.0508,1.0508,0,1.1592,1.1592,1.1553,1.1553,1.1553,1.1553,1.1553,1.1514,1.1514,1.1514,1.1553,1.1514,1.1514,1.1514,1.1514,1.1514,1.1514,1.1475,1.1475,1.1475,1.1436,1.1436,1.1436,1.1436,1.1436,1.1436,1.1436,1.1475,1.1475,1.1475,1.1475,1.1475,1.0381,1.0381,1.0322,1.0322,1.0322,1.0293,1.0293,1.0254,1.0225,1.0195,1.0166,1.0166,1.0166,1.0137,1.0107,1.0107,1.0107,1.0078,1.0078,1.0049,1.002,1.002,1.002,1.002,1.002,1.002,0.99853,1.002,0.99902,0.99902,0.99609,0.99609,0.99609,0.99609,0.99609,0.99902,0.99609,0.99609,0.99609,0.99609,0.99609,0.99609,0.99609,0.99609,0.99902,1.0049,1.0078,1.0078,0,1.0957,0,1.1025,1.1064,1.1064,1.1104,1.1064,1.1064,1.1064,1.1064,1.1025,1.1025,1.1025,1.0996,1.0996,1.0996,1.0996,1.0996,1.0996,1.0996,1.0957,1.0957,1.0957,1.0957,1.0957,1.0957,1.0918,1.0918,1.0918,1.0918,1.0889,1.0889,1.0918,1.0918,1.0889,1.0889,1.0928,1.0928,1.0889,1.0889,1.0889,1.0889,1.0889,1.0889,1.0889,1.0889,1.0928,1.0928,1.0928,1.0928,1.0928,1.0928,0,0,0,0,0,0,0,0,0,0,0,0,0,0,0,0,0,0,0,2.0137,2.0254,2.0254,2.0371,2.0371,2.0254,2.0254,2.0254,2.0254,2.0254,2.0254,2.0254,2.0254,2.0137,2.0137,2.0137,2.0137,2.002,2.002,2.002,1.9893,2.002,2.002,1.9893,1.9893,1.9893,1.9785,1.9893,1.9893,1.9902,1.9785,1.9785,1.9902,1.9902,1.9902,1.9902,1.9902,1.9902,1.9902,1.9902,1.9785,1.9785,1.9785,1.9785,1.9668,1.9668,1.9668,1.9668,1.9551,1.9551,1.9551,1.9561,0,0,0,0,0,0,0,0,0,0,0,0,0,0,0,0,0,0,0,0,0,0,0,0,0,0,0,0,0
1.0977,1.1006,1.1006,1.1006,1.1045,1.1045,1.1045,1.1084,1.1084,1.1084,1.1084,1.1084,1.1113,1.1152,1.1191,1.1191,1.1191,1.1191,1.1191,1.1191,1.123,1.123,1.123,1.123,1.123,1.127,1.127,1.127,1.127,1.1299,1.1299,1.1338,1.1338,1.1377,1.1377,1.1377,1.1377,1.1377,1.1377,1.1377,1.1377,1.1416,1.1416,1.1494,1.1455,1.1455,1.1494,1.1494,1.1533,1.1533,1.1572,1.1572,1.1572,1.1611,1.1699,1.1699,1.1699,1.1738,1.1738,1.1738,1.1738,1.1738,1.1738,1.1738,1.1777,1.1777,1.1777,1.1816,1.1816,1.1816,1.1855,1.1855,1.1865,1.1865,1.1865,1.1865,1.1865,1.1865,1.1904,1.1904,1.1904,1.1904,1.1904,1.1904,1.1904,1.1904,1.1904,1.1904,1.1865,1.1865,1.1865,1.1865,1.1865,1.1865,1.1816,1.1865,1.1816,1.1816,1.1816,1.1816,1.1777,1.1777,1.1816,1.1816,1.1816,1.1816,1.1865,1.1865,1.1865,1.1777,1.1865,1.1826,1.1826,1.1865,1.1865,1.1865,1.1826,1.1865,1.1865,1.1865,1.1826,1.1826,1.1777,1.1777,1.1777,1.1738,1.1738,1.1738,1.1777,1.1826,1.1777,1.1777,1.1777,1.1777,1.1777,1.1777,1.1826,1.1826,1.1826,1.1826,1.1787,1.1787,1.1787,1.1787,1.1787,1.1787,1.1738,1.1738,1.1738,1.1738,1.1738,1.1738,1.1738,1.1738,1.1787,1.1826,1.1787,1.1787,1.1787,1.1787,1.1826,1.1738,1.1699,1.1699,1.1699,1.1748,1.1748,1.1787,1.1787,1.1787,1.1787,1.1826,0,0,1.1904,0,1.1865,0,1.1865,0,1.1992,1.1953,1.1953,1.1953,1.1992,1.1953,1.0879,1.0879,1.0879,1.0879,1.0879,1.0879,1.0879,1.084,1.084,1.0811,1.0811,1.0771,1.0771,1.0771,1.0771,1.0771,1.0742,1.0742,1.0703,1.0703,1.0703,1.0674,1.0674,1.0674,1.0674,1.0674,0,1.0645,1.0605,1.0605,1.0537,1.0537,1.0508,1.0508,1.0479,1.0479,1.0479,1.0439,1.041,1.0381,1.0381,1.0381,1.0352,1.0381,1.0381,1.0352,1.0381,1.0381,1.0381,1.0381,1.0381,1.0381,1.0352,1.0352,1.0352,1.0352,1.0352,1.0322,1.0322,1.0322,1.0322,1.0352,1.0352,1.0352,1.0352,1.0352,1.0381,1.0381,1.0381,1.0381,1.041,1.0449,1.0479,1.0508,1.0508,1.0508,0,1.1553,1.1553,1.1553,1.1553,1.1514,1.1514,1.1514,1.1514,1.1514,1.1514,1.1514,1.1514,1.1514,1.1514,1.1514,1.1475,1.1475,1.1475,1.1436,1.1436,1.1436,1.1396,1.1396,1.1396,1.1396,1.1396,1.1396,1.1475,1.1436,1.1436,1.1436,1.1436,1.0352,1.0352,1.0322,1.0322,1.0322,1.0293,1.0293,1.0225,1.0195,1.0195,1.0166,1.0166,1.0166,1.0107,1.0107,1.0107,1.0107,1.0078,1.0078,1.0049,1.0049,1.002,1.0049,1.002,1.002,1.002,0.99902,1.0049,0.99902,0.99609,0.99609,0.99609,0.99609,0.99609,0.99609,0.99902,0.99609,0.99609,0.99609,0.99609,0.99609,0.99609,0.99902,0.99902,0.99902,1.0049,1.0049,1.0049,1.0049,1.0049,0,1.1064,1.1064,1.1025,1.1064,1.1064,1.1025,1.1025,1.1025,1.1025,1.0996,1.0996,1.0996,1.0996,1.0996,1.0957,1.0957,1.0957,1.0957,1.0918,1.0957,1.0918,1.0918,1.0918,1.0918,1.0918,1.0928,1.0928,1.0889,1.0889,1.0889,1.0889,1.0889,1.0889,1.085,1.085,1.0889,1.0889,1.0889,1.0889,1.0889,1.0889,1.0889,1.0889,1.0889,1.0889,1.0889,1.0889,1.0928,1.0928,1.0928,0,0,0,0,0,0,0,0,0,0,0,0,0,0,0,0,0,0,2.0254,2.0137,2.0254,2.0254,2.0254,2.0254,2.0254,2.0254,2.0254,2.0254,2.0137,2.0137,2.0137,2.0137,2.0137,2.002,2.002,2.002,1.9893,1.9893,1.9893,1.9893,1.9893,1.9902,1.9902,1.9902,1.9902,1.9785,1.9902,1.9785,1.9902,1.9785,1.9785,1.9785,1.9785,1.9785,1.9785,1.9902,1.9902,1.9902,1.9785,1.9785,1.9668,1.9785,1.9785,1.9668,1.9668,1.9668,1.9561,1.9561,1.9443,1.9443,1.9443,0,0,0,0,0,0,0,0,0,0,0,0,0,0,0,0,0,0,0,0,0,0,0,0,0,0,0,0,0
1.0977,1.1006,1.1006,1.1045,1.1045,1.1045,1.1045,1.1084,1.1084,1.1084,1.1084,1.1084,1.1113,1.1152,1.1152,1.1191,1.1191,1.1191,1.1191,1.1191,1.1191,1.123,1.123,1.123,1.123,1.127,1.127,1.1309,1.1309,1.1309,1.1309,1.1338,1.1338,1.1377,1.1377,1.1377,1.1416,1.1416,1.1377,1.1377,1.1377,1.1416,1.1416,1.1455,1.1455,1.1494,1.1494,1.1494,1.1533,1.1533,1.1572,1.1572,1.1572,1.1611,1.1699,1.1699,1.1699,1.1738,1.1738,1.1738,1.1738,1.1738,1.1777,1.1777,1.1777,1.1777,1.1816,1.1816,1.1865,1.1865,1.1865,1.1865,1.1865,1.1865,1.1865,1.1865,1.1865,1.1865,1.1865,1.1865,1.1865,1.1904,1.1865,1.1865,1.1816,1.1816,1.1816,1.1865,1.1816,1.1816,1.1816,1.1816,1.1865,1.1865,1.1816,1.1816,1.1816,1.1816,1.1816,1.1777,1.1777,1.1777,1.1826,1.1826,1.1826,1.1826,1.1826,1.1865,1.1826,1.1777,1.1826,1.1826,1.1826,1.1826,1.1826,1.1826,1.1826,1.1826,1.1826,1.1826,1.1777,1.1777,1.1777,1.1738,1.1738,1.1738,1.1699,1.1699,1.1738,1.1777,1.1777,1.1787,1.1787,1.1787,1.1787,1.1787,1.1787,1.1787,1.1787,1.1787,1.1787,1.1738,1.1738,1.1738,1.1738,1.1738,1.1738,1.1738,1.1738,1.1738,1.1738,1.1738,1.1699,1.1738,1.1738,1.1699,1.1738,1.1748,1.1748,1.1787,1.1748,1.1748,1.166,1.166,1.1748,1.1748,1.1748,1.1748,1.1787,1.1787,1.1787,1.1787,1.1826,1.1826,1.1787,1.1787,1.1787,1.1826,1.1865,1.1914,1.1914,1.1914,1.1914,1.1914,1.1914,1.1914,1.0879,1.0918,1.084,1.0879,1.0879,1.0879,1.0879,1.0879,1.084,1.084,1.0811,1.0771,1.0771,1.0771,1.0771,1.0771,1.0771,1.0742,1.0742,1.0742,1.0742,1.0703,1.0703,1.0703,1.0703,0,0,1.0645,1.0645,1.0605,1.0508,1.0537,1.0508,1.0479,1.0479,1.0449,1.0449,1.0449,1.041,1.0381,1.0381,1.0381,1.0352,1.0381,1.0381,1.0381,1.0381,1.0381,1.0381,1.0381,1.0381,1.0381,1.0352,1.0352,1.0381,1.0381,1.0352,1.0352,1.0352,1.0352,1.0352,1.0352,1.0352,1.0352,1.0352,1.0352,1.0352,1.0352,1.0352,1.0381,1.041,1.0449,1.0479,1.0508,1.0508,1.0508,0,1.1514,1.1514,1.1514,1.1514,1.1514,1.1514,1.1475,1.1475,1.1514,1.1514,1.1514,1.1514,1.1475,1.1475,1.1475,1.1475,1.1436,1.1436,1.1436,1.1396,1.1396,1.1396,1.1396,1.1396,1.1396,1.1396,1.1396,1.1436,1.1396,1.1396,1.1396,1.1357,1.0381,1.0352,1.0322,1.0322,1.0293,1.0293,1.0264,1.0195,1.0195,1.0166,1.0166,1.0137,1.0137,1.0107,1.0107,1.0107,1.0107,1.0078,1.0078,1.0049,1.0049,1.0049,1.0049,1.0049,1.0049,1.0049,1.002,0.99902,0.99902,0.99902,0.99609,0.99609,0.99902,0.99609,0.99609,0.99902,0.99609,0.99609,0.99609,0.99609,0.99609,0.99609,0.99902,0.99902,0.99902,1.002,1.002,1.002,1.002,0,1.0957,1.1064,1.1064,1.1025,1.1025,1.1025,1.1025,1.1025,1.1025,1.0996,1.0996,1.0996,1.0996,1.0957,1.0918,1.0918,1.0918,1.0918,1.0918,1.0928,1.0889,1.0928,1.0889,1.0889,1.0889,1.0889,1.0889,1.0889,1.0889,1.085,1.0889,1.085,1.085,1.085,1.082,1.082,1.085,1.085,1.085,1.085,1.085,1.085,1.085,1.0859,1.0889,1.0859,1.0859,1.0859,1.0889,1.0928,1.0928,0,0,0,0,0,0,0,0,0,0,0,0,0,0,0,0,0,0,2.0254,2.0137,2.0254,2.0254,2.0254,2.0254,2.0254,2.0254,2.0137,2.0137,2.0137,2.0137,2.0137,2.002,1.9902,1.9902,1.9902,1.9902,1.9902,1.9902,1.9902,1.9902,1.9902,1.9902,1.9902,1.9902,1.9785,1.9785,1.9785,1.9785,1.9785,1.9785,1.9785,1.9785,1.9902,1.9785,1.9785,1.9902,1.9902,1.9785,1.9785,1.9668,1.9668,1.9668,1.9668,1.9668,1.9668,1.9561,1.9561,1.9561,1.9443,1.9443,1.9443,0,0,0,0,0,0,0,0,0,0,0,0,0,0,0,0,0,0,0,0,0,0,0,0,0,0,0,0,0
1.1006,1.1006,1.1045,1.1045,1.1045,1.1084,1.1084,1.1084,1.1084,1.1084,1.1084,1.1084,1.1123,1.1152,1.1152,1.1191,1.1191,1.1191,1.1191,1.1191,1.1191,1.123,1.123,1.123,1.127,1.127,1.127,1.1309,1.1309,1.1309,1.1309,1.1348,1.1348,1.1377,1.1377,1.1377,1.1416,1.1416,1.1416,1.1416,1.1416,1.1455,1.1455,1.1455,1.1455,1.1494,1.1494,1.1494,1.1533,1.1533,1.1572,1.1572,1.1611,1.1611,1.1699,1.1699,1.1699,1.1738,1.1738,1.1738,1.1738,1.1777,1.1777,1.1777,1.1777,1.1777,1.1816,1.1816,1.1816,1.1865,1.1865,1.1865,1.1865,1.1865,1.1865,1.1865,1.1816,1.1816,1.1816,1.1816,1.1816,1.1816,1.1777,1.1777,1.1777,1.1777,1.1777,1.1816,1.1777,1.1816,1.1777,1.1816,1.1816,1.1826,1.1777,1.1777,1.1777,1.1738,1.1738,1.1738,1.1738,1.1738,1.1777,1.1777,1.1777,1.1777,1.1777,1.1826,1.1738,1.1738,1.1777,1.1777,1.1777,1.1777,1.1826,1.1826,1.1777,1.1826,1.1777,1.1777,1.1777,1.1777,1.1738,1.1738,1.1738,1.1699,1.1699,1.166,1.1699,1.1738,1.1738,1.1787,1.1787,1.1787,1.1787,1.1787,1.1787,1.1787,1.1787,1.1787,1.1787,1.1738,1.1738,1.1738,1.1738,1.1738,1.1738,1.1738,1.1738,1.1738,1.1699,1.1699,1.1699,1.1699,1.1699,1.166,1.166,1.166,1.1748,1.1699,1.1699,1.1621,1.1621,1.166,1.1621,1.1748,1.1748,1.1748,1.1787,1.1787,1.1787,1.1787,1.1787,1.1826,1.1787,1.1787,1.1787,1.1787,1.1826,1.1865,1.1865,1.1865,1.1865,1.1914,1.1865,1.1865,1.1865,1.0918,1.0918,1.0918,1.0879,1.0879,1.0879,1.0879,1.0879,1.084,1.084,1.0811,1.0771,1.0771,1.0771,1.0771,1.0771,1.0771,1.0742,1.0742,1.0742,1.0703,1.0703,1.0703,1.0742,0,1.0674,1.0645,1.0645,1.0537,1.0508,1.0508,1.0508,1.0479,1.0479,1.0449,1.0449,1.0449,1.041,1.041,1.0381,1.0381,1.0381,1.041,1.041,1.0381,1.041,1.041,1.041,1.041,1.041,1.0381,1.0381,1.0381,1.0381,1.0381,1.0381,1.0352,1.0352,1.0352,1.0352,1.0352,1.0381,1.0352,1.0381,1.0381,1.0352,1.0352,1.0352,1.0381,1.0381,1.0381,1.0449,1.0479,1.0479,1.0479,0,1.1475,1.1475,1.1436,1.1436,1.1436,1.1475,1.1436,1.1436,1.1475,1.1475,1.1475,1.1436,1.1436,1.1436,1.1436,1.1396,1.1396,1.1396,1.1396,1.1396,1.1357,1.1357,1.1357,1.1357,1.1357,1.1357,1.1396,1.1396,1.1357,1.1357,1.1357,1.042,1.0322,1.0352,1.0293,1.0322,1.0293,1.0264,1.0264,1.0195,1.0195,1.0166,1.0166,1.0137,1.0137,1.0107,1.0107,1.0107,1.0107,1.0078,1.0078,1.0078,1.0078,1.0078,1.0078,1.0078,1.0078,1.0078,1.0078,1.002,1.002,1.002,1.002,1.002,1.002,1.002,1.002,1.002,0.99902,0.99902,0.99902,0.99609,0.99902,0.99902,0.99902,0.99902,0.99902,1.002,0.99902,0.99902,0.99902,0,1.0996,1.1025,1.1025,1.0996,1.1025,1.1025,1.0996,1.0996,1.0996,1.0996,1.0957,1.0957,1.0957,1.0928,1.0889,1.0889,1.0889,1.0889,1.0889,1.0889,1.0889,1.0889,1.0889,1.0889,1.0889,1.0889,1.0889,1.0889,1.085,1.085,1.085,1.085,1.085,1.085,1.082,1.0781,1.082,1.082,1.082,1.0859,1.0859,1.0859,1.0859,1.0859,1.0859,1.0859,1.0859,1.0859,1.0889,1.0928,0,0,0,0,0,0,0,0,0,0,0,0,0,0,0,0,0,0,0,2.002,2.0254,2.0137,2.0254,2.0254,2.0254,2.0137,2.0137,2.0137,2.0137,2.0137,2.002,2.002,2.002,1.9902,1.9902,1.9902,1.9902,1.9902,1.9902,1.9902,1.9902,1.9902,1.9902,1.9785,1.9785,1.9785,1.9785,1.9785,1.9785,1.9785,1.9785,1.9785,1.9785,1.9785,1.9785,1.9668,1.9785,1.9785,1.9785,1.9668,1.9561,1.9561,1.9668,1.9668,1.9668,1.9561,1.9561,1.9561,1.9561,1.9443,1.9443,1.9443,0,0,0,0,0,0,0,0,0,0,0,0,0,0,0,0,0,0,0,0,0,0,0,0,0,0,0,0,0
1.1006,1.1006,1.1045,1.1045,1.1045,1.1084,1.1084,1.1084,1.1084,1.1084,1.1084,1.1084,1.1123,1.1123,1.1152,1.1152,1.1191,1.1191,1.1191,1.1191,1.123,1.123,1.123,1.123,1.127,1.127,1.1309,1.1309,1.1309,1.1309,1.1309,1.1348,1.1348,1.1348,1.1377,1.1377,1.1416,1.1416,1.1416,1.1416,1.1416,1.1455,1.1455,1.1494,1.1494,1.1494,1.1494,1.1494,1.1533,1.1533,1.1572,1.1582,1.1621,1.1621,1.166,1.166,1.1699,1.1738,1.1738,1.1738,1.1777,1.1777,1.1777,1.1777,1.1777,1.1777,1.1816,1.1816,1.1816,1.1865,1.1865,1.1865,1.1816,1.1816,1.1816,1.1816,1.1777,1.1777,1.1777,1.1777,1.1777,1.1777,1.1738,1.1738,1.1738,1.1738,1.1738,1.1777,1.1738,1.1738,1.1777,1.1777,1.1826,1.1777,1.1777,1.1777,1.1738,1.1738,1.1738,1.1699,1.1738,1.1738,1.1738,1.1738,1.1738,1.1738,1.1777,1.1738,1.1699,1.1699,1.1738,1.1777,1.1738,1.1738,1.1777,1.1777,1.1787,1.1787,1.1787,1.1738,1.1738,1.1738,1.1738,1.1738,1.1738,1.1699,1.1699,1.166,1.1738,1.1738,1.1738,1.1738,1.1787,1.1787,1.1787,1.1787,1.1787,1.1787,1.1787,1.1787,1.1738,1.1738,1.1738,1.1748,1.1748,1.1748,1.1748,1.1699,1.1699,1.1748,1.1748,1.1699,1.1699,1.1699,1.1699,1.166,1.1621,1.1621,1.166,1.1621,1.1621,1.1621,1.1621,1.1621,1.1621,1.1748,1.1748,1.1748,1.1787,1.1787,1.1787,1.1787,1.1787,1.1826,1.1826,1.1826,1.1787,1.1787,1.1787,1.1826,1.1826,1.1826,1.1826,1.1826,1.1826,1.1826,1.1787,1.1787,1.167,1.0918,1.0879,1.0879,1.0879,1.085,1.085,1.085,1.085,1.0811,1.0771,1.0771,1.0771,1.0781,1.0781,1.0781,1.0742,1.0742,1.0742,1.0713,1.0742,1.0742,1.0742,0,1.0645,1.0645,1.0605,1.0508,1.0508,1.0508,1.0479,1.0479,1.0449,1.0449,1.0449,1.041,1.041,1.041,1.0381,1.0381,1.0381,1.041,1.041,1.041,1.041,1.041,1.041,1.041,1.041,1.041,1.041,1.0381,1.0381,1.0381,1.0381,1.0352,1.0352,1.0352,1.0352,1.0352,1.0352,1.0381,1.0381,1.0381,1.0381,1.0381,1.0381,1.0381,1.0381,1.0381,1.042,1.0449,1.0449,1.0508,0,1.1436,1.1436,1.1396,1.1396,1.1396,1.1396,1.1396,1.1396,1.1396,1.1357,1.1396,1.1396,1.1396,1.1396,1.1396,1.1357,1.1357,1.1357,1.1357,1.1357,1.1357,1.1357,1.1357,1.1357,1.1318,1.1318,1.1357,1.1318,1.1318,1.1318,1.042,1.042,1.0352,1.0352,1.0322,1.0322,1.0293,1.0264,1.0264,1.0195,1.0166,1.0166,1.0166,1.0137,1.0137,1.0107,1.0107,1.0107,1.0107,1.0107,1.0107,1.0078,1.0078,1.0107,1.0107,1.0107,1.0107,1.0107,1.0107,1.0078,1.0049,1.002,1.0049,1.0049,1.0049,1.002,1.0049,1.0049,1.002,1.002,1.002,0.99902,0.99902,0.99902,0.99902,0.99902,0.99902,1.002,0.99902,0.99902,0.99902,0,1.0957,1.0928,1.0996,1.0996,1.1025,1.0996,1.0996,1.0996,1.0996,1.0957,1.0957,1.0928,1.0889,1.0889,1.0889,1.0889,1.085,1.085,1.0889,1.085,1.085,1.085,1.085,1.085,1.085,1.085,1.085,1.085,1.085,1.0859,1.0859,1.082,1.082,1.082,1.0781,1.0781,1.0781,1.0781,1.082,1.082,1.082,1.0859,1.0859,1.0859,1.0859,1.0859,1.0859,1.0859,1.0889,0,0,0,0,0,0,0,0,0,0,0,0,0,0,0,0,0,0,0,0,2.002,2.0137,2.0137,2.0254,2.0254,2.0137,2.0137,2.0137,2.002,2.002,2.002,2.002,1.9902,1.9902,1.9902,1.9902,1.9902,1.9902,1.9902,1.9902,1.9902,1.9902,1.9902,1.9902,1.9902,1.9785,1.9785,1.9785,1.9785,1.9785,1.9785,1.9785,1.9785,1.9785,1.9785,1.9668,1.9668,1.9668,1.9668,1.9668,1.9561,1.9443,1.9561,1.9561,1.9561,1.9561,1.9561,1.9561,1.9561,1.9443,1.9443,1.9443,1.9336,0,0,0,0,0,0,0,0,0,0,0,0,0,0,0,0,0,0,0,0,0,0,0,0,0,0,0,0,0
1.1006,1.1006,1.1045,1.1045,1.1045,1.1084,1.1084,1.1084,1.1084,1.1084,1.1084,1.1084,1.1123,1.1123,1.1123,1.1152,1.1191,1.1191,1.1191,1.1191,1.123,1.123,1.123,1.123,1.127,1.127,1.127,1.1309,1.1309,1.1309,1.1348,1.1348,1.1387,1.1348,1.1387,1.1387,1.1387,1.1416,1.1416,1.1416,1.1455,1.1494,1.1455,1.1494,1.1494,1.1494,1.1494,1.1494,1.1533,1.1543,1.1582,1.1582,1.1621,1.1621,1.166,1.166,1.1699,1.1699,1.1699,1.1738,1.1738,1.1777,1.1738,1.1738,1.1777,1.1777,1.1777,1.1816,1.1816,1.1816,1.1816,1.1816,1.1816,1.1816,1.1777,1.1777,1.1777,1.1738,1.1738,1.1738,1.1738,1.1738,1.1738,1.1738,1.1738,1.1699,1.1738,1.1738,1.1738,1.1738,1.1738,1.1738,1.1738,1.1738,1.1738,1.1738,1.1738,1.1699,1.1699,1.1699,1.1738,1.1738,1.1738,1.1738,1.1738,1.1699,1.1738,1.1738,1.1699,1.1699,1.1738,1.1738,1.1738,1.1738,1.1738,1.1787,1.1738,1.1738,1.1738,1.1738,1.1738,1.1699,1.1699,1.1699,1.1699,1.1699,1.166,1.1621,1.1621,1.166,1.1699,1.1738,1.1787,1.1787,1.1787,1.1787,1.1787,1.1787,1.1748,1.1787,1.1748,1.1748,1.1748,1.1699,1.1699,1.1699,1.1699,1.1699,1.1699,1.1699,1.1699,1.1699,1.1699,1.166,1.166,1.1621,1.1621,1.1621,1.1621,1.1621,1.1621,1.1621,1.1621,1.1621,1.1621,1.1748,1.1748,1.1748,1.1748,1.1748,1.1748,1.1787,1.1787,1.1787,1.1787,1.1787,1.1787,1.1787,1.1787,1.1826,1.1826,1.1826,1.1826,1.1826,1.1787,1.1787,1.1787,1.1787,1.1748,1.1709,1.167,1.167,1.167,1.167,1.167,1.167,1.0811,1.0781,1.0781,1.0781,1.0781,1.0781,1.0781,1.0781,1.0781,1.0781,1.0781,1.0781,1.0742,1.0781,1.0742,1.0645,0,1.0645,1.0547,1.0547,1.0508,1.0479,1.0479,1.0479,1.0449,1.0449,1.041,1.041,1.041,1.0381,1.0381,1.0381,1.0381,1.041,1.041,1.0449,1.0449,1.0449,1.0449,1.0449,1.0449,1.0449,1.041,1.041,1.041,1.041,1.041,1.0381,1.0381,1.0381,1.0381,1.0381,1.0381,1.0381,1.0381,1.0381,1.0381,1.0381,1.0381,1.0381,1.0381,1.0381,1.042,1.042,1.042,0,1.1396,1.1396,1.1396,1.1396,1.1396,1.1396,1.1357,1.1357,1.1357,1.1357,1.1357,1.1318,1.1318,1.1318,1.1357,1.1318,1.1318,1.1357,1.1357,1.1357,1.1318,1.1318,1.1318,1.1318,1.1318,1.1279,1.1279,1.1279,1.1279,1.1279,1.1279,1.042,1.042,1.0381,1.0381,1.0322,1.0322,1.0293,1.0264,1.0225,1.0195,1.0166,1.0166,1.0166,1.0137,1.0137,1.0137,1.0137,1.0137,1.0107,1.0107,1.0107,1.0107,1.0137,1.0107,1.0107,1.0137,1.0137,1.0137,1.0107,1.0078,1.0078,1.0078,1.0078,1.0078,1.0078,1.0049,1.0049,1.0049,1.0049,1.002,1.002,0.99902,0.99609,0.99902,0.99902,0.99609,0.99902,0.99609,0.99902,1.002,1.002,0,1.0957,1.0889,1.0957,1.0928,1.0957,1.0957,1.0928,1.0957,1.0928,1.0957,1.0928,1.0928,1.0889,1.0889,1.0889,1.0889,1.085,1.085,1.085,1.085,1.085,1.085,1.0859,1.0859,1.0859,1.082,1.0859,1.0859,1.082,1.082,1.082,1.082,1.082,1.082,1.0791,1.0752,1.0752,1.0791,1.0791,1.082,1.082,1.082,1.082,1.082,1.082,1.082,1.0791,1.082,0,0,0,0,0,0,0,1.8486,0,0,0,0,0,0,0,0,0,0,0,0,0,2.002,2.0137,2.0137,2.0254,2.0254,2.0137,2.002,2.002,2.002,2.002,2.002,1.9902,2.002,1.9902,1.9902,1.9902,1.9902,1.9902,1.9902,1.9902,1.9785,1.9785,1.9785,1.9785,1.9785,1.9785,1.9785,1.9785,1.9785,1.9785,1.9785,1.9785,1.9785,1.9785,1.9785,1.9668,1.9561,1.9561,1.9561,1.9443,1.9443,1.9443,1.9561,1.9668,1.9668,1.9561,1.9561,1.9561,1.9561,1.9443,1.9443,1.9336,1.9336,0,0,0,0,0,0,0,0,0,0,0,0,0,0,0,0,0,0,0,0,0,0,0,0,0,0,0,0,0
1.1006,1.1045,1.1045,1.1045,1.1084,1.1084,1.1084,1.1084,1.1084,1.1084,1.1084,1.1084,1.1084,1.1123,1.1152,1.1152,1.1191,1.1191,1.1191,1.123,1.123,1.123,1.123,1.127,1.127,1.127,1.1309,1.1309,1.1309,1.1309,1.1348,1.1348,1.1348,1.1387,1.1387,1.1387,1.1387,1.1426,1.1426,1.1426,1.1455,1.1494,1.1465,1.1504,1.1504,1.1504,1.1504,1.1543,1.1543,1.1543,1.1582,1.1582,1.1582,1.1621,1.1621,1.166,1.1699,1.1699,1.1738,1.1738,1.1738,1.1738,1.1738,1.1738,1.1777,1.1738,1.1738,1.1777,1.1738,1.1738,1.1738,1.1738,1.1699,1.1699,1.1738,1.1699,1.1699,1.1738,1.1699,1.1699,1.1738,1.1699,1.1699,1.1699,1.1738,1.1699,1.1699,1.1738,1.1738,1.1699,1.1699,1.1699,1.1699,1.1699,1.1699,1.1699,1.1699,1.1699,1.1699,1.1699,1.1699,1.1699,1.1699,1.1699,1.1699,1.166,1.1699,1.166,1.166,1.166,1.1699,1.1699,1.1738,1.1699,1.1738,1.1738,1.1738,1.1738,1.1738,1.1738,1.1699,1.1699,1.1699,1.166,1.166,1.166,1.1621,1.1621,1.1621,1.1621,1.166,1.1748,1.1787,1.1787,1.1748,1.1748,1.1787,1.1787,1.1748,1.1748,1.1748,1.1699,1.1699,1.166,1.166,1.166,1.166,1.1699,1.166,1.166,1.166,1.166,1.166,1.166,1.166,1.1621,1.1621,1.1621,1.1621,1.1621,1.1621,1.1621,1.1582,1.1621,1.1621,1.1748,1.1748,1.1787,1.1748,1.1787,1.1748,1.1787,1.1787,1.1787,1.1787,1.1787,1.1787,1.1787,1.1787,1.1826,1.1826,1.1826,1.1826,1.1787,1.1787,1.1787,1.1748,1.1748,1.1748,1.1709,1.1709,1.1709,1.1709,1.167,1.167,1.167,1.1709,1.0811,1.0781,1.0781,1.0811,1.0781,1.0781,1.0781,1.0781,1.0781,1.0781,0,0,0,1.1631,1.0645,1.0605,1.0605,1.0605,1.0547,1.0508,1.0508,1.0479,1.0449,1.0449,1.0449,1.041,1.041,1.041,1.041,1.041,1.0381,1.0381,1.0449,1.0449,1.0479,1.0508,1.0508,1.0508,1.0479,1.0508,1.0479,1.0449,1.0449,1.042,1.0449,1.0449,1.042,1.042,1.042,1.042,1.042,1.042,1.042,1.0381,1.0381,1.0381,1.0381,1.0381,1.0381,1.0381,1.0381,1.0381,1.042,1.042,0,1.1396,1.1396,1.1396,1.1357,1.1357,1.1357,1.1357,1.1357,1.1318,1.1318,1.1318,1.1279,1.1318,1.1279,1.1318,1.1279,1.1279,1.1279,1.1279,1.1279,1.125,1.125,1.125,1.1279,1.125,1.125,1.125,1.1279,1.125,1.125,1.125,1.125,1.042,1.0391,1.0391,1.0322,1.0322,1.0322,1.0264,1.0234,1.0195,1.0166,1.0166,1.0137,1.0137,1.0137,1.0137,1.0137,1.0137,1.0137,1.0137,1.0137,1.0137,1.0107,1.0137,1.0137,1.0137,1.0166,1.0166,1.0166,1.0166,1.0137,1.0137,1.0078,1.0078,1.0078,1.0078,1.0049,1.0049,1.0049,1.0049,1.0049,0.99902,0.99902,0.99902,0.99902,0.99902,0.99902,0.99902,0.99902,1.002,1.002,0,1.0957,1.0928,1.0928,1.0889,1.0928,1.0928,1.0928,1.0928,1.0889,1.0889,1.0889,1.0889,1.0889,1.0859,1.0859,1.0859,1.0859,1.0859,1.0859,1.0859,1.0859,1.0859,1.082,1.082,1.082,1.0791,1.082,1.082,1.082,1.082,1.0791,1.0791,1.0791,1.0791,1.0791,1.0752,1.0752,1.0752,1.0752,1.0791,1.0791,1.0791,1.0791,1.082,1.0791,1.0791,1.0791,1.0791,0,0,0,0,0,0,1.8486,1.8486,0,0,0,0,0,0,0,0,0,0,0,0,1.9785,2.0137,2.0137,2.0137,2.0137,2.0137,2.002,1.9902,2.002,1.9902,1.9902,1.9902,1.9902,1.9902,1.9902,1.9902,1.9902,1.9902,1.9902,1.9902,1.9902,1.9785,1.9785,1.9785,1.9785,1.9785,1.9785,1.9785,1.9785,1.9785,1.9785,1.9785,1.9785,1.9668,1.9668,1.9561,1.9561,1.9561,1.9561,1.9561,1.9561,1.9443,1.9443,1.9561,1.9678,1.9678,1.9561,1.9561,1.9453,1.9443,1.9443,1.9443,1.9336,1.9336,0,0,0,0,0,0,0,0,0,0,0,0,0,0,0,0,0,0,0,0,0,0,0,0,0,0,0,0,0
1.1045,1.1045,1.1045,1.1045,1.1084,1.1084,1.1084,1.1084,1.1084,1.1084,1.1084,1.1084,1.1084,1.1123,1.1152,1.1152,1.1152,1.1191,1.1191,1.123,1.123,1.123,1.123,1.127,1.127,1.127,1.127,1.1309,1.1348,1.1348,1.1348,1.1348,1.1387,1.1348,1.1387,1.1387,1.1387,1.1426,1.1426,1.1426,1.1465,1.1504,1.1504,1.1504,1.1504,1.1504,1.1504,1.1543,1.1504,1.1543,1.1582,1.1582,1.1621,1.1621,1.1621,1.166,1.166,1.1699,1.1699,1.1738,1.1738,1.1738,1.1738,1.1738,1.1738,1.1738,1.1738,1.1738,1.1738,1.1699,1.1699,1.1699,1.166,1.1699,1.1699,1.1699,1.1699,1.1699,1.1699,1.1699,1.1699,1.1699,1.1699,1.1699,1.1699,1.1699,1.1699,1.1699,1.1699,1.166,1.166,1.166,1.166,1.1621,1.1621,1.166,1.1699,1.166,1.1699,1.1699,1.1699,1.1699,1.1699,1.1699,1.1699,1.166,1.166,1.166,1.166,1.166,1.1699,1.1699,1.1738,1.1699,1.1699,1.1699,1.1738,1.1738,1.1699,1.1699,1.1699,1.1699,1.166,1.166,1.1621,1.1621,1.1621,1.1621,1.1621,1.1621,1.1621,1.1748,1.1748,1.1748,0,1.1748,1.1748,1.1787,1.1748,1.1699,1.166,1.166,1.1621,1.1621,1.1621,1.1621,1.166,1.166,1.1621,1.1621,1.1621,1.1621,1.1621,1.1621,1.1621,1.1621,1.1621,1.1582,1.1621,1.1621,1.1621,1.1621,1.1582,1.1621,1.1621,1.1621,1.1621,1.167,1.1748,1.1748,1.1787,1.1787,1.1787,1.1787,1.1787,1.1748,1.1787,1.1787,1.1787,1.1787,1.1787,1.1787,1.1787,1.1787,1.1748,1.1748,1.1748,1.1748,1.1709,1.1709,1.167,1.167,1.167,1.167,1.1631,1.167,1.167,1.167,1.0781,1.0781,1.0811,1.0811,1.0781,1.0781,1.0781,1.0781,0,1.1553,1.1553,1.1514,1.1553,1.0645,1.0605,1.0576,1.0576,1.0547,1.0547,1.0508,1.0479,1.0449,1.0449,1.0449,1.0449,1.0449,1.0449,1.0449,1.0449,1.041,1.0449,1.0479,1.0508,1.0547,1.0547,1.0547,1.0547,1.0547,1.0547,1.0508,1.0508,1.0479,1.0479,1.0479,1.0479,1.0449,1.0449,1.0449,1.0449,1.042,1.042,1.042,1.0381,1.0381,1.0381,1.0381,1.0381,1.0381,1.0381,1.0381,1.0381,1.0381,1.0381,0,1.1396,1.1396,1.1357,1.1357,1.1357,1.1318,1.1357,1.1318,1.1318,1.1318,1.1279,1.1279,1.1279,1.1279,1.1279,1.1279,1.125,1.125,1.125,1.125,1.125,1.1211,1.1211,1.1211,1.1172,1.1172,1.1172,1.1211,1.125,1.125,1.1211,1.125,1.125,1.0391,1.0391,1.0322,1.0322,1.0322,1.0264,1.0195,1.0195,1.0166,1.0166,1.0166,1.0137,1.0137,1.0137,1.0137,1.0137,1.0137,1.0137,1.0166,1.0137,1.0137,1.0137,1.0166,1.0166,1.0166,1.0166,1.0166,1.0166,1.0166,1.0166,1.0137,1.0107,1.0107,1.0078,1.0078,1.0078,1.0049,1.0049,1.0049,0.99609,0.99609,0.99609,0.99902,0.99609,0.99902,0.99902,0.99902,1.002,1.0049,0,1.0957,1.0889,1.0889,1.0889,1.0928,1.0889,1.0889,1.0889,1.0889,1.0889,1.0859,1.0859,1.0859,1.0859,1.0859,1.0859,1.082,1.082,1.082,1.082,1.082,1.0791,1.082,1.0791,1.0791,1.0791,1.0791,1.0791,1.0791,1.0791,1.0791,1.0791,1.0791,1.0791,1.0752,1.0752,1.0752,1.0752,1.0752,1.0752,1.0752,1.0752,1.0752,1.0791,1.0752,1.0752,1.0752,1.082,0,0,0,0,0,0,1.8594,0,0,0,0,0,0,0,0,0,0,0,0,0,1.9785,1.9785,2.002,2.002,2.002,2.002,1.9902,1.9902,1.9902,1.9902,1.9902,1.9902,1.9785,1.9902,1.9902,1.9902,1.9902,1.9902,1.9902,1.9902,1.9902,1.9785,1.9785,1.9785,1.9785,1.9785,1.9785,1.9785,1.9785,1.9668,1.9678,1.9678,1.9678,1.9678,1.9561,1.9561,1.9561,1.9561,1.9561,1.9453,1.9561,1.9453,1.9453,1.9453,1.9678,1.9561,1.9453,1.9453,1.9453,1.9453,1.9336,1.9336,1.9336,1.9229,0,0,0,0,0,0,0,0,0,0,0,0,0,0,0,0,0,0,0,0,0,0,0,0,0,0,0,0,0
1.1045,1.1045,1.1045,1.1045,1.1045,1.1084,1.1084,1.1084,1.1084,1.1084,1.1084,1.1123,1.1123,1.1123,1.1162,1.1162,1.1191,1.1191,1.123,1.123,1.123,1.123,1.123,1.127,1.127,1.127,1.1309,1.1309,1.1348,1.1348,1.1348,1.1348,1.1348,1.1348,1.1348,1.1387,1.1387,1.1426,1.1426,1.1465,1.1504,1.1504,1.1504,1.1504,1.1504,1.1504,1.1504,1.1543,1.1504,1.1543,1.1582,1.1582,1.1582,1.1621,1.1621,1.166,1.166,1.1699,1.1699,1.1738,1.1738,1.1738,1.1738,1.1738,1.1738,1.1699,1.1699,1.1699,1.166,1.1621,1.1621,1.1621,1.1621,1.166,1.166,1.166,1.166,1.166,1.166,1.1699,1.1699,1.166,1.166,1.166,1.166,1.166,1.1699,1.166,1.166,1.1621,1.1621,1.1621,1.1621,1.1621,1.1621,1.1621,1.1621,1.1621,1.166,1.1621,1.1621,1.1621,1.1621,1.1621,1.1621,1.1621,1.166,1.1621,1.1621,1.1621,1.1699,1.1699,1.1699,1.166,1.166,1.1699,1.1699,1.1699,1.1699,1.1699,1.166,1.166,1.166,1.166,1.1621,1.1621,1.1621,1.1621,1.1621,1.1621,1.1621,1.1699,1.1748,1.1748,0,0,1.1621,1.1621,1.166,1.166,1.1621,1.1621,1.1621,1.1621,1.1621,1.1621,1.1621,1.1582,1.1582,1.1582,1.1582,1.1621,1.1621,1.1621,1.1621,1.1621,1.1621,1.1582,1.1582,1.1621,1.1621,1.1621,1.1621,1.1621,1.1621,1.1621,1.1621,1.167,1.1748,1.1748,1.1787,1.1787,1.1748,1.1748,1.1748,1.1748,1.1748,1.1748,1.1748,1.1748,1.1787,1.1748,1.1748,1.1748,1.1709,1.1709,1.1709,1.1709,1.167,1.167,1.167,1.167,1.167,1.1631,1.1631,1.1631,1.1631,1.1631,1.1592,1.0781,0,1.1631,1.1592,1.1592,1.1553,1.1553,1.1553,1.1514,1.1514,1.1514,1.1514,1.1475,1.0605,1.0576,1.0605,1.0547,1.0547,1.0508,1.0479,1.0449,1.0449,1.0449,1.0449,1.0449,1.0449,1.0479,1.0479,1.0508,1.0508,1.0547,1.0576,1.0576,1.0576,1.0576,1.0576,1.0547,1.0576,1.0576,1.0518,1.0518,1.0518,1.0518,1.0518,1.0479,1.0479,1.0449,1.0449,1.0449,1.0449,1.042,1.042,1.042,1.0381,1.0381,1.0381,1.0381,1.0381,1.0381,1.0381,1.042,0,1.1396,1.1357,1.1357,1.1357,1.1318,1.1318,1.1318,1.1318,1.1279,1.1279,1.1279,1.1279,1.125,1.125,1.125,1.125,1.125,1.125,1.125,1.125,1.125,1.1211,1.1211,1.1211,1.1172,1.1172,1.1172,1.1172,1.1211,1.1211,1.1211,1.1172,1.1172,1.1211,1.0391,1.0322,1.0322,1.0322,1.0322,1.0264,1.0205,1.0166,1.0166,1.0166,1.0137,1.0137,1.0137,1.0137,1.0137,1.0166,1.0166,1.0166,1.0166,1.0166,1.0166,1.0166,1.0166,1.0205,1.0205,1.0205,1.0205,1.0205,1.0166,1.0166,1.0166,1.0137,1.0137,1.0107,1.0107,1.0107,1.0078,1.0078,1.0078,0.99609,0.99609,0.99902,0.99609,0.99609,0.99609,0.99902,0.99902,1.002,1.002,0,1.0957,1.0928,1.0889,1.0859,1.0889,1.0889,1.0859,1.0859,1.0859,1.0859,1.0859,1.0859,1.0859,1.0859,1.082,1.082,1.082,1.082,1.0791,1.0791,1.0791,1.0791,1.0752,1.0752,1.0752,1.0752,1.0752,1.0752,1.0752,1.0752,1.0752,1.0752,1.0752,1.0752,1.0752,1.0752,1.0752,1.0723,1.0723,1.0723,1.0752,1.0723,1.0723,1.0752,1.0752,1.0752,1.0752,1.0791,0,0,0,0,0,0,1.8594,0,0,0,0,0,0,0,0,1.8691,0,0,0,1.9668,1.9668,1.9785,1.9902,1.9902,2.002,1.9902,1.9902,1.9785,1.9902,1.9785,1.9785,1.9785,1.9785,1.9785,1.9785,1.9902,1.9902,1.9902,1.9902,1.9902,1.9785,1.9785,1.9785,1.9678,1.9678,1.9678,1.9678,1.9678,1.9678,1.9678,1.9678,1.9678,1.9561,1.9561,1.9561,1.9561,1.9453,1.9453,1.9453,1.9453,1.9453,1.9453,1.9453,1.9453,1.9453,1.9453,1.9336,1.9336,1.9336,1.9336,1.9336,1.9336,1.9229,1.9229,0,0,0,0,0,0,0,0,0,0,0,0,0,0,0,0,0,0,0,0,0,0,0,0,0,0,0,0,0
1.1045,1.1045,1.1045,1.1045,1.1084,1.1084,1.1084,1.1084,1.1123,1.1123,1.1123,1.1123,1.1123,1.1162,1.1162,1.1162,1.1191,1.1191,1.123,1.123,1.123,1.123,1.123,1.127,1.127,1.127,1.127,1.1348,1.1348,1.1348,1.1348,1.1348,1.1348,1.1348,1.1348,1.1387,1.1387,1.1426,1.1426,1.1426,1.1465,1.1504,1.1465,1.1504,1.1504,1.1504,1.1504,1.1543,1.1543,1.1543,1.1582,1.1582,1.1582,1.1582,1.1621,1.166,1.166,1.166,1.1699,1.1699,1.1699,1.1699,1.1699,1.1699,1.1699,1.1699,1.166,1.1621,1.1621,1.1582,1.1582,1.1582,1.1582,1.1621,1.1621,1.1621,1.1621,1.1621,1.166,1.166,1.166,1.166,1.166,1.166,1.166,1.166,1.166,1.1621,1.1621,1.1582,1.1582,1.1582,1.1582,1.1582,1.1582,1.1582,1.1582,1.1621,1.1621,1.1621,1.1621,1.1621,1.1582,1.1582,1.1582,1.1582,1.1582,1.1582,1.1582,1.1582,1.166,1.1621,1.1621,1.1621,1.166,1.1621,1.1621,1.166,1.166,1.166,1.166,1.166,1.1621,1.1621,1.1621,1.1621,1.1748,0,0,0,0,0,0,0,0,0,1.1748,1.1621,1.1621,1.1621,1.1582,1.1582,1.1582,1.1582,1.1582,1.1582,1.1582,1.1582,1.1582,1.1582,1.1582,1.1582,1.1621,1.1621,1.1582,1.1582,1.1582,1.1582,1.1582,1.1621,1.1621,1.1621,1.1621,1.1631,1.1631,1.1631,1.1631,1.1631,1.167,1.1709,1.1748,1.1748,1.1709,1.1709,1.1709,1.1709,1.1709,1.1709,1.1709,1.167,1.1709,1.1709,1.1709,1.167,1.167,1.167,1.167,1.167,1.167,1.167,1.1631,1.167,1.1631,1.1631,1.1592,1.1592,1.1592,1.1592,1.1553,1.1553,1.1553,1.1553,1.1553,1.1553,1.1553,1.1553,1.1553,1.1514,1.1514,1.1514,1.1475,1.1475,1.0615,1.0576,1.0576,1.0547,1.0547,1.0508,1.0508,1.0479,1.0449,1.0449,1.0449,1.0449,1.0479,1.0479,1.0518,1.0518,1.0518,1.0576,1.0576,1.0615,1.0615,1.0615,1.0645,1.0615,1.0615,1.0615,1.0576,1.0547,1.0547,1.0547,1.0518,1.0518,1.0479,1.0479,1.0479,1.0449,1.0479,1.0449,1.042,1.042,1.042,1.042,1.042,1.042,1.0381,1.0381,1.0381,1.042,1.042,0,1.1318,1.1279,1.1318,1.1318,1.1279,1.1279,1.1279,1.125,1.1289,1.125,1.125,1.125,1.125,1.1211,1.125,1.125,1.125,1.1211,1.1211,1.1211,1.1211,1.1172,1.1172,1.1133,1.1133,1.1133,1.1133,1.1172,1.1172,1.1172,1.1133,1.1133,1.1172,1.0391,1.0322,1.0352,1.0322,1.0322,1.0293,1.0205,1.0166,1.0166,1.0166,1.0166,1.0166,1.0166,1.0166,1.0166,1.0166,1.0205,1.0166,1.0205,1.0166,1.0205,1.0205,1.0205,1.0205,1.0234,1.0234,1.0234,1.0264,1.0234,1.0234,1.0205,1.0176,1.0176,1.0137,1.0137,1.0137,1.0107,1.0078,1.0078,1.0049,0.99902,0.99902,0.99902,0.99902,0.99902,0.99902,0.99902,1.002,1.0049,0,1.0957,1.0889,1.0889,1.0859,1.0889,1.0859,1.0859,1.082,1.082,1.082,1.082,1.082,1.082,1.082,1.082,1.082,1.0791,1.0791,1.0791,1.0791,1.0791,1.0752,1.0752,1.0752,1.0752,1.0723,1.0723,1.0752,1.0752,1.0752,1.0752,1.0752,1.0752,1.0723,1.0723,1.0723,1.0723,1.0723,1.0723,1.0723,1.0723,1.0723,1.0723,1.0752,1.0723,1.0723,1.0723,0,0,0,0,0,0,1.8096,1.8691,0,0,0,0,0,0,1.8691,1.8691,1.8691,1.8799,0,1.9443,1.9668,1.9668,1.9668,1.9902,1.9902,1.9902,1.9902,1.9902,1.9785,1.9785,1.9785,1.9785,1.9785,1.9785,1.9785,1.9785,1.9902,1.9902,1.9785,1.9785,1.9785,1.9785,1.9785,1.9785,1.9678,1.9561,1.9561,1.9561,1.9561,1.9561,1.9561,1.9561,1.9561,1.9561,1.9453,1.9453,1.9453,1.9453,1.9453,1.9453,1.9453,1.9453,1.9453,1.9453,1.9336,1.9336,1.9336,1.9336,1.9336,1.9336,1.9336,1.9336,1.9336,1.9229,1.9229,0,0,0,0,0,0,0,0,0,0,0,0,0,0,0,0,0,0,0,0,0,0,0,0,0,0,0,0,0
1.1045,1.1045,1.1045,1.1045,1.1084,1.1084,1.1084,1.1084,1.1123,1.1123,1.1123,1.1123,1.1123,1.1162,1.1162,1.1191,1.1191,1.1191,1.123,1.123,1.123,1.127,1.123,1.127,1.127,1.127,1.1309,1.1348,1.1348,1.1348,1.1348,1.1348,1.1387,1.1387,1.1387,1.1387,1.1426,1.1426,1.1426,1.1426,1.1465,1.1504,1.1465,1.1504,1.1504,1.1504,1.1504,1.1543,1.1543,1.1543,1.1582,1.1582,1.1582,1.1621,1.1621,1.166,1.166,1.166,1.1699,1.1699,1.1699,1.1699,1.166,1.166,1.166,1.1621,1.1621,1.1582,1.1582,1.1582,1.1582,1.1582,1.1582,1.1582,1.1582,1.1582,1.1582,1.1582,1.1582,1.1621,1.1621,1.1582,1.1621,1.1621,1.1621,1.1621,1.1621,1.1621,1.1621,1.1582,1.1582,1.1582,1.1582,1.1582,1.1582,1.1582,1.1582,1.1582,1.1582,1.1582,1.1582,1.1582,1.1582,1.1582,1.1582,1.1543,1.1543,1.1543,1.1582,1.1543,1.1621,1.1621,1.1582,1.1621,1.1621,1.1621,1.1621,1.1621,1.1621,1.1621,1.1582,1.1621,1.1582,1.1621,1.1582,1.1621,1.1582,0,0,0,0,0,0,0,0,0,1.1621,1.1621,1.1582,1.1582,1.1582,1.1582,1.1582,1.1543,1.1543,1.1543,1.1543,1.1543,1.1504,1.1543,1.1543,1.1543,1.1582,1.1582,1.1582,1.1582,1.1582,1.1582,1.1582,1.1582,1.1582,1.1631,1.1631,1.1631,1.1631,1.1631,1.1631,1.167,1.167,1.167,1.1709,1.167,1.167,1.167,1.167,1.167,1.167,1.167,1.1631,1.1631,1.1631,1.1631,1.167,1.1631,1.167,1.167,1.167,1.167,1.1631,1.1631,1.1631,1.1631,1.1631,1.1592,1.1592,1.1553,1.1553,1.1553,1.1514,1.1553,1.1514,1.1514,1.1514,1.1514,1.1514,1.1514,1.1514,1.1514,1.1475,1.1475,1.1475,1.1475,1.0615,1.0615,1.0576,1.0547,1.0547,1.0518,1.0518,1.0479,1.0479,1.0479,1.0479,1.0479,1.0479,1.0518,1.0518,1.0518,1.0547,1.0576,1.0615,1.0615,1.0645,1.0645,1.0645,1.0645,1.0645,1.0645,1.0645,1.0615,1.0576,1.0576,1.0547,1.0547,1.0518,1.0479,1.0479,1.0479,1.0479,1.0479,1.0479,1.042,1.042,1.042,1.042,1.042,1.042,1.042,1.042,1.042,1.042,0,1.1289,1.125,1.1289,1.1289,1.1289,1.125,1.125,1.125,1.125,1.125,1.125,1.1211,1.1211,1.1211,1.1211,1.1211,1.1211,1.1211,1.1172,1.1172,1.1133,1.1133,1.1133,1.1104,1.1104,1.1104,1.1143,1.1143,1.1143,1.1143,1.1143,1.1143,1.1172,1.0352,1.0361,1.0361,1.0361,1.0322,1.0293,1.0234,1.0205,1.0166,1.0166,1.0137,1.0166,1.0176,1.0205,1.0205,1.0205,1.0205,1.0234,1.0234,1.0234,1.0234,1.0234,1.0205,1.0264,1.0264,1.0264,1.0264,1.0264,1.0264,1.0264,1.0205,1.0176,1.0176,1.0137,1.0137,1.0137,1.0107,1.0107,1.0078,1.0078,1.002,1.002,1.002,0.99951,1.002,1.002,1.002,1.0049,1.0049,1.0049,0,1.0928,1.0889,1.0859,1.0859,1.082,1.082,1.0791,1.0791,1.0791,1.0791,1.0791,1.0791,1.0791,1.0791,1.0791,1.0752,1.0752,1.0752,1.0752,1.0752,1.0752,1.0723,1.0723,1.0723,1.0723,1.0723,1.0723,1.0723,1.0723,1.0723,1.0723,1.0723,1.0723,1.0723,1.0723,1.0723,1.0723,1.0723,1.0684,1.0723,1.0723,1.0723,1.0723,1.0723,1.0723,0,0,0,0,0,0,1.8193,1.8193,1.8799,1.8691,1.8906,0,0,1.9014,0,1.8799,1.8799,1.8691,1.8799,1.9336,1.9443,1.9668,1.9668,1.9668,1.9902,1.9902,1.9902,1.9902,1.9785,1.9785,1.9785,1.9678,1.9678,1.9678,1.9678,1.9678,1.9785,1.9785,1.9785,1.9785,1.9785,1.9785,1.9785,1.9785,1.9561,1.9561,1.9561,1.9561,1.9453,1.9453,1.9453,1.9453,1.9453,1.9561,1.9453,1.9453,1.9453,1.9453,1.9336,1.9336,1.9336,1.9336,1.9336,1.9453,1.9336,1.9336,1.9336,1.9336,1.9336,1.9336,1.9229,1.9229,1.9229,1.9229,1.9229,1.9229,0,0,0,0,0,0,0,0,0,0,0,0,0,0,0,0,0,0,0,0,0,0,0,0,0,0,0,0,0
1.1045,1.1045,1.1045,1.1045,1.1084,1.1084,1.1084,1.1123,1.1123,1.1123,1.1123,1.1162,1.1162,1.1162,1.1162,1.1191,1.1191,1.1191,1.123,1.123,1.123,1.127,1.127,1.127,1.127,1.1309,1.1309,1.1348,1.1348,1.1348,1.1348,1.1387,1.1387,1.1387,1.1387,1.1387,1.1426,1.1426,1.1426,1.1426,1.1465,1.1465,1.1504,1.1504,1.1504,1.1504,1.1504,1.1543,1.1543,1.1543,1.1582,1.1582,1.1582,1.1621,1.1621,1.1621,1.166,1.1621,1.166,1.166,1.166,1.166,1.166,1.1621,1.1621,1.1621,1.1582,1.1582,1.1582,1.1582,1.1582,1.1582,1.1543,1.1582,1.1543,1.1543,1.1543,1.1543,1.1543,1.1543,1.1543,1.1543,1.1582,1.1582,1.1582,1.1582,1.1582,1.1582,1.1582,1.1543,1.1543,1.1543,1.1543,1.1543,1.1543,1.1543,1.1543,1.1543,1.1543,1.1543,1.1543,1.1543,1.1543,1.1543,1.1543,1.1543,1.1504,1.1504,1.1504,1.1504,1.1543,1.1543,1.1543,1.1543,1.1582,1.1582,1.1582,1.1582,1.1582,1.1582,1.1582,1.1582,1.1582,1.1582,1.1582,1.1582,0,0,0,0,0,0,1.1582,0,1.1582,1.1504,1.1504,1.1504,1.1504,1.1543,1.1543,1.1543,1.1543,1.1543,1.1543,1.1504,1.1504,1.1543,1.1543,1.1543,1.1543,1.1543,1.1543,1.1543,1.1543,1.1582,1.1582,1.1582,1.1592,1.1592,1.1592,1.1631,1.1631,1.1631,1.1631,1.1631,1.1631,1.1631,1.1631,1.1631,1.167,1.167,1.167,1.167,1.167,1.1631,1.1631,1.1631,1.1631,1.1631,1.1631,1.1631,1.1631,1.1631,1.1631,1.1631,1.1631,1.1631,1.1631,1.1592,1.1592,1.1592,1.1592,1.1553,1.1553,1.1553,1.1553,1.1553,1.1514,1.1514,1.1514,1.1514,1.1514,1.1514,1.1514,1.1514,1.1514,1.1514,1.1475,1.1475,1.1475,1.1436,1.0615,1.0576,1.0576,1.0547,1.0547,1.0547,1.0547,1.0518,1.0479,1.0479,1.0518,1.0518,1.0518,1.0518,1.0547,1.0547,1.0576,1.0615,1.0615,1.0645,1.0645,1.0645,1.0645,1.0645,1.0645,1.0645,1.0645,1.0645,1.0615,1.0615,1.0615,1.0576,1.0547,1.0547,1.0518,1.0518,1.0479,1.0479,1.0479,1.0449,1.0449,1.042,1.042,1.042,1.042,1.042,1.042,1.042,1.042,1.042,1.042,0,1.1211,1.125,1.125,1.125,1.1211,1.1211,1.1211,1.1211,1.1211,1.1211,1.1172,1.1172,1.1172,1.1172,1.1172,1.1172,1.1133,1.1143,1.1104,1.1104,1.1104,1.1104,1.1104,1.1104,1.1104,1.1143,1.1143,1.1143,1.1143,1.1143,1.1143,1.0391,1.0391,1.0391,1.0391,1.0322,1.0293,1.0234,1.0205,1.0205,1.0176,1.0176,1.0176,1.0205,1.0205,1.0205,1.0234,1.0234,1.0234,1.0234,1.0234,1.0293,1.0293,1.0293,1.0322,1.0322,1.0293,1.0293,1.0293,1.0293,1.0293,1.0234,1.0205,1.0205,1.0176,1.0176,1.0176,1.0146,1.0107,1.0107,1.0078,1.002,1.0049,1.002,1.002,1.002,1.002,1.0049,1.0049,1.0078,1.0049,0,1.0791,1.0859,1.0859,1.0859,1.0791,1.0791,1.0791,1.0791,1.0791,1.0752,1.0752,1.0752,1.0752,1.0752,1.0752,1.0752,1.0752,1.0752,1.0752,1.0752,1.0723,1.0723,1.0723,1.0723,1.0723,1.0723,1.0684,1.0684,1.0684,1.0684,1.0723,1.0684,1.0684,1.0684,1.0684,1.0684,1.0684,1.0684,1.0684,1.0684,1.0723,1.0684,1.0723,1.0723,1.0684,1.0684,0,0,0,0,0,1.8193,1.8799,1.8799,1.8799,1.8799,1.8799,1.8799,1.8906,1.8799,1.8799,1.8799,1.8799,1.8799,1.9336,1.9336,1.9561,1.9668,1.9678,1.9785,1.9785,1.9785,1.9785,1.9785,1.9785,1.9678,1.9678,1.9678,1.9678,1.9561,1.9561,1.9785,1.9785,1.9785,1.9785,1.9785,1.9785,1.9785,1.9678,1.9453,1.9453,1.9453,1.9453,1.9453,1.9453,1.9453,1.9453,1.9453,1.9453,1.9453,1.9336,1.9336,1.9336,1.9336,1.9336,1.9336,1.9336,1.9336,1.9336,1.9346,1.9229,1.9346,1.9229,1.9229,1.9229,1.9229,1.9229,1.9229,1.9121,1.9121,1.9121,0,0,0,0,0,0,0,0,0,0,0,0,0,0,0,0,0,0,0,0,0,0,0,0,0,0,0,0,0
1.1045,1.1045,1.1045,1.1045,1.1084,1.1084,1.1084,1.1084,1.1123,1.1123,1.1123,1.1162,1.1162,1.1162,1.1191,1.1191,1.1191,1.1191,1.123,1.123,1.123,1.127,1.127,1.127,1.1309,1.1309,1.1309,1.1348,1.1348,1.1348,1.1348,1.1387,1.1387,1.1387,1.1387,1.1387,1.1426,1.1426,1.1465,1.1465,1.1504,1.1504,1.1504,1.1504,1.1504,1.1504,1.1504,1.1543,1.1543,1.1543,1.1582,1.1582,1.1582,1.1582,1.1582,1.1621,1.1621,1.1621,1.166,1.1621,1.1621,1.1621,1.1621,1.1582,1.1582,1.1582,1.1543,1.1543,1.1543,1.1543,1.1543,1.1543,1.1543,1.1543,1.1543,1.1543,1.1543,1.1543,1.1543,1.1582,1.1582,1.1543,1.1582,1.1582,1.1582,1.1543,1.1543,1.1543,1.1543,1.1543,1.1543,1.1543,1.1543,1.1543,1.1543,1.1543,1.1543,1.1543,1.1543,1.1543,1.1543,1.1543,1.1543,1.1543,1.1504,1.1504,1.1465,1.1504,1.1465,1.1465,1.1504,1.1504,1.1543,1.1543,1.1582,1.1582,1.1582,1.1582,1.1582,1.1582,1.1582,1.1582,1.1582,1.1582,1.1582,1.1582,0,0,0,0,0,0,0,0,1.1504,1.1465,1.1465,1.1465,1.1465,1.1504,1.1504,1.1504,1.1465,1.1465,1.1504,1.1465,1.1465,1.1465,1.1465,1.1504,1.1504,1.1504,1.1543,1.1543,1.1543,1.1543,1.1543,1.1553,1.1592,1.1592,1.1592,1.1631,1.1631,1.1631,1.1631,1.1631,1.1631,1.1631,1.1631,1.1631,1.167,1.1631,1.1631,1.1631,1.1631,1.1631,1.1631,1.1631,1.1631,1.1631,1.1631,1.1631,1.1631,1.1631,1.1631,1.1631,1.1631,1.1592,1.1592,1.1592,1.1553,1.1592,1.1553,1.1553,1.1553,1.1514,1.1514,1.1514,1.1514,1.1514,1.1514,1.1514,1.1514,1.1475,1.1475,1.1514,1.1475,1.1475,1.1475,1.1475,1.1436,1.1436,1.0615,1.0615,1.0576,1.0576,1.0576,1.0576,1.0547,1.0518,1.0479,1.0518,1.0518,1.0518,1.0518,1.0518,1.0547,1.0576,1.0576,1.0615,1.0645,1.0645,1.0645,1.0645,1.0645,1.0645,1.0645,1.0645,1.0645,1.0645,1.0645,1.0645,1.0645,1.0615,1.0547,1.0547,1.0547,1.0518,1.0547,1.0518,1.0518,1.0479,1.0449,1.0449,1.0449,1.0449,1.0449,1.042,1.042,1.042,1.042,1.0449,1.042,0,1.1211,1.125,1.1211,1.1211,1.1211,1.1172,1.1172,1.1172,1.1172,1.1172,1.1172,1.1143,1.1143,1.1172,1.1143,1.1143,1.1104,1.1104,1.1104,1.1104,1.1104,1.1104,1.1064,1.1064,1.1064,1.1104,1.1104,1.1104,1.1104,1.1104,1.1104,1.1143,1.0361,0,1.0391,1.0322,1.0293,1.0234,1.0234,1.0205,1.0205,1.0205,1.0234,1.0205,1.0205,1.0205,1.0205,1.0234,1.0234,1.0234,1.0293,1.0293,1.0322,1.0322,1.0322,1.0332,1.0332,1.0332,1.0332,1.0332,1.0332,1.0293,1.0234,1.0205,1.0205,1.0205,1.0205,1.0176,1.0146,1.0107,1.0078,1.0049,1.0049,1.0049,1.002,1.002,1.0049,1.0049,1.0049,1.0049,1.0049,0,1.0723,1.0859,1.082,1.082,1.0791,1.0752,1.0752,1.0752,1.0752,1.0752,1.0752,1.0752,1.0752,1.0752,1.0752,1.0752,1.0723,1.0723,1.0723,1.0723,1.0723,1.0723,1.0723,1.0723,1.0684,1.0684,1.0684,1.0684,1.0684,1.0654,1.0684,1.0684,1.0684,1.0684,1.0684,1.0684,1.0684,1.0684,1.0684,1.0684,1.0723,1.0723,1.0723,1.0723,1.0693,0,0,0,0,0,0,0,1.8799,1.8799,1.8799,1.8799,1.8799,1.8906,1.8906,1.8701,1.8799,1.8799,1.8906,1.8906,1.9336,1.9453,1.9561,1.9561,1.9678,1.9785,1.9785,1.9785,1.9785,1.9785,1.9678,1.9678,1.9678,1.9678,1.9678,1.9561,1.9561,1.9785,1.9795,1.9795,1.9678,1.9678,1.9678,1.9678,1.9561,1.9453,1.9453,1.9453,1.9453,1.9336,1.9336,1.9453,1.9453,1.9453,1.9453,1.9336,1.9336,1.9346,1.9346,1.9346,1.9346,1.9346,1.9346,1.9346,1.9346,1.9229,1.9229,1.9229,1.9229,1.9229,1.9229,1.9229,1.9229,1.9121,1.9121,1.9121,1.9121,0,0,0,0,0,0,0,0,0,0,0,0,0,0,0,0,0,0,0,0,0,0,0,0,0,0,0,0,0
1.1055,1.1055,1.1055,1.1084,1.1084,1.1084,1.1084,1.1123,1.1123,1.1162,1.1162,1.1162,1.1162,1.1162,1.1201,1.1201,1.1201,1.123,1.123,1.123,1.127,1.127,1.127,1.127,1.1309,1.1309,1.1309,1.1348,1.1348,1.1348,1.1348,1.1387,1.1387,1.1387,1.1387,1.1387,1.1426,1.1426,1.1426,1.1426,1.1465,1.1504,1.1504,1.1504,1.1504,1.1504,1.1504,1.1543,1.1543,1.1543,1.1582,1.1582,1.1582,1.1582,1.1582,1.1582,1.1582,1.1582,1.1621,1.1582,1.1582,1.1582,1.1582,1.1582,1.1582,1.1543,1.1543,1.1543,1.1543,1.1543,1.1543,1.1543,1.1543,1.1543,1.1543,1.1543,1.1504,1.1504,1.1543,1.1582,1.1543,1.1504,1.1543,1.1543,1.1543,1.1543,1.1543,1.1543,1.1543,1.1504,1.1504,1.1504,1.1504,1.1504,1.1504,1.1543,1.1504,1.1504,1.1543,1.1543,1.1543,1.1504,1.1504,1.1504,1.1465,1.1465,1.1465,1.1465,1.1465,1.1465,1.1504,1.1465,1.1504,1.1504,1.1543,1.1543,1.1582,1.1582,1.1582,1.1582,1.1543,1.1543,1.1543,1.1543,0,1.1465,0,0,0,0,1.1465,1.1465,1.1465,1.1426,1.1465,1.1465,1.1465,1.1465,1.1465,1.1465,1.1465,1.1465,1.1465,1.1475,1.1504,1.1475,1.1475,1.1475,1.1475,1.1475,1.1514,1.1514,1.1553,1.1553,1.1592,1.1592,1.1592,1.1592,1.1592,1.1592,1.1631,1.1592,1.1631,1.1592,1.1631,1.1631,1.1631,1.1631,1.1631,1.1592,1.1631,1.1631,1.1631,1.1631,1.1631,1.1631,1.1631,1.1592,1.1592,1.1592,1.1631,1.1592,1.1592,1.1592,1.1631,1.1592,1.1592,1.1553,1.1553,1.1553,1.1514,1.1553,1.1514,1.1514,1.1514,1.1514,1.1514,1.1514,1.1514,1.1475,1.1475,1.1475,1.1475,1.1475,1.1475,1.1475,1.1475,1.1475,1.1475,1.1436,1.1436,1.1396,1.1357,1.0576,1.0576,1.0547,1.0547,1.0547,1.0547,1.0518,1.0518,1.0518,1.0518,1.0518,1.0518,1.0547,1.0547,1.0576,1.0615,1.0645,1.0645,1.0645,1.0645,1.0645,1.0645,1.0645,1.0684,1.0645,1.0645,1.0645,1.0645,1.0645,1.0645,1.0615,1.0586,1.0547,1.0547,1.0547,1.0547,1.0518,1.0518,1.0488,1.0488,1.0488,1.0488,1.0449,1.0449,1.0449,1.0449,1.0449,1.0449,0,1.1211,1.1211,1.1172,1.1211,1.1211,1.1172,1.1172,1.1143,1.1143,1.1143,1.1143,1.1143,1.1143,1.1104,1.1104,1.1143,1.1104,1.1104,1.1104,1.1064,1.1064,1.1064,1.1064,1.1064,1.1064,1.1064,1.1064,1.1104,1.1104,1.1104,1.1064,1.1064,1.1064,1.1064,1.042,1.042,1.0391,1.0322,1.0293,1.0264,1.0234,1.0234,1.0234,1.0205,1.0234,1.0234,1.0205,1.0205,1.0234,1.0234,1.0234,1.0264,1.0293,1.0332,1.0332,1.0332,1.0332,1.0332,1.0332,1.0332,1.0332,1.0332,1.0332,1.0293,1.0264,1.0264,1.0234,1.0234,1.0205,1.0176,1.0176,1.0176,1.0117,1.0078,1.0049,1.0049,1.0049,1.0049,1.0049,1.0049,1.0049,1.0088,1.0049,1.0049,0,1.0791,1.0752,1.0752,1.0752,1.0752,1.0752,1.0752,1.0752,1.0752,1.0723,1.0723,1.0723,1.0723,1.0723,1.0723,1.0723,1.0723,1.0723,1.0723,1.0723,1.0684,1.0684,1.0684,1.0684,1.0654,1.0654,1.0654,1.0654,1.0654,1.0684,1.0684,1.0684,1.0654,1.0684,1.0684,1.0693,1.0693,1.0693,1.0693,1.0723,1.0723,1.0723,1.0693,1.0693,0,0,0,0,1.4717,0,0,1.8799,1.8799,1.8799,1.8701,1.8799,1.8799,1.8799,1.8799,1.8799,1.8799,1.8906,1.9336,1.9453,1.9561,1.9561,1.9678,1.9678,1.9795,1.9795,1.9795,1.9678,1.9678,1.9678,1.9561,1.9678,1.9561,1.9561,1.9561,1.9561,1.9678,1.9678,1.9678,1.9678,1.9678,1.9678,1.9561,1.9453,1.9453,1.9453,1.9336,1.9453,1.9336,1.9336,1.9453,1.9453,1.9453,1.9346,1.9346,1.9346,1.9346,1.9346,1.9346,1.9229,1.9229,1.9346,1.9229,1.9229,1.9121,1.9121,1.9229,1.9121,1.9121,1.9121,1.9121,1.9121,1.9121,1.9014,1.9014,1.9014,0,0,0,0,0,0,0,0,0,0,0,0,0,0,0,0,0,0,0,0,0,0,0,0,0,0,0,0,0
1.1055,1.1055,1.1055,1.1084,1.1084,1.1084,1.1084,1.1123,1.1123,1.1123,1.1162,1.1162,1.1162,1.1162,1.1201,1.1201,1.1201,1.123,1.123,1.127,1.127,1.127,1.127,1.127,1.1309,1.1309,1.1309,1.1309,1.1348,1.1348,1.1348,1.1387,1.1387,1.1387,1.1387,1.1426,1.1426,1.1465,1.1465,1.1465,1.1465,1.1504,1.1504,1.1504,1.1504,1.1504,1.1504,1.1504,1.1504,1.1504,1.1543,1.1543,1.1582,1.1582,1.1582,1.1582,1.1582,1.1582,1.1582,1.1543,1.1543,1.1543,1.1543,1.1543,1.1543,1.1543,1.1504,1.1543,1.1543,1.1543,1.1543,1.1543,1.1543,1.1543,1.1543,1.1543,1.1504,1.1504,1.1543,1.1543,1.1543,1.1504,1.1504,1.1504,1.1504,1.1504,1.1504,1.1504,1.1504,1.1504,1.1465,1.1465,1.1465,1.1465,1.1465,1.1504,1.1465,1.1465,1.1465,1.1465,1.1465,1.1465,1.1465,1.1465,1.1426,1.1426,1.1426,1.1426,1.1426,1.1426,1.1465,1.1465,1.1465,1.1465,1.1504,1.1504,1.1543,1.1543,1.1582,1.1543,1.1504,1.1504,1.1504,1.1504,1.1465,1.1465,1.1465,0,1.1426,1.1426,1.1465,1.1436,1.1436,1.1436,1.1465,1.1475,1.1475,1.1475,1.1475,1.1475,1.1475,1.1475,1.1475,1.1475,1.1514,1.1475,1.1475,1.1436,1.1475,1.1514,1.1553,1.1553,1.1553,1.1592,1.1592,1.1592,1.1592,1.1592,1.1592,1.1592,1.1592,1.1553,1.1553,1.1553,1.1592,1.1592,1.1592,1.1592,1.1592,1.1592,1.1631,1.1631,1.1592,1.1592,1.1592,1.1592,1.1592,1.1553,1.1553,1.1553,1.1553,1.1592,1.1592,1.1592,1.1592,1.1553,1.1553,1.1553,1.1514,1.1514,1.1514,1.1514,1.1514,1.1514,1.1514,1.1475,1.1475,1.1475,1.1475,1.1475,1.1475,1.1475,1.1436,1.1436,1.1436,1.1436,1.1436,1.1436,1.1396,1.1396,1.1396,1.1357,1.1357,1.1357,1.0576,1.0518,1.0547,1.0547,1.0547,1.0518,1.0518,1.0518,1.0518,1.0547,1.0547,1.0547,1.0576,1.0576,1.0615,1.0645,1.0645,1.0645,1.0645,1.0645,1.0645,1.0645,1.0684,1.0645,1.0645,1.0645,1.0645,1.0645,1.0645,1.0615,1.0586,1.0586,1.0547,1.0547,1.0547,1.0518,1.0518,1.0488,1.0488,1.0488,1.0488,1.0488,1.0488,1.0449,1.0449,1.0488,1.0449,1.0488,1.042,0,1.1143,1.1172,1.1172,1.1172,1.1143,1.1143,1.1143,1.1143,1.1143,1.1104,1.1104,1.1104,1.1104,1.1104,1.1064,1.1064,1.1064,1.1064,1.1064,1.1064,1.1064,1.1064,1.1064,1.1035,1.1035,1.1064,1.1064,1.1064,1.1035,1.1035,1.1064,1.1064,1.0391,1.0391,1.0361,1.0322,1.0322,1.0293,1.0234,1.0234,1.0205,1.0205,1.0234,1.0205,1.0205,1.0205,1.0234,1.0234,1.0264,1.0264,1.0293,1.0332,1.0332,1.0332,1.0332,1.0332,1.0332,1.0332,1.0332,1.0332,1.0332,1.0293,1.0293,1.0264,1.0234,1.0234,1.0205,1.0176,1.0176,1.0146,1.0146,1.0117,1.0088,1.0088,1.0088,1.0088,1.0049,1.0088,1.0049,1.0059,1.0059,1.0059,0,1.0723,1.0723,1.0752,1.0752,1.0752,1.0723,1.0723,1.0752,1.0723,1.0723,1.0723,1.0723,1.0723,1.0723,1.0723,1.0684,1.0723,1.0684,1.0684,1.0684,1.0654,1.0654,1.0654,1.0654,1.0654,1.0654,1.0654,1.0654,1.0625,1.0654,1.0625,1.0654,1.0654,1.0654,1.0654,1.0723,1.0693,1.0693,1.0693,1.0693,0,1.0723,1.0723,1.0693,0,0,0,0,0,0,1.8496,1.8594,1.8701,1.8701,1.8701,1.8799,1.8799,1.8799,1.8799,1.8906,1.8906,1.9014,1.9229,1.9453,1.9453,1.9561,1.9561,1.9678,1.9795,1.9678,1.9678,1.9678,1.9678,1.9561,1.9561,1.9453,1.9453,1.9453,1.9453,1.9453,1.9678,1.9678,1.9678,1.9678,1.9561,1.9561,1.9453,1.9453,1.9453,1.9453,1.9346,1.9346,1.9346,1.9346,1.9346,1.9346,1.9346,1.9346,1.9229,1.9229,1.9346,1.9229,1.9229,1.9229,1.9121,1.9229,1.9229,1.9238,1.9121,1.9121,1.9121,1.9121,1.9121,1.9121,1.9023,1.9023,1.9023,1.9023,1.9023,1.9023,0,0,0,0,0,0,0,0,0,0,0,0,0,0,0,0,0,0,0,0,0,0,0,0,0,0,0,0,0
1.1055,1.1055,1.1055,1.1084,1.1084,1.1084,1.1084,1.1123,1.1123,1.1123,1.1162,1.1162,1.1201,1.1201,1.1201,1.1201,1.123,1.123,1.123,1.127,1.127,1.127,1.127,1.127,1.1309,1.1309,1.1309,1.1348,1.1348,1.1348,1.1348,1.1387,1.1387,1.1387,1.1387,1.1387,1.1426,1.1465,1.1426,1.1426,1.1465,1.1504,1.1504,1.1504,1.1504,1.1504,1.1504,1.1504,1.1504,1.1504,1.1543,1.1543,1.1543,1.1582,1.1543,1.1543,1.1504,1.1543,1.1543,1.1543,1.1543,1.1543,1.1543,1.1504,1.1504,1.1504,1.1465,1.1504,1.1504,1.1543,1.1504,1.1543,1.1543,1.1543,1.1504,1.1504,1.1504,1.1465,1.1543,1.1543,1.1504,1.1504,1.1504,1.1504,1.1465,1.1465,1.1504,1.1465,1.1465,1.1465,1.1465,1.1465,1.1465,1.1465,1.1465,1.1465,1.1465,1.1426,1.1426,1.1426,1.1426,1.1426,1.1426,1.1426,1.1426,1.1426,1.1426,1.1426,1.1426,1.1426,1.1465,1.1426,1.1465,1.1465,1.1465,1.1504,1.1465,1.1504,1.1504,1.1504,1.1504,1.1504,1.1504,1.1504,1.1465,1.1465,1.1436,1.1436,1.1436,1.1436,1.1436,1.1396,1.1436,1.1436,1.1436,1.1475,1.1475,1.1475,1.1436,1.1475,1.1475,1.1475,1.1475,1.1475,1.1475,1.1475,1.1475,1.1475,1.1475,1.1514,1.1514,1.1553,1.1553,1.1553,1.1553,1.1553,1.1553,1.1514,1.1514,1.1514,1.1514,1.1514,1.1514,1.1514,1.1553,1.1553,1.1553,1.1553,1.1553,1.1553,1.1553,1.1592,1.1592,1.1592,1.1592,1.1592,1.1553,1.1553,1.1553,1.1553,1.1553,1.1553,1.1553,1.1553,1.1553,1.1553,1.1514,1.1514,1.1514,1.1475,1.1475,1.1475,1.1475,1.1475,1.1475,1.1475,1.1475,1.1475,1.1475,1.1436,1.1436,1.1436,1.1436,1.1396,1.1396,1.1436,1.1436,1.1396,1.1396,1.1396,1.1357,1.1357,1.1357,1.1357,1.0576,1.0518,1.0518,1.0547,1.0547,1.0547,1.0518,1.0518,1.0518,1.0547,1.0547,1.0547,1.0576,1.0576,1.0615,1.0645,1.0645,1.0645,1.0645,1.0645,1.0645,1.0645,1.0645,1.0645,1.0645,1.0645,1.0645,1.0645,1.0645,1.0615,1.0586,1.0586,1.0547,1.0547,1.0547,1.0518,1.0518,1.0488,1.0488,1.0488,1.0488,1.0488,1.0488,1.0488,1.0488,1.0488,1.0488,1.0488,1.0449,0,1.1143,1.1143,1.1143,1.1143,1.1143,1.1104,1.1104,1.1104,1.1104,1.1104,1.1104,1.1064,1.1064,1.1064,1.1064,1.1035,1.1035,1.1035,1.1035,1.1035,1.1035,1.1035,1.1035,1.0996,1.0996,1.1035,1.1035,1.1035,1.0996,1.0996,1.0996,1.1064,1.0391,1.0361,1.0361,1.0332,1.0332,1.0293,1.0293,1.0234,1.0234,1.0234,1.0234,1.0234,1.0205,1.0234,1.0234,1.0234,1.0264,1.0264,1.0293,1.0332,1.0332,1.0332,1.0332,1.0332,1.0332,1.0332,1.0332,1.0332,1.0332,1.0293,1.0264,1.0264,1.0234,1.0205,1.0205,1.0176,1.0176,1.0146,1.0146,1.0117,1.0117,1.0088,1.0088,1.0088,1.0088,1.0088,1.0088,1.0059,1.0029,1.0088,0,1.0684,1.0723,1.0752,1.0752,1.0723,1.0723,1.0723,1.0723,1.0723,1.0723,1.0684,1.0684,1.0684,1.0684,1.0684,1.0684,1.0684,1.0654,1.0654,1.0654,1.0654,1.0625,1.0654,1.0625,1.0625,1.0625,1.0625,1.0625,1.0625,1.0625,1.0625,1.0625,1.0654,1.0654,1.0654,1.0693,1.0654,1.0654,1.0693,0,1.126,1.126,1.1221,1.0693,0,0,0,0,1.4727,1.4727,0,0,1.8594,1.8701,1.8594,1.8799,1.8701,1.8799,1.8799,1.8906,1.9014,1.9121,1.9336,1.9336,1.9453,1.9561,1.9561,1.9561,1.9678,1.9678,1.9561,1.9561,1.9561,1.9561,1.9453,1.9453,1.9561,1.9561,1.9453,1.9453,1.9561,1.9561,1.9561,1.9453,1.9453,1.9453,1.9453,1.9453,1.9346,1.9346,1.9346,1.9346,1.9346,1.9346,1.9346,1.9346,1.9346,1.9229,1.9229,1.9238,1.9238,1.9238,1.9238,1.9238,1.9121,1.9238,1.9238,1.9238,1.9023,1.9023,1.9023,1.9131,1.9023,1.9023,1.9023,1.9023,1.9023,1.9023,1.9023,1.9023,0,0,0,0,0,0,0,0,0,0,0,0,0,0,0,0,0,0,0,0,0,0,0,0,0,0,0,0,0
1.1055,1.1055,1.1055,1.1084,1.1084,1.1084,1.1084,1.1123,1.1123,1.1123,1.1162,1.1162,1.1162,1.1201,1.1201,1.1201,1.124,1.124,1.124,1.127,1.127,1.127,1.127,1.1309,1.1309,1.1309,1.1309,1.1348,1.1348,1.1348,1.1348,1.1387,1.1387,1.1387,1.1387,1.1387,1.1426,1.1426,1.1387,1.1465,1.1465,1.1504,1.1504,1.1504,1.1504,1.1504,1.1504,1.1504,1.1504,1.1504,1.1543,1.1543,1.1543,1.1543,1.1504,1.1543,1.1504,1.1543,1.1504,1.1504,1.1504,1.1504,1.1543,1.1504,1.1504,1.1504,1.1465,1.1504,1.1504,1.1504,1.1504,1.1504,1.1504,1.1504,1.1504,1.1504,1.1465,1.1465,1.1543,1.1543,1.1504,1.1465,1.1465,1.1465,1.1465,1.1426,1.1426,1.1426,1.1426,1.1426,1.1426,1.1426,1.1426,1.1426,1.1426,1.1426,1.1426,1.1426,1.1426,1.1426,1.1387,1.1387,1.1387,1.1387,1.1396,1.1396,1.1396,1.1426,1.1426,1.1426,1.1465,1.1426,1.1426,1.1465,1.1426,1.1465,1.1465,1.1465,1.1465,1.1465,1.1465,1.1475,1.1475,1.1475,1.1475,1.1475,1.1436,1.1436,1.1357,1.1396,1.1396,1.1396,1.1436,1.1436,1.1436,1.1436,1.1436,1.1436,1.1436,1.1475,1.1436,1.1475,1.1475,1.1475,1.1475,1.1475,1.1436,1.1475,1.1475,1.1514,1.1514,1.1553,1.1553,1.1553,1.1553,1.1553,1.1514,1.1514,1.1514,1.1514,1.1514,1.1514,1.1514,1.1514,1.1514,1.1514,1.1514,1.1514,1.1514,1.1514,1.1553,1.1514,1.1514,1.1514,1.1514,1.1514,1.1475,1.1475,1.1475,1.1514,1.1514,1.1514,1.1514,1.1514,1.1514,1.1514,1.1475,1.1475,1.1475,1.1475,1.1436,1.1436,1.1436,1.1436,1.1436,1.1436,1.1436,1.1436,1.1436,1.1396,1.1396,1.1396,1.1396,1.1396,1.1357,1.1396,1.1396,1.1357,1.1357,1.1357,1.1357,1.1357,1.1357,1.1357,1.0547,1.0518,1.0518,1.0547,1.0547,1.0547,1.0518,1.0518,1.0518,1.0547,1.0547,1.0547,1.0586,1.0586,1.0615,1.0645,1.0645,1.0645,1.0645,1.0645,1.0645,1.0645,1.0645,1.0645,1.0645,1.0645,1.0645,1.0645,1.0615,1.0615,1.0586,1.0586,1.0547,1.0547,1.0547,1.0518,1.0518,1.0488,1.0488,1.0488,1.0488,1.0488,1.0488,1.0488,1.0488,1.0449,1.0449,0,1.1104,1.1104,1.1104,1.1064,1.1104,1.1104,1.1104,1.1104,1.1104,1.1104,1.1064,1.1064,1.1064,1.1064,1.1035,1.1064,1.1035,1.0996,1.0996,1.0996,1.0996,1.0996,1.0996,1.0996,1.0996,1.0957,1.0957,1.0996,1.0996,1.0996,1.0957,1.0957,1.0996,1.0996,1.0391,1.0391,1.0391,1.0361,1.0332,1.0293,1.0293,1.0264,1.0264,1.0234,1.0264,1.0205,1.0205,1.0234,1.0234,1.0234,1.0264,1.0264,1.0293,1.0293,1.0332,1.0332,1.0332,1.0332,1.0332,1.0332,1.0332,1.0332,1.0332,1.0303,1.0264,1.0264,1.0234,1.0205,1.0205,1.0176,1.0176,1.0176,1.0146,1.0117,1.0117,1.0088,1.0088,1.0088,1.0088,1.0088,1.0088,1.0059,1.0029,0,1.0723,1.0684,1.0723,1.0752,1.0723,1.0723,1.0723,1.0684,1.0723,1.0684,1.0684,1.0684,1.0654,1.0684,1.0654,1.0693,1.0654,1.0654,1.0654,1.0625,1.0625,1.0625,1.0625,1.0625,1.0625,1.0625,1.0625,1.0625,1.0625,1.0586,1.0586,1.0586,1.0586,1.0625,1.0625,1.0625,1.0625,1.0654,0,1.126,1.126,1.126,1.126,1.1221,0,0,0,0,0,1.4727,1.4727,0,0,1.8799,1.8799,1.8799,1.8809,1.8701,1.8809,1.8906,1.8906,1.9014,1.9121,1.9336,1.9336,1.9561,1.9561,1.9561,1.9561,1.9678,1.9678,1.9561,1.9561,1.9561,1.9561,1.9453,1.9453,1.9453,1.9453,1.9453,1.9453,1.9453,1.9453,1.9453,1.9453,1.9453,1.9453,1.9453,1.9346,1.9346,1.9238,1.9238,1.9346,1.9346,1.9238,1.9121,1.9131,1.9131,1.9238,1.9121,1.9121,1.9238,1.9238,1.9238,1.9238,1.9131,1.9238,1.9238,1.9131,1.9023,1.9023,1.9023,1.9023,1.9023,1.9023,1.9023,1.9023,1.9023,1.8916,1.8916,0,0,0,0,0,0,0,0,0,0,0,0,0,0,0,0,0,0,0,0,0,0,0,0,0,0,0,0,0,0
1.1055,1.1055,1.1055,1.1055,1.1084,1.1084,1.1084,1.1123,1.1123,1.1123,1.1162,1.1162,1.1201,1.1201,1.1201,1.1201,1.124,1.124,1.124,1.124,1.127,1.127,1.124,1.1309,1.1309,1.1309,1.1309,1.1348,1.1348,1.1348,1.1348,1.1387,1.1387,1.1387,1.1387,1.1387,1.1387,1.1426,1.1465,1.1465,1.1504,1.1504,1.1504,1.1504,1.1504,1.1465,1.1504,1.1504,1.1465,1.1504,1.1504,1.1504,1.1504,1.1504,1.1465,1.1465,1.1465,1.1465,1.1465,1.1465,1.1465,1.1465,1.1504,1.1465,1.1465,1.1465,1.1465,1.1465,1.1504,1.1504,1.1504,1.1504,1.1504,1.1504,1.1504,1.1504,1.1465,1.1426,1.1465,1.1465,1.1465,1.1465,1.1426,1.1426,1.1426,1.1426,1.1426,1.1426,1.1426,1.1426,1.1426,1.1426,1.1426,1.1426,1.1426,1.1426,1.1426,1.1426,1.1396,1.1396,1.1396,1.1396,1.1396,1.1396,1.1396,1.1396,1.1396,1.1396,1.1396,1.1396,1.1436,1.1436,1.1436,1.1436,1.1436,1.1436,1.1436,1.1475,1.1475,1.1475,1.1475,1.1436,1.1436,1.1436,1.1436,1.1436,1.1436,1.1357,1.1357,1.1396,1.1396,1.1396,1.1436,1.1436,1.1436,1.1436,1.1436,1.1396,1.1436,1.1436,1.1436,1.1475,1.1475,1.1475,1.1475,1.1475,1.1436,1.1436,1.1475,1.1475,1.1514,1.1514,1.1514,1.1514,1.1514,1.1514,1.1514,1.1514,1.1514,1.1475,1.1475,1.1475,1.1475,1.1475,1.1475,1.1475,1.1475,1.1475,1.1514,1.1475,1.1514,1.1514,1.1514,1.1475,1.1475,1.1475,1.1436,1.1436,1.1436,1.1436,1.1436,1.1436,1.1436,1.1436,1.1396,1.1396,1.1396,1.1396,1.1436,1.1436,1.1396,1.1396,1.1396,1.1396,1.1396,1.1396,1.1396,1.1396,1.1396,1.1357,1.1357,1.1357,1.1357,1.1357,1.1357,1.1357,1.1357,1.1357,1.1357,1.1357,1.1318,1.1318,1.1318,1.1318,1.1357,1.0547,1.0518,1.0518,1.0547,1.0547,1.0547,1.0547,1.0547,1.0547,1.0586,1.0586,1.0615,1.0615,1.0615,1.0645,1.0645,1.0645,1.0645,1.0645,1.0645,1.0645,1.0645,1.0645,1.0645,1.0645,1.0645,1.0615,1.0615,1.0615,1.0586,1.0586,1.0547,1.0547,1.0547,1.0547,1.0547,1.0518,1.0518,1.0518,1.0518,1.0518,1.0518,1.0488,1.0449,1.0449,0,1.1104,1.1104,1.1064,1.1064,1.1064,1.1064,1.1064,1.1035,1.1035,1.1035,1.1064,1.1064,1.1035,1.1035,1.1035,1.0996,1.0996,1.0957,1.0957,1.0957,1.0957,1.0957,1.0957,1.0957,1.0957,1.0957,1.0957,1.0928,1.0957,1.0957,1.0957,1.0928,1.0928,1.0928,1.0889,1.0361,1.0361,1.0361,1.0332,1.0293,1.0293,1.0293,1.0264,1.0264,1.0264,1.0264,1.0234,1.0234,1.0264,1.0264,1.0264,1.0293,1.0293,1.0293,1.0293,1.0293,1.0332,1.0332,1.0332,1.0332,1.0332,1.0332,1.0332,1.0332,1.0303,1.0264,1.0234,1.0205,1.0205,1.0205,1.0176,1.0176,1.0176,1.0146,1.0117,1.0117,1.0088,1.0088,1.0088,1.0088,1.0088,1.0088,1.0059,0.99951,0.99658,1.0723,1.0723,1.0723,1.0723,1.0723,1.0723,1.0684,1.0684,1.0693,1.0693,1.0693,1.0654,1.0654,1.0654,1.0654,1.0654,1.0625,1.0625,1.0625,1.0625,1.0625,1.0625,1.0625,1.0625,1.0625,1.0625,1.0625,1.0625,1.0625,1.0586,1.0586,1.0557,1.0557,1.0625,1.0586,1.0586,0,1.1221,1.1221,1.1221,1.1221,0,0,0,0,0,0,1.5186,1.4922,1.4785,1.4854,1.4854,0,0,1.8809,1.8809,1.8809,1.8809,1.8701,1.8906,1.8906,1.9014,1.9229,1.9346,1.9453,1.9453,1.9453,1.9561,1.9561,1.9678,1.9678,1.9561,1.9561,1.957,1.9453,1.9453,1.9453,1.9453,1.9453,1.9453,1.9346,1.9346,1.9453,1.9453,1.9453,1.9453,1.9453,1.9346,1.9346,1.9238,1.9238,1.9131,1.9238,1.9238,1.9238,1.9131,1.9131,1.9131,1.9131,1.9023,1.9023,1.9023,1.9131,1.9131,1.9131,1.9023,1.9023,1.9131,1.9023,1.9023,1.8916,1.8916,1.9023,1.8916,1.8916,1.8916,1.8916,1.8916,1.8916,1.8916,0,0,0,0,0,0,0,0,0,0,0,0,0,0,0,0,0,0,0,0,0,0,0,0,0,0,0,0,0,0
1.1055,1.1055,1.1055,1.1055,1.1084,1.1084,1.1084,1.1123,1.1123,1.1123,1.1162,1.1162,1.1201,1.1201,1.1201,1.1201,1.124,1.124,1.124,1.124,1.124,1.124,1.124,1.1309,1.1348,1.1309,1.1348,1.1348,1.1348,1.1348,1.1387,1.1387,1.1387,1.1387,1.1387,1.1426,1.1426,1.1465,1.1465,1.1504,1.1504,1.1504,1.1504,1.1504,1.1465,1.1426,1.1426,1.1387,1.1387,1.1426,1.1426,1.1426,1.1426,1.1426,1.1387,1.1426,1.1426,1.1426,1.1426,1.1426,1.1426,1.1426,1.1465,1.1426,1.1465,1.1465,1.1426,1.1465,1.1465,1.1504,1.1504,1.1504,1.1504,1.1504,1.1465,1.1465,1.1426,1.1387,1.1426,1.1465,1.1465,1.1426,1.1465,1.1426,1.1426,1.1387,1.1426,1.1387,1.1387,1.1426,1.1426,1.1426,1.1426,1.1426,1.1426,1.1396,1.1396,1.1396,1.1396,1.1396,1.1396,1.1396,1.1396,1.1396,1.1396,1.1396,1.1396,1.1396,1.1396,1.1396,1.1396,1.1396,1.1396,1.1396,1.1436,1.1436,1.1436,1.1436,1.1436,1.1475,1.1436,1.1436,1.1436,1.1396,1.1396,1.1396,1.1396,1.1318,1.1318,1.1357,1.1396,1.1396,1.1396,1.1396,1.1396,1.1396,1.1396,1.1396,1.1396,1.1436,1.1436,1.1475,1.1475,1.1475,1.1475,1.1436,1.1436,1.1475,1.1475,1.1475,1.1475,1.1475,1.1475,1.1475,1.1475,1.1475,1.1514,1.1475,1.1475,1.1475,1.1475,1.1475,1.1475,1.1475,1.1475,1.1475,1.1475,1.1475,1.1475,1.1475,1.1475,1.1475,1.1475,1.1475,1.1436,1.1436,1.1396,1.1396,1.1396,1.1396,1.1396,1.1396,1.1396,1.1396,1.1396,1.1357,1.1357,1.1357,1.1357,1.1357,1.1357,1.1357,1.1357,1.1357,1.1396,1.1396,1.1396,1.1396,1.1357,1.1357,1.1357,1.1357,1.1357,1.1357,1.1318,1.1318,1.1318,1.1318,1.1318,1.1318,1.1289,1.1289,1.1289,1.1289,1.1318,1.0586,1.0518,1.0518,1.0547,1.0547,1.0547,1.0547,1.0586,1.0586,1.0615,1.0615,1.0615,1.0615,1.0615,1.0645,1.0645,1.0645,1.0645,1.0645,1.0645,1.0645,1.0645,1.0645,1.0645,1.0654,1.0654,1.0615,1.0615,1.0615,1.0586,1.0586,1.0547,1.0547,1.0547,1.0547,1.0547,1.0518,1.0488,1.0488,1.0488,1.0488,1.0488,1.0449,1.0449,0,1.1064,1.1064,1.1064,1.1035,1.1035,1.1035,1.1035,1.1035,1.0996,1.0996,1.0996,1.0996,1.0996,1.0996,1.0957,1.0957,1.0957,1.0957,1.0957,1.0957,1.0928,1.0928,1.0928,1.0928,1.0928,1.0928,1.0928,1.0928,1.0928,1.0957,1.0928,1.0928,1.0889,1.0889,1.0889,1.0859,1.0859,1.0859,1.0332,1.0332,1.0332,1.0293,1.0293,1.0293,1.0293,1.0264,1.0264,1.0293,1.0264,1.0264,1.0264,1.0264,1.0303,1.0303,1.0303,1.0303,1.0303,1.0303,1.0332,1.0332,1.0332,1.0332,1.0332,1.0332,1.0332,1.0303,1.0264,1.0234,1.0205,1.0205,1.0205,1.0176,1.0176,1.0176,1.0146,1.0146,1.0117,1.0117,1.0117,1.0117,1.0117,1.0088,1.0088,1.0059,0.99951,0.99658,0,1.0723,1.0693,1.0723,1.0723,1.0693,1.0693,1.0693,1.0693,1.0654,1.0654,1.0654,1.0625,1.0654,1.0625,1.0625,1.0625,1.0625,1.0625,1.0586,1.0586,1.0586,1.0586,1.0625,1.0586,1.0586,1.0625,1.0625,1.0625,1.0586,1.0586,1.0557,1.0586,1.0586,1.0557,1.0625,0,1.1143,1.1221,1.1182,0,0,0,0,1.5186,1.5186,1.5186,1.5186,1.5117,1.4854,1.498,1.4922,0,0,1.8809,1.8906,1.8906,1.8809,1.8906,1.8906,1.9014,1.9121,1.9229,1.9346,1.9453,1.9453,1.9453,1.957,1.957,1.9678,1.9678,1.9678,1.9678,1.957,1.957,1.9453,1.9453,1.9453,1.9453,1.9453,1.9346,1.9346,1.9453,1.9453,1.9453,1.9346,1.9346,1.9346,1.9238,1.9238,1.9131,1.9023,1.9131,1.9131,1.9131,1.9023,1.9023,1.9131,1.9131,1.9023,1.9023,1.9023,1.9131,1.9023,1.9023,1.9023,1.9023,1.9023,1.9023,1.8916,1.8916,1.8916,1.8916,1.8916,1.8916,1.8916,1.8916,1.8916,1.8916,1.8916,0,0,0,0,0,0,0,0,0,0,0,0,0,0,0,0,0,0,0,0,0,0,0,0,0,0,0,0,0,0
1.1055,1.1055,1.1055,1.1055,1.1094,1.1094,1.1094,1.1162,1.1162,1.1162,1.1162,1.1162,1.1201,1.1201,1.1201,1.124,1.124,1.124,1.127,1.127,1.124,1.124,1.124,1.1309,1.1348,1.1348,1.1309,1.1348,1.1348,1.1348,1.1387,1.1387,1.1387,1.1387,1.1387,1.1387,1.1426,1.1426,1.1426,1.1426,1.1465,1.1465,1.1426,1.1465,1.1426,1.1387,1.1387,1.1387,1.1387,1.1426,1.1426,1.1426,1.1387,1.1426,1.1387,1.1387,1.1426,1.1426,1.1426,1.1426,1.1426,1.1426,1.1426,1.1426,1.1387,1.1387,1.1357,1.1357,1.1357,1.1387,1.1426,1.1357,1.1387,1.1426,1.1426,1.1426,1.1387,1.1387,1.1426,1.1426,1.1426,1.1426,1.1426,1.1426,1.1426,1.1396,1.1396,1.1396,1.1396,1.1396,1.1396,1.1396,1.1396,1.1396,1.1396,1.1396,1.1396,1.1396,1.1396,1.1396,1.1396,1.1357,1.1357,1.1357,1.1357,1.1357,1.1357,1.1357,1.1396,1.1357,1.1436,1.1436,0,1.1396,1.1396,1.1396,1.1396,1.1436,1.1436,1.1436,1.1436,1.1436,1.1396,1.1396,1.1396,1.1396,1.1396,1.1318,1.1357,1.1357,1.1396,1.1357,1.1396,1.1357,1.1357,1.1357,1.1357,1.1357,1.1357,1.1396,1.1396,1.1436,1.1436,1.1475,1.1436,1.1436,1.1436,1.1436,1.1475,1.1475,1.1475,1.1514,1.1475,1.1514,1.1475,1.1475,1.1475,1.1475,1.1475,1.1475,1.1475,1.1436,1.1436,1.1436,1.1436,1.1436,1.1436,1.1436,1.1436,1.1436,1.1436,1.1436,1.1436,1.1436,1.1396,1.1396,1.1396,1.1396,1.1357,1.1357,1.1357,1.1357,1.1357,1.1357,1.1357,1.1357,1.1357,1.1357,1.1357,1.1357,1.1318,1.1357,1.1318,1.1318,1.1357,1.1318,1.1357,1.1318,1.1318,1.1318,1.1318,1.1318,1.1318,1.1318,1.1289,1.1289,1.1289,1.1289,1.1289,1.1289,1.1289,1.1289,1.1289,1.125,1.1289,1.1289,1.1289,1.0547,1.0547,1.0547,1.0586,1.0586,1.0615,1.0615,1.0615,1.0615,1.0615,1.0615,1.0615,1.0645,1.0645,1.0645,1.0654,1.0654,1.0654,1.0654,1.0654,1.0654,1.0654,1.0654,1.0615,1.0615,1.0615,1.0615,1.0586,1.0586,1.0547,1.0547,1.0547,1.0547,1.0518,1.0518,1.0518,1.0518,1.0488,1.0488,1.0488,1.0459,1.0459,0,1.1035,1.1035,1.1035,1.0996,1.0996,1.0996,1.0996,1.0996,1.0957,1.0957,1.0957,1.0957,1.0996,1.0957,1.0957,1.0957,1.0928,1.0928,1.0928,1.0928,1.0928,1.0889,1.0889,1.0928,1.0928,1.0928,1.0928,1.0928,1.0889,1.0928,1.0928,1.0889,1.0889,1.0889,1.0889,1.0859,1.0859,1.0859,1.0859,1.0332,1.0293,1.0332,1.0332,1.0293,1.0303,1.0303,1.0303,1.0303,1.0264,1.0264,1.0264,1.0264,1.0303,1.0303,1.0303,1.0303,1.0303,1.0303,1.0332,1.0303,1.0303,1.0332,1.0303,1.0303,1.0303,1.0264,1.0264,1.0234,1.0205,1.0205,1.0205,1.0205,1.0176,1.0176,1.0176,1.0146,1.0146,1.0117,1.0117,1.0117,1.0117,1.0088,1.0088,1.0059,0.99951,0,1.0625,1.0625,1.0693,1.0693,1.0693,1.0654,1.0654,1.0654,1.0654,1.0654,1.0625,1.0625,1.0625,1.0625,1.0625,1.0625,1.0625,1.0586,1.0586,1.0586,1.0586,1.0586,1.0586,1.0586,1.0586,1.0586,1.0586,1.0586,1.0586,1.0586,1.0586,1.0557,1.0596,1.0596,1.0596,0,1.1143,1.1143,1.1221,0,0,0,0,1.5391,1.5254,1.5254,1.5186,1.5186,1.5117,1.5049,1.499,1.4922,1.4922,1.4922,0,0,1.8906,1.8906,1.8906,1.9014,1.9229,1.9229,1.9229,1.9346,1.9346,1.9346,1.9453,1.9453,1.9453,1.957,1.957,1.957,1.957,1.957,1.957,1.9453,1.9453,1.9453,1.9453,1.9346,1.9346,1.9346,1.9346,1.9346,1.9346,1.9238,1.9238,1.9238,1.9238,1.9238,1.9131,1.9131,1.9131,1.9131,1.9131,1.9023,1.9023,1.9023,1.9131,1.9023,1.9023,1.8916,1.9023,1.9023,1.9023,1.9023,1.8916,1.9023,1.8916,1.8916,1.8916,1.8916,1.8809,1.8809,1.8809,1.8809,1.8809,1.8711,1.8809,1.8809,0,0,0,0,0,0,0,0,0,0,0,0,0,0,0,0,0,0,0,0,0,0,0,0,0,0,0,0,0,0
1.1055,1.1055,1.1055,1.1055,1.1094,1.1094,1.1123,1.1162,1.1162,1.1162,1.1162,1.1201,1.1201,1.1201,1.1201,1.124,1.124,1.124,1.124,1.1279,1.124,1.1279,1.1309,1.1309,1.1348,1.1348,1.1348,1.1348,1.1348,1.1348,1.1387,1.1387,1.1387,1.1387,1.1387,1.1387,1.1426,1.1426,1.1426,1.1426,1.1426,1.1426,1.1348,1.1387,1.1387,1.1348,1.1387,1.1387,1.1348,1.1387,1.1387,1.1387,1.1387,1.1387,1.1387,1.1387,1.1387,1.1387,1.1387,1.1426,1.1387,1.1387,1.1387,1.1357,1.1357,1.1357,1.1318,1.1318,1.1318,1.1318,1.1318,1.1318,1.1318,1.1318,1.1357,1.1357,1.1357,1.1318,1.1396,1.1396,1.1396,1.1396,1.1396,1.1396,1.1396,1.1396,1.1396,1.1396,1.1357,1.1357,1.1396,1.1396,1.1396,1.1396,1.1396,1.1396,1.1396,1.1396,1.1396,1.1357,1.1357,1.1357,1.1357,1.1357,1.1318,1.1318,1.1318,1.1318,1.1357,1.1318,1.1357,1.1357,1.1357,1.1357,1.1357,1.1357,1.1436,1.1436,1.1436,1.1436,1.1436,1.1436,1.1436,1.1396,1.1357,1.1357,1.1396,1.1357,1.1357,1.1318,1.1357,1.1357,1.1357,1.1357,1.1357,1.1357,1.1396,1.1396,1.1396,1.1396,1.1396,1.1436,1.1436,1.1436,1.1436,1.1436,1.1436,1.1436,1.1475,1.1475,1.1475,1.1475,1.1475,1.1475,1.1475,1.1475,1.1475,1.1475,1.1475,1.1436,1.1436,1.1436,1.1436,1.1436,1.1436,1.1396,1.1436,1.1436,1.1436,1.1396,1.1436,1.1396,1.1396,1.1396,1.1396,1.1357,1.1357,1.1357,1.1357,1.1357,1.1357,1.1357,1.1357,1.1357,1.1357,1.1318,1.1318,1.1318,1.1318,1.1318,1.1318,1.1318,1.1318,1.1318,1.1318,1.1289,1.1318,1.1289,1.1289,1.1289,1.1289,1.1289,1.125,1.125,1.125,1.125,1.1211,1.1211,1.125,1.125,1.125,1.125,1.125,1.1211,1.1211,1.1211,1.1211,1.0615,1.0615,1.0615,1.0615,1.0615,1.0615,1.0645,1.0645,1.0654,1.0615,1.0615,1.0615,1.0654,1.0654,1.0654,1.0654,1.0654,1.0654,1.0654,1.0654,1.0654,1.0654,1.0654,1.0615,1.0615,1.0615,1.0615,1.0586,1.0586,1.0586,1.0547,1.0547,1.0547,1.0547,1.0518,1.0518,1.0518,1.0518,1.0518,1.0518,1.0459,1.0459,0,1.0996,1.1035,1.0996,1.0996,1.0957,1.0957,1.0957,1.0957,1.0957,1.0957,1.0928,1.0928,1.0957,1.0957,1.0928,1.0928,1.0928,1.0928,1.0928,1.0889,1.0889,1.0889,1.0859,1.0859,1.0859,1.0859,1.0859,1.0859,1.0859,1.0889,1.0889,1.0889,1.0889,1.0889,1.0859,1.0859,1.0859,1.0859,1.082,1.0332,1.0332,1.0332,1.0332,1.0303,1.0303,1.0303,1.0303,1.0303,1.0264,1.0264,1.0264,1.0303,1.0303,1.0264,1.0303,1.0303,1.0303,1.0303,1.0303,1.0303,1.0303,1.0303,1.0303,1.0303,1.0303,1.0264,1.0264,1.0234,1.0205,1.0205,1.0205,1.0205,1.0176,1.0176,1.0146,1.0146,1.0146,1.0117,1.0117,1.0117,1.0117,1.0117,1.0088,1.0088,0,1.0625,1.0654,1.0625,1.0654,1.0693,1.0654,1.0625,1.0625,1.0625,1.0625,1.0625,1.0625,1.0625,1.0625,1.0625,1.0625,1.0625,1.0625,1.0586,1.0596,1.0596,1.0586,1.0586,1.0586,1.0586,1.0586,1.0586,1.0596,1.0596,1.0596,1.0596,1.0596,1.0557,1.0557,0,1.0967,1.0967,1.1113,1.1152,0,0,0,0,1.1221,1.5391,1.5322,0,0,1.5254,1.5117,1.5117,1.499,1.4922,1.4922,1.4922,0,0,1.8916,1.8916,1.9014,1.9014,1.9121,1.9238,1.9346,1.9346,1.9346,1.9346,1.9346,1.9346,1.9346,1.9453,1.9453,1.9453,1.9453,1.9453,1.9453,1.9453,1.9453,1.9453,1.9346,1.9346,1.9346,1.9238,1.9346,1.9346,1.9238,1.9131,1.9131,1.9131,1.9131,1.9131,1.9131,1.9023,1.9023,1.9131,1.9131,1.9023,1.9023,1.9023,1.9131,1.9023,1.9023,1.9023,1.9023,1.9023,1.9023,1.9023,1.8916,1.8916,1.9023,1.8916,1.8916,1.8916,1.8809,1.8711,1.8809,1.8711,1.8711,1.8711,1.8818,1.8711,0,0,0,0,0,0,0,0,0,0,0,0,0,0,0,0,0,0,0,0,0,0,0,0,0,0,0,0,0,0
1.1055,1.1055,1.1055,1.1094,1.1094,1.1094,1.1123,1.1123,1.1123,1.1162,1.1162,1.1201,1.1201,1.1201,1.124,1.124,1.124,1.124,1.1279,1.1279,1.124,1.124,1.124,1.1309,1.1348,1.1348,1.1348,1.1348,1.1348,1.1348,1.1387,1.1387,1.1387,1.1387,1.1387,1.1387,1.1387,1.1426,1.1387,1.1387,1.1348,1.1387,1.1348,1.1348,1.1348,1.1348,1.1387,1.1357,1.1357,1.1387,1.1387,1.1387,1.1357,1.1387,1.1387,1.1387,1.1387,1.1387,1.1387,1.1387,1.1387,1.1318,1.1318,1.1357,1.1318,1.1318,1.1318,1.1279,1.1318,1.1318,1.1318,1.1279,1.1318,1.1318,1.1318,1.1357,1.1318,1.1318,1.1357,1.1396,1.1357,1.1357,1.1357,1.1357,1.1357,1.1357,1.1357,1.1357,1.1318,1.1318,1.1318,1.1318,1.1318,1.1318,1.1318,1.1318,1.1357,1.1357,1.1357,1.1357,1.1357,1.1357,1.1318,1.1318,1.1279,1.1318,1.1279,1.1318,1.1318,1.1279,1.1318,1.1318,1.1318,1.1318,1.1318,1.1357,1.1357,1.1357,1.1396,1.1436,1.1396,1.1396,1.1396,1.1357,1.1396,1.1396,1.1318,1.1318,1.1318,1.1318,1.1318,1.1318,1.1318,1.1318,1.1396,1.1357,1.1357,1.1357,1.1396,1.1396,1.1396,1.1396,1.1396,1.1396,1.1436,1.1436,1.1436,1.1436,1.1436,1.1475,1.1436,1.1475,1.1475,1.1475,1.1475,1.1436,1.1436,1.1436,1.1436,1.1436,1.1436,1.1396,1.1396,1.1396,1.1396,1.1357,1.1357,1.1318,1.1357,1.1357,1.1396,1.1396,1.1396,1.1357,1.1357,1.1357,1.1357,1.1357,1.1357,1.1357,1.1357,1.1318,1.1318,1.1318,1.1318,1.1318,1.1318,1.1318,1.1289,1.1289,1.1289,1.1289,1.1289,1.1289,1.1289,1.125,1.1289,1.125,1.125,1.125,1.125,1.125,1.1211,1.1211,1.1211,1.1211,1.1211,1.1211,1.1211,1.1211,1.1172,1.1172,1.1172,1.1172,1.1143,1.1143,1.1143,1.1104,1.1025,1.0615,1.0615,1.0615,1.0654,1.0654,1.0654,1.0654,1.0615,1.0615,1.0615,1.0654,1.0654,1.0654,1.0654,1.0654,1.0654,1.0654,1.0654,1.0654,1.0654,1.0654,1.0615,1.0615,1.0615,1.0615,1.0586,1.0586,1.0586,1.0586,1.0557,1.0557,1.0557,1.0518,1.0518,1.0518,1.0518,1.0518,1.0488,1.042,1.042,0,1.0996,1.0996,1.0957,1.0957,1.0957,1.0957,1.0957,1.0928,1.0928,1.0928,1.0928,1.0928,1.0928,1.0928,1.0928,1.0889,1.0889,1.0889,1.0889,1.0889,1.0859,1.0859,1.0859,1.0859,1.0859,1.082,1.082,1.082,1.082,1.0859,1.0859,1.0859,1.0859,1.0859,1.0859,1.082,1.082,1.082,1.082,1.0332,1.0332,1.0332,1.0332,1.0332,1.0303,1.0332,1.0303,1.0264,1.0264,1.0264,1.0264,1.0303,1.0303,1.0264,1.0303,1.0303,1.0303,1.0303,1.0303,1.0303,1.0303,1.0303,1.0303,1.0303,1.0303,1.0273,1.0273,1.0234,1.0234,1.0205,1.0205,1.0205,1.0176,1.0176,1.0176,1.0176,1.0146,1.0146,1.0117,1.0117,1.0117,1.0176,1.0176,1.0176,0,1.0654,1.0654,1.0625,1.0654,1.0654,1.0625,1.0625,1.0625,1.0625,1.0625,1.0625,1.0625,1.0625,1.0625,1.0625,1.0625,1.0596,1.0625,1.0596,1.0596,1.0596,1.0596,1.0596,1.0596,1.0596,1.0596,1.0596,1.0596,1.0596,1.0596,1.0596,1.0596,1.0557,1.0654,0,1.1006,1.1006,1.1035,1.1113,1.1182,1.1221,1.1221,1.1182,1.1182,1.1152,1.1152,1.1152,1.1152,0,0,0,0,1.499,1.4922,1.4922,0,0,1.4922,1.4922,1.4922,1.9023,1.9131,1.9238,1.9238,1.9346,1.9346,1.9346,1.9346,1.9346,1.9346,1.9453,1.9453,1.9453,1.9453,1.9453,1.9453,1.9346,1.9346,1.9346,1.9346,1.9346,1.9346,1.9238,1.9346,1.9346,1.9238,1.9131,1.9131,1.9131,1.9023,1.9023,1.9023,1.9023,1.9023,1.9023,1.9023,1.9023,1.9023,1.9023,1.9131,1.9023,1.9023,1.9023,1.9023,1.9023,1.9023,1.9023,1.8916,1.8916,1.8916,1.8916,1.8809,1.8809,1.8818,1.8711,1.8818,1.8711,1.8711,1.8711,1.8711,1.8711,0,0,0,0,0,0,0,0,0,0,0,0,0,0,0,0,0,0,0,0,0,0,0,0,0,0,0,0,0,0
1.1055,1.1055,1.1055,1.1094,1.1094,1.1094,1.1123,1.1162,1.1162,1.1162,1.1162,1.1201,1.1201,1.1201,1.124,1.124,1.124,1.1279,1.1279,1.1279,1.1279,1.1279,1.1318,1.1318,1.1348,1.1348,1.1348,1.1348,1.1348,1.1348,1.1387,1.1348,1.1348,1.1348,1.1387,1.1348,1.1387,1.1387,1.1348,1.1357,1.1318,1.1357,1.1318,1.1318,1.1357,1.1357,1.1357,1.1357,1.1357,1.1387,1.1387,1.1387,1.1357,1.1357,1.1357,1.1357,1.1396,1.1357,1.1357,1.1357,1.1318,1.1318,1.1279,1.1318,1.1279,1.1318,1.1279,1.1279,1.1279,1.1318,1.1318,1.1279,1.1318,1.1279,1.1318,1.1318,1.1318,1.1318,1.1357,1.1357,1.1357,1.1318,1.1357,1.1357,1.1357,1.1318,1.1318,1.1318,1.1318,1.1318,1.1318,1.1279,1.1279,1.1279,1.1279,1.1279,1.1318,1.1318,1.1318,1.1279,1.1279,1.1279,1.1279,1.1279,1.124,1.1279,1.124,1.124,1.124,1.124,1.124,1.1279,1.1279,1.1279,1.1279,1.1318,1.1357,1.1357,1.1357,1.1396,1.1396,1.1357,1.1318,1.1318,1.1318,1.1318,1.1318,1.1318,1.1279,1.1279,1.1279,1.1279,1.1279,1.1396,1.1396,1.1357,1.1357,1.1357,1.1396,1.1396,1.1396,1.1396,1.1396,1.1396,1.1436,1.1436,1.1436,1.1436,1.1436,1.1436,1.1436,1.1436,1.1436,1.1436,1.1436,1.1436,1.1436,1.1436,1.1436,1.1396,1.1396,1.1357,1.1357,1.1357,1.1357,1.1318,1.1318,1.1318,1.1318,1.1318,1.1357,1.1357,1.1357,1.1357,1.1357,1.1318,1.1318,1.1318,1.1318,1.1318,1.1318,1.1318,1.1328,1.1328,1.1289,1.1289,1.1289,1.1289,1.125,1.125,1.125,1.125,1.125,1.125,1.125,1.1211,1.125,1.1211,1.1211,1.1211,1.1211,1.1211,1.1211,1.1172,1.1172,1.1172,1.1172,1.1172,1.1172,1.1172,1.1172,1.1172,1.1143,1.1143,1.1104,1.1104,1.1064,1.1064,1.1064,1.1064,1.1064,1.0654,1.0654,1.0654,1.0654,1.0615,1.0615,1.0586,1.0615,1.0654,1.0654,1.0654,1.0654,1.0654,1.0654,1.0654,1.0654,1.0654,1.0654,1.0654,1.0615,1.0615,1.0615,1.0586,1.0586,1.0586,1.0586,1.0557,1.0557,1.0557,1.0518,1.0518,1.0518,1.0518,1.0518,1.0488,1.0488,1.0518,0,1.0957,1.0996,1.0967,1.0967,1.0967,1.0928,1.0928,1.0928,1.0928,1.0928,1.0928,1.0928,1.0928,1.0928,1.0928,1.0928,1.0889,1.0859,1.0859,1.0859,1.0859,1.0859,1.082,1.082,1.082,1.082,1.082,1.082,1.082,1.082,1.0859,1.082,1.082,1.082,1.082,1.082,1.0791,1.0752,1.0752,1.0752,1.0723,1.0723,1.0332,1.0332,1.0332,1.0332,1.0303,1.0303,1.0264,1.0303,1.0303,1.0264,1.0303,1.0303,1.0264,1.0303,1.0303,1.0303,1.0303,1.0303,1.0303,1.0303,1.0303,1.0303,1.0303,1.0303,1.0273,1.0273,1.0234,1.0234,1.0205,1.0205,1.0205,1.0205,1.0176,1.0176,1.0146,1.0146,1.0146,1.0146,1.0117,1.0176,1.0146,1.0146,0,1.0586,1.0625,1.0586,1.0586,1.0625,1.0625,1.0625,1.0625,1.0625,1.0625,1.0625,1.0625,1.0625,1.0625,1.0625,1.0625,1.0625,1.0596,1.0625,1.0625,1.0596,1.0596,1.0596,1.0625,1.0625,1.0596,1.0596,1.0596,1.0596,1.0596,1.0625,1.0625,1.0654,0,1.1035,1.1035,1.1035,1.1006,1.1035,1.1074,1.1152,1.1152,1.1182,1.1182,1.1182,1.1152,1.1152,1.1113,1.1152,1.1182,0,0,0,0,1.4854,1.4922,1.4922,1.4922,1.4922,1.4922,1.4922,1.4854,1.4854,1.9238,1.9346,1.9346,1.9346,1.9346,1.9346,1.9346,1.9346,1.9453,1.9453,1.9346,1.9453,1.9346,1.9346,1.9346,1.9346,1.9346,1.9346,1.9238,1.9238,1.9238,1.9238,1.9238,1.9131,1.9131,1.9131,1.9023,1.9023,1.9023,1.9023,1.8916,1.9023,1.9023,1.9023,1.9023,1.9023,1.9023,1.9023,1.9023,1.9023,1.9023,1.9023,1.9023,1.8916,1.8916,1.8916,1.8916,1.8916,1.8916,1.8818,1.8818,1.8818,1.8711,1.8711,1.8711,1.8613,1.8613,1.8613,1.8613,0,0,0,0,0,0,0,0,0,0,0,0,0,0,0,0,0,0,0,0,0,0,0,0,0,0,0,0,0,0
1.1055,1.1094,1.1055,1.1094,1.1094,1.1094,1.1123,1.1123,1.1162,1.1162,1.1162,1.1201,1.1201,1.1201,1.1201,1.124,1.124,1.1279,1.1279,1.1279,1.1279,1.1279,1.1318,1.1318,1.1348,1.1348,1.1348,1.1348,1.1348,1.1348,1.1348,1.1348,1.1357,1.1357,1.1357,1.1357,1.1357,1.1387,1.1357,1.1357,1.1318,1.1318,1.1279,1.1279,1.1318,1.1318,1.1318,1.1357,1.1318,1.1357,1.1318,1.1318,1.1318,1.1318,1.1318,1.1318,1.1357,1.1318,1.1318,1.1318,1.1318,1.1279,1.1279,1.1279,1.1279,1.1279,1.1279,1.1279,1.1279,1.1279,1.1279,1.1279,1.1279,1.1279,1.1279,1.1279,1.1279,1.1318,1.1318,1.1318,1.1318,1.1279,1.1318,1.1318,1.1318,1.1279,1.1279,1.1279,1.1279,1.1279,1.1279,1.1279,1.1279,1.1279,1.1279,1.1279,1.1279,1.1279,1.1279,1.124,1.124,1.124,1.124,1.124,1.124,1.124,1.124,1.124,1.124,1.124,1.1279,1.1279,1.1279,1.1279,1.1279,1.1279,1.1279,1.1279,1.1279,1.1279,1.1357,1.1396,1.1396,0,0,1.1318,1.1279,1.1318,1.1279,1.1279,1.1279,1.1279,1.1279,1.1357,1.1357,1.1357,1.1357,1.1357,1.1396,1.1396,1.1396,1.1357,1.1357,1.1357,1.1396,1.1396,1.1396,1.1396,1.1396,1.1396,1.1396,1.1396,1.1436,1.1436,1.1436,1.1357,1.1396,1.1357,1.1396,1.1357,1.1318,1.1318,1.1318,1.1318,1.1318,1.1318,1.1318,1.1318,1.1318,1.1318,1.1357,1.1318,1.1357,1.1318,1.1318,1.1328,1.1328,1.1289,1.1289,1.1289,1.1328,1.1289,1.1289,1.1289,1.1289,1.1289,1.1289,1.1211,1.1211,1.1211,1.1211,1.1211,1.1211,1.1211,1.1211,1.1211,1.1211,1.1211,1.1211,1.1172,1.1172,1.1172,1.1172,1.1143,1.1172,1.1172,1.1172,1.1172,1.1172,1.1172,1.1143,1.1143,1.1143,1.1104,1.1104,1.1064,1.1064,1.1035,1.1064,1.1064,1.1064,1.0684,1.0654,1.0615,1.0654,1.0615,1.0615,1.0586,1.0586,1.0615,1.0615,1.0615,1.0615,1.0615,1.0654,1.0654,1.0654,1.0654,1.0654,1.0654,1.0654,1.0615,1.0615,1.0615,1.0586,1.0586,1.0586,1.0557,1.0557,1.0557,1.0557,1.0557,1.0557,1.0518,1.0518,1.0518,1.0518,0,1.0928,1.0967,1.0967,1.0967,1.0928,1.0928,1.0928,1.0928,1.0928,1.0928,1.0928,1.0889,1.0889,1.0889,1.0889,1.0889,1.0859,1.0859,1.0859,1.0859,1.082,1.0859,1.082,1.082,1.082,1.082,1.082,1.0791,1.0791,1.0791,1.0791,1.082,1.082,1.082,1.0791,1.0791,1.0791,1.0791,1.0752,1.0752,1.0752,1.0723,1.0723,1.0693,1.0361,1.0332,1.0361,1.0332,1.0332,1.0303,1.0303,1.0303,1.0303,1.0303,1.0303,1.0273,1.0303,1.0303,1.0303,1.0303,1.0303,1.0303,1.0303,1.0303,1.0303,1.0303,1.0303,1.0273,1.0273,1.0234,1.0234,1.0234,1.0205,1.0205,1.0205,1.0176,1.0176,1.0176,1.0176,1.0146,1.0117,1.0117,1.0146,0,1.0557,1.0596,1.0557,1.0596,1.0596,1.0596,1.0625,1.0625,1.0625,1.0625,1.0625,1.0625,1.0625,1.0596,1.0625,1.0625,1.0625,1.0625,1.0625,1.0625,1.0625,1.0625,1.0625,1.0625,1.0625,1.0625,1.0625,1.0625,1.0625,1.0625,1.0625,1.0625,1.0938,1.0898,1.0967,1.0967,1.0967,1.1045,1.1006,1.1006,1.1006,1.1045,1.1113,1.1113,1.1152,1.1152,1.1152,1.1113,1.1113,1.1113,1.1113,1.1152,1.1152,0,0,0,0,1.4922,1.4922,1.4922,1.4922,1.4922,1.4922,1.4854,1.4854,1.4922,1.4854,1.4795,1.9346,1.9346,1.9346,1.9346,1.9346,1.9346,1.9346,1.9346,1.9346,1.9346,1.9346,1.9346,1.9346,1.9346,1.9346,1.9238,1.9238,1.9238,1.9238,1.9131,1.9131,1.9131,1.9131,1.9023,1.9023,1.9023,1.9023,1.8916,1.9023,1.9023,1.9023,1.9023,1.9023,1.9023,1.9023,1.9023,1.8916,1.8916,1.8916,1.8916,1.8916,1.8916,1.8916,1.8916,1.8818,1.8818,1.8818,1.8711,1.8711,1.8711,1.8711,1.8613,1.8613,1.8613,1.8613,1.8613,0,0,0,0,0,0,0,0,0,0,0,0,0,0,0,0,0,0,0,0,0,0,0,0,0,0,0,0,0,0
