1.0273,1.0273,1.0273,1.0273,1.0303,1.0303,1.0303,1.0342,1.0342,1.0371,1.0371,1.04,1.04,1.04,1.04,1.043,1.043,1.0469,1.0498,1.0498,1.0498,1.0498,1.0527,1.0527,1.0527,1.0527,1.0527,1.0527,1.0566,1.0635,1.0635,1.0635,1.0664,1.0693,1.0693,1.0693,1.0693,1.0732,1.0762,1.0801,1.0801,1.0801,1.0801,1.084,1.084,1.084,1.084,1.0869,1.0869,1.0908,1.0908,1.0938,1.0938,1.0938,1.0977,1.0977,1.0977,1.0977,1.0977,1.0977,1.1016,1.1016,1.1045,1.1045,1.1084,1.1084,1.1084,1.1123,1.1123,1.1123,1.1162,1.1162,1.1162,1.1191,1.123,1.123,1.123,1.127,1.127,1.127,1.127,1.127,1.127,1.127,1.127,1.127,1.1309,1.127,1.127,1.127,1.127,1.127,1.123,1.127,1.127,1.127,1.127,1.127,1.123,1.123,1.123,1.127,1.123,1.123,1.1201,1.1162,1.1162,1.1201,1.123,1.1162,1.1162,1.1162,1.1201,1.1201,1.1201,1.1162,1.1162,1.1162,1.1162,1.1162,1.1162,1.1201,1.1201,1.1201,1.1201,1.1201,1.1201,1.1201,1.1162,1.1201,1.1162,1.1162,1.1162,1.1162,1.1162,1.1123,1.1162,1.1123,1.1123,1.1123,1.1162,1.1123,1.1123,1.1162,1.1162,1.1162,1.1094,1.1094,1.1094,1.1123,1.1123,1.1094,1.1123,1.1123,1.1162,1.1162,1.1162,1.1123,1.1123,1.1094,1.1094,1.1094,1.1094,1.1094,1.1094,1.1201,1.1201,0,1.1387,1.1387,1.1348,1.1348,1.1309,1.1309,1.1309,1.1309,1.1279,1.1279,1.1279,1.0312,1.0254,1.0225,1.0195,1.0166,1.0127,1.0127,1.0098,1.0098,1.0098,1.0098,1.0098,1.0068,1.0068,1.0068,1.0068,1.0039,1.0039,1.0039,1.001,1.001,1.001,0.99805,0.99805,0.99805,0.99512,0.99512,0.99268,0.99268,0.99268,0.99268,0.99268,0.99268,0.99268,0.99268,0.99268,0.98975,0.98682,0.98682,0.98389,0.98096,0.97803,0.97803,0.97559,0.97266,0.97266,0.96973,0.96973,0.96973,0.96728,0.96728,0.96728,0.96728,0.96728,0.96973,0.96973,0.96728,0.96728,0.96728,0.96728,0.96728,0.96728,0.96435,0.96728,0.96728,0.96435,0.96728,0.96728,0.96728,0.96728,0.97022,0.97022,0.97022,0.97022,0.97022,0.97022,0.97266,0.97266,0.97559,0.97852,0.98145,0.98389,0,1.085,1.0811,1.0811,1.0811,1.0811,1.0781,1.0781,1.0781,1.0781,1.0781,1.0781,1.0781,1.0811,1.0811,1.0811,1.0811,1.0781,1.0781,1.0742,1.0713,1.0742,1.0713,1.0713,1.0674,1.0713,1.0674,1.0674,1.0713,1.0684,1.0684,1.0684,1.0684,1.0684,1.0684,1.0684,0.98145,0.97559,0.97559,0.97315,0.97022,0.96484,0.96191,0.95947,0.95654,0.9541,0.95117,0.95117,0.95117,0.94873,0.94873,0.94873,0.9458,0.94873,0.94873,0.9458,0.94336,0.94336,0.9458,0.94092,0.94092,0.94336,0.94092,0.94092,0.94092,0.94092,0.94336,0.94336,0.94336,0.94092,0.94336,0.94336,0.94336,0.94336,0.94336,0.94336,0.94092,0.94092,0.94092,0.94092,0.94092,0.94092,0.94092,0.94092,0.94092,0.94092,0.94092,0.94092,0.94092,0.94092,0,1.0352,1.0322,1.0322,1.0293,1.0293,1.0293,1.0264,1.0234,1.0234,1.0234,1.0234,1.0234,1.0234,1.0205,1.0205,1.0205,1.0205,1.0205,1.0205,1.0205,1.0205,1.0205,1.0205,1.0205,1.0176,1.0176,1.0176,1.0205,1.0205,1.0205,1.0176,1.0176,1.0205,1.0205,1.0205,1.0205,1.0205,1.0205,1.0234,1.0234,1.0264,0,0,0,0,0,0,0,1.9111,1.9004,1.9004,1.8896,1.8896,1.8896,1.8896,1.8896,1.8896,1.8896,1.8896,1.8896,1.8896,1.8799,1.8799,1.8799,1.8799,1.8799,1.8799,1.8799,1.8799,1.8896,1.8799,1.8799,1.8799,1.8691,1.8691,1.8691,1.8691,1.8691,1.8594,1.8691,1.8691,1.8594,1.8594,1.8594,1.8486,1.8594,1.8486,1.8486,1.8486,1.8486,1.8486,1.8486,1.8486,1.8486,1.8389,1.8389,1.8389,1.8389,1.8389,0,0,0,0,0,0,0,0,0,0,0,0,0,0,0,0,0,0,0,0,0,0,0,0,0,0,0,0,0
1.0273,1.0273,1.0273,1.0273,1.0303,1.0303,1.0303,1.0342,1.0342,1.0371,1.0371,1.04,1.04,1.04,1.043,1.043,1.0469,1.0469,1.0498,1.0498,1.0498,1.0498,1.0527,1.0527,1.0566,1.0527,1.0596,1.0635,1.0635,1.0635,1.0635,1.0635,1.0664,1.0664,1.0703,1.0703,1.0703,1.0732,1.0771,1.0801,1.0801,1.0801,1.084,1.084,1.084,1.084,1.0869,1.0869,1.0908,1.0908,1.0908,1.0938,1.0938,1.0938,1.0977,1.0977,1.0977,1.0977,1.0977,1.0977,1.1016,1.1016,1.1045,1.1045,1.1084,1.1084,1.1084,1.1123,1.1123,1.1123,1.1162,1.1162,1.1162,1.1191,1.1191,1.123,1.123,1.127,1.127,1.127,1.127,1.127,1.127,1.127,1.123,1.123,1.127,1.127,1.123,1.123,1.123,1.1201,1.123,1.1201,1.123,1.1201,1.123,1.123,1.123,1.123,1.123,1.1201,1.1201,1.1201,1.1162,1.1162,1.1201,1.1201,1.1201,1.1162,1.1123,1.1162,1.1162,1.1162,1.1162,1.1123,1.1162,1.1162,1.1162,1.1162,1.1162,1.1162,1.1162,1.1162,1.1162,1.1162,1.1162,1.1162,1.1162,1.1162,1.1162,1.1162,1.1123,1.1123,1.1123,1.1123,1.1123,1.1123,1.1094,1.1055,1.1162,1.1162,1.1123,1.1123,1.1123,1.1123,1.1094,1.1094,1.1094,1.1094,1.1094,1.1055,1.1055,1.1055,1.1123,1.1123,1.1123,1.1055,1.1055,1.1094,1.1094,1.1094,1.1094,1.1094,1.1123,1.1133,1.1094,1.1094,0,0,1.1348,0,1.1279,1.1279,1.1279,1.1279,1.124,1.124,1.124,1.0283,1.0254,1.0225,1.0166,1.0166,1.0127,1.0127,1.0098,1.0098,1.0098,1.0098,1.0098,1.0068,1.0068,1.0039,1.0039,1.0039,1.0039,1.0039,1.0039,1.0039,1.001,1.001,0.99853,0.99853,0.99853,0.9956,0.99268,0.99268,0.99268,0.99268,0.99268,0.98975,0.99268,0.99268,0.98975,0.98975,0.98682,0.98389,0.98096,0.97803,0.97803,0.97559,0.97559,0.97266,0.96973,0.96973,0.96973,0.96973,0.96728,0.96728,0.96728,0.96728,0.96973,0.96973,0.96728,0.96728,0.96728,0.96728,0.96728,0.96728,0.96728,0.96435,0.96435,0.96728,0.96435,0.96728,0.96728,0.96728,0.96728,0.96728,0.97022,0.97022,0.97022,0.97022,0.97022,0.97022,0.97022,0.97266,0.97559,0.97852,0.98438,0.98438,0,1.0811,1.0811,1.0811,1.0781,1.0781,1.0781,1.0742,1.0742,1.0742,1.0742,1.0781,1.0781,1.0781,1.0781,1.0742,1.0742,1.0742,1.0713,1.0713,1.0713,1.0684,1.0684,1.0684,1.0684,1.0645,1.0645,1.0645,1.0684,1.0645,1.0645,1.0645,1.0645,1.0645,1.0645,0.97852,0.97315,0.97315,0.97315,0.97022,0.96728,0.96191,0.95947,0.95654,0.9541,0.95117,0.95117,0.94873,0.94873,0.94873,0.94873,0.94873,0.94873,0.94873,0.94873,0.9458,0.9458,0.94873,0.94336,0,0.94873,0.94336,0.94629,0.94873,0.94873,0.94873,0.94873,0.94629,0.94629,0.94873,0.94629,0.94629,0.94629,0.94629,0.94336,0.94092,0.94092,0.94092,0.94092,0.94092,0.94092,0.94092,0.94092,0.94092,0.94092,0.94092,0.94092,0.93848,0,0,1.0322,1.0293,1.0293,1.0264,1.0264,1.0264,1.0234,1.0234,1.0234,1.0234,1.0205,1.0205,1.0205,1.0205,1.0205,1.0205,1.0205,1.0205,1.0205,1.0176,1.0176,1.0176,1.0176,1.0176,1.0176,1.0176,1.0176,1.0176,1.0176,1.0176,1.0146,1.0176,1.0176,1.0205,1.0205,1.0205,1.0205,1.0234,1.0234,1.0234,1.0264,0,0,0,0,0,0,0,1.9111,1.9004,1.9004,1.8896,1.8896,1.8896,1.8896,1.8896,1.8896,1.8896,1.8896,1.8896,1.8896,1.8799,1.8799,1.8799,1.8691,1.8799,1.8691,1.8799,1.8799,1.8799,1.8799,1.8799,1.8799,1.8691,1.8691,1.8691,1.8691,1.8691,1.8594,1.8594,1.8594,1.8594,1.8594,1.8486,1.8486,1.8594,1.8486,1.8486,1.8486,1.8486,1.8486,1.8486,1.8389,1.8389,1.8389,1.8389,1.8389,1.8389,1.8389,0,0,0,0,0,0,0,0,0,0,0,0,0,0,0,0,0,0,0,0,0,0,0,0,0,0,0,0,0
1.0273,1.0273,1.0273,1.0273,1.0303,1.0303,1.0303,1.0342,1.0342,1.0371,1.0371,1.04,1.04,1.04,1.043,1.0439,1.0439,1.0469,1.0498,1.0498,1.0498,1.0498,1.0537,1.0537,1.0566,1.0537,1.0596,1.0635,1.0596,1.0635,1.0635,1.0635,1.0635,1.0664,1.0703,1.0703,1.0703,1.0801,1.0801,1.0801,1.0801,1.0801,1.0801,1.084,1.084,1.084,1.0869,1.0869,1.0908,1.0908,1.0938,1.0938,1.0938,1.0938,1.0977,1.0977,1.0977,1.0977,1.0977,1.1016,1.1016,1.1045,1.1045,1.1084,1.1084,1.1123,1.1123,1.1123,1.1123,1.1123,1.1162,1.1162,1.1162,1.1162,1.1191,1.123,1.123,1.123,1.123,1.123,1.123,1.123,1.123,1.123,1.1201,1.1201,1.123,1.123,1.123,1.123,1.1201,1.1162,1.1162,1.1162,1.1201,1.1201,1.1201,1.1201,1.1201,1.1201,1.1201,1.1201,1.1201,1.1162,1.1123,1.1162,1.1162,1.1162,1.1162,1.1123,1.1123,1.1123,1.1123,1.1123,1.1123,1.1123,1.1162,1.1162,1.1123,1.1123,1.1162,1.1162,1.1162,1.1162,1.1123,1.1162,1.1162,1.1162,1.1162,1.1162,1.1162,1.1162,1.1123,1.1094,1.1123,1.1123,1.1123,1.1094,1.1055,1.1016,1.1055,1.1123,1.1094,1.1094,1.1055,1.1094,1.1055,1.1055,1.1055,1.1055,1.1094,1.1055,1.1055,1.1055,1.1094,1.1094,1.1094,1.1055,1.1055,1.1055,1.1055,1.1055,1.1055,1.1055,1.1094,1.1094,1.1055,1.1133,1.1133,0,1.1279,0,1.124,1.1201,1.124,1.1201,1.124,1.1201,1.1201,1.0283,1.0225,1.0225,1.0195,1.0166,1.0137,1.0137,1.0098,1.0098,1.0098,1.0098,1.0098,1.0068,1.0068,1.0068,1.0039,1.0039,1.001,1.0039,1.001,1.001,1.001,1.001,0.99853,0.99853,0.9956,0.9956,0.99268,0.99268,0.99268,0.98975,0.98975,0.98975,0.99268,0.99268,0.98975,0.98682,0.98389,0.98096,0.98096,0.97852,0.97559,0.97559,0.97266,0.97266,0.96973,0.96973,0.96973,0.96973,0.96728,0.96728,0.96728,0.96728,0.97022,0.97022,0.97022,0.96728,0.96728,0.96728,0.96728,0.96728,0.96728,0.96728,0.96728,0.96728,0.96728,0.96728,0.96728,0.96728,0.96728,0.96728,0.96728,0.97022,0.96728,0.97022,0.96728,0.96728,0.97022,0.97022,0.97266,0.97559,0.98438,0.9873,0.9873,1.0781,1.0781,1.0781,1.0781,1.0742,1.0742,1.0742,1.0713,1.0713,1.0713,1.0742,1.0742,1.0742,1.0742,1.0742,1.0713,1.0713,1.0713,1.0713,1.0684,1.0684,1.0684,1.0645,1.0645,1.0615,1.0615,1.0615,1.0645,1.0615,1.0615,1.0615,1.0615,1.0615,1.0615,0.98145,0.97607,0.97607,0.97315,0.97022,0.96777,0.96191,0.95947,0.95654,0.9541,0.95117,0.95117,0.94873,0.94873,0.94873,0.94873,0.94873,0.94873,0.94873,0.94873,0.94873,0.94629,0.94873,0.94873,0.94873,0.95117,0.95117,0.95117,0.95117,0.95117,0.95117,0.95166,0.94873,0.94873,0.95166,0.95166,0.94873,0.94873,0.94873,0.94629,0.94336,0.94336,0.94092,0.94092,0.94092,0.94092,0.94092,0.94092,0.94092,0.94092,0.94092,0.94092,0.93848,0,0.94629,0,1.0293,1.0293,1.0264,1.0264,1.0264,1.0234,1.0234,1.0205,1.0205,1.0205,1.0205,1.0176,1.0176,1.0176,1.0176,1.0176,1.0176,1.0176,1.0176,1.0176,1.0176,1.0176,1.0176,1.0146,1.0176,1.0146,1.0146,1.0146,1.0176,1.0146,1.0176,1.0176,1.0205,1.0176,1.0176,1.0205,1.0234,1.0205,1.0234,1.0264,0,0,0,0,0,0,0,1.9004,1.9004,1.8896,1.8896,1.8799,1.8896,1.8896,1.8896,1.8896,1.8799,1.8896,1.8896,1.8799,1.8799,1.8691,1.8691,1.8691,1.8691,1.8691,1.8691,1.8691,1.8691,1.8691,1.8799,1.8799,1.8691,1.8691,1.8594,1.8594,1.8594,1.8594,1.8594,1.8594,1.8594,1.8594,1.8594,1.8486,1.8486,1.8486,1.8486,1.8389,1.8486,1.8486,1.8486,1.8486,1.8389,1.8389,1.8389,1.8389,1.8291,0,0,0,0,0,0,0,0,0,0,0,0,0,0,0,0,0,0,0,0,0,0,0,0,0,0,0,0,0,0
1.0244,1.0273,1.0273,1.0273,1.0303,1.0303,1.0342,1.0342,1.0371,1.0371,1.0371,1.04,1.04,1.04,1.0439,1.0439,1.0439,1.0469,1.0498,1.0498,1.0498,1.0498,1.0537,1.0537,1.0537,1.0537,1.0596,1.0596,1.0596,1.0635,1.0635,1.0635,1.0664,1.0664,1.0703,1.0703,1.0703,1.0801,1.0801,1.0801,1.0801,1.0801,1.0801,1.084,1.084,1.084,1.0869,1.0869,1.0908,1.0908,1.0947,1.0947,1.0947,1.0947,1.0977,1.0977,1.0977,1.0977,1.0977,1.1016,1.1016,1.1055,1.1084,1.1084,1.1084,1.1123,1.1123,1.1123,1.1123,1.1123,1.1162,1.1162,1.1162,1.1162,1.1201,1.1201,1.123,1.123,1.123,1.123,1.123,1.123,1.1201,1.1201,1.1162,1.1162,1.1201,1.1162,1.1201,1.1201,1.1162,1.1162,1.1162,1.1123,1.1162,1.1162,1.1201,1.1201,1.1162,1.1162,1.1162,1.1201,1.1162,1.1162,1.1123,1.1162,1.1162,1.1162,1.1162,1.1123,1.1123,1.1123,1.1123,1.1123,1.1123,1.1123,1.1162,1.1162,1.1123,1.1123,1.1162,1.1162,1.1162,1.1123,1.1162,1.1162,1.1162,1.1162,1.1162,1.1162,1.1162,1.1162,1.1123,1.1094,1.1094,1.1094,1.1094,1.1055,1.1055,1.1016,1.1016,1.1016,1.1055,1.1055,1.1016,1.1055,1.1055,1.1055,1.1016,1.1055,1.1016,1.1016,1.1016,1.1016,1.1094,1.1094,1.1094,1.1055,1.1016,1.1055,1.1055,1.1055,1.1055,1.1055,1.1055,1.1133,1.1133,1.1133,0,0,1.124,1.1162,1.1201,1.1201,1.1201,1.1201,1.1201,1.1162,1.0283,1.0283,1.0225,1.0225,1.0195,1.0166,1.0137,1.0137,1.0098,1.0098,1.0098,1.0107,1.0107,1.0068,1.0068,1.0068,1.0039,1.0039,1.001,1.001,1.001,1.001,1.001,1.001,0.99853,0.99853,0.99853,0.9956,0.99268,0.99268,0,0.9956,0.9956,0.9956,0.9956,0.99268,0.98975,0.98682,0.98389,0.98096,0.98096,0.97852,0.97559,0.97559,0.97266,0.97266,0.97022,0.97022,0.97022,0.97022,0.96728,0.96728,0.96728,0.96728,0.97022,0.97022,0.97022,0.97022,0.97022,0.97022,0.97022,0.97022,0.96728,0.96728,0.96728,0.96728,0.96728,0.96728,0.96728,0.96728,0.96728,0.96728,0.96728,0.97022,0.97022,0.97022,0.96728,0.96728,0.96728,0.97022,0.97022,0.97315,0.98145,0.9873,0.9873,0,1.0713,1.0742,1.0742,1.0742,1.0713,1.0713,1.0684,1.0713,1.0684,1.0713,1.0713,1.0713,1.0713,1.0713,1.0684,1.0684,1.0684,1.0684,1.0684,1.0645,1.0645,1.0645,1.0645,1.0615,1.0615,1.0615,1.0615,1.0615,1.0615,1.0615,1.0615,1.0615,1.0576,0.98145,0.97607,0.97607,0.97315,0.97022,0.96484,0.96191,0.95947,0.95654,0.9541,0.95117,0.95117,0.95117,0.95117,0.95117,0.94873,0.94873,0.95117,0.95117,0.95117,0.95117,0.95117,0.95117,0.95117,0.95166,0.95166,0.9541,0.9541,0.9541,0.95703,0.95703,0.95703,0.9541,0.9541,0.95703,0.95703,0.9541,0.9541,0.95166,0.95166,0.94873,0.94336,0.94336,0.94336,0.94336,0.94092,0.94385,0.94385,0.94385,0.94385,0.94385,0.94385,0.94629,0.94629,0.94629,0,1.0293,1.0293,1.0264,1.0264,1.0234,1.0205,1.0205,1.0205,1.0205,1.0176,1.0176,1.0176,1.0176,1.0176,1.0176,1.0176,1.0176,1.0176,1.0176,1.0176,1.0176,1.0176,1.0146,1.0146,1.0146,1.0146,1.0146,1.0107,1.0146,1.0107,1.0146,1.0146,1.0176,1.0176,1.0176,1.0176,1.0205,1.0205,1.0205,1.0234,0,0,0,0,0,0,0,1.8896,1.8896,1.8896,1.8799,1.8896,1.8896,1.8896,1.8799,1.8799,1.8799,1.8799,1.8799,1.8799,1.8691,1.8691,1.8691,1.8594,1.8691,1.8691,1.8691,1.8691,1.8799,1.8799,1.8691,1.8691,1.8691,1.8691,1.8594,1.8594,1.8594,1.8594,1.8594,1.8594,1.8594,1.8496,1.8496,1.8496,1.8496,1.8496,1.8389,1.8389,1.8496,1.8389,1.8496,1.8389,1.8389,1.8389,1.8389,1.8291,1.8193,0,0,0,0,0,0,0,0,0,0,0,0,0,0,0,0,0,0,0,0,0,0,0,0,0,0,0,0,0,0
1.0244,1.0273,1.0273,1.0312,1.0342,1.0342,1.0342,1.0371,1.0371,1.0371,1.04,1.04,1.04,1.0439,1.0439,1.0439,1.0469,1.0498,1.0498,1.0498,1.0498,1.0498,1.0537,1.0537,1.0566,1.0537,1.0596,1.0596,1.0596,1.0635,1.0635,1.0635,1.0635,1.0664,1.0703,1.0703,1.0703,1.0801,1.0801,1.0801,1.0801,1.0801,1.0801,1.084,1.084,1.084,1.0869,1.0869,1.0908,1.0908,1.0947,1.0947,1.0947,1.0947,1.0977,1.0977,1.0977,1.0977,1.0977,1.1016,1.1016,1.1055,1.1084,1.1084,1.1084,1.1123,1.1123,1.1123,1.1123,1.1123,1.1162,1.1162,1.1162,1.1162,1.1162,1.1201,1.1201,1.1201,1.123,1.1201,1.1201,1.1162,1.1162,1.1162,1.1162,1.1162,1.1162,1.1162,1.1201,1.1201,1.1162,1.1162,1.1123,1.1123,1.1162,1.1162,1.1123,1.1162,1.1123,1.1162,1.1123,1.1162,1.1162,1.1123,1.1123,1.1123,1.1162,1.1123,1.1123,1.1123,1.1123,1.1123,1.1123,1.1123,1.1123,1.1123,1.1123,1.1123,1.1123,1.1123,1.1123,1.1123,1.1123,1.1123,1.1123,1.1123,1.1162,1.1123,1.1123,1.1123,1.1123,1.1123,1.1094,1.1094,1.1055,1.1055,1.1055,1.1055,1.1016,1.0986,1.0986,1.1016,1.1016,1.1016,1.1016,1.1016,1.1016,1.1016,1.1016,1.1016,1.1016,1.1016,1.1016,1.1016,1.1055,1.1055,1.1055,1.1055,1.1055,1.1055,1.1055,1.1055,1.1055,1.1055,1.1055,1.1133,1.1133,1.1133,1.1133,1.1201,1.1201,1.1201,1.1162,1.1162,1.1162,1.1162,1.1162,1.1162,1.1162,1.0254,1.0225,1.0225,1.0166,1.0166,1.0137,1.0137,1.0107,1.0107,1.0107,1.0107,1.0107,1.0107,1.0068,1.0068,1.0039,1.0039,1.001,1.001,1.001,1.001,1.001,1.001,0.99853,0.99853,0.99853,0.99853,0.9956,0.9956,0.99853,0.9956,0.9956,0.99268,0.9956,0.99268,0.98975,0.98682,0.98389,0.98096,0.98096,0.97852,0.97559,0.97559,0.97266,0.97266,0.97022,0.97022,0.97022,0.97022,0.97022,0.96728,0.97022,0.97022,0.97022,0.97266,0.97266,0.97266,0.97266,0.97266,0.97266,0.97266,0.97022,0.96728,0.96728,0.96728,0.96728,0.96728,0.96728,0.96728,0.96728,0.97022,0.96728,0.97022,0.97022,0.96728,0.96728,0.96728,0.96728,0.96728,0.97022,0.97022,0.97315,0.9873,0,1.0684,1.0684,1.0684,1.0684,1.0684,1.0684,1.0684,1.0684,1.0684,1.0684,1.0713,1.0684,1.0684,1.0684,1.0684,1.0645,1.0645,1.0645,1.0645,1.0645,1.0615,1.0615,1.0615,1.0615,1.0576,1.0576,1.0576,1.0576,1.0576,1.0576,1.0576,1.0576,1.0576,1.0576,0.98145,0.97607,0.97607,0.97315,0.97022,0.96484,0.96191,0.95654,0.95654,0.95117,0.95117,0.95117,0.95117,0.95117,0.95117,0.95117,0.95166,0.95166,0.9541,0.9541,0.9541,0.9541,0.95703,0.95703,0.95703,0.95703,0.95703,0.95703,0.95703,0.95947,0.95947,0.95947,0.95947,0.95703,0.95947,0.95947,0.95947,0.95703,0.9541,0.9541,0.95166,0.95166,0.94385,0.94385,0.94385,0.94385,0.94385,0.94385,0.94385,0.94385,0.94385,0.94385,0.94629,0.94873,0.94873,0,1.0264,1.0293,1.0264,1.0234,1.0205,1.0205,1.0205,1.0205,1.0176,1.0176,1.0176,1.0176,1.0146,1.0146,1.0146,1.0176,1.0176,1.0176,1.0176,1.0146,1.0146,1.0146,1.0146,1.0117,1.0117,1.0117,1.0117,1.0117,1.0117,1.0117,1.0146,1.0146,1.0176,1.0146,1.0146,1.0146,1.0205,1.0205,0,0,0,0,0,0,1.459,0,0,0,1.8691,1.8594,1.8799,1.8906,1.8906,1.8906,1.8799,1.8799,1.8799,1.8799,1.8799,1.8691,1.8691,1.8691,1.8594,1.8594,1.8594,1.8594,1.8594,1.8594,1.8691,1.8594,1.8594,1.8691,1.8594,1.8594,1.8594,1.8594,1.8594,1.8496,1.8496,1.8496,1.8496,1.8496,1.8496,1.8496,1.8389,1.8389,1.8291,1.8291,1.8389,1.8389,1.8389,1.8389,1.8291,1.8291,1.8291,1.8193,1.8193,0,0,0,0,0,0,0,0,0,0,0,0,0,0,0,0,0,0,0,0,0,0,0,0,0,0,0,0,0,0
1.0273,1.0273,1.0273,1.0312,1.0342,1.0342,1.0342,1.0371,1.0371,1.0371,1.04,1.04,1.0439,1.0439,1.0439,1.0439,1.0469,1.0469,1.0498,1.0498,1.0498,1.0498,1.0537,1.0537,1.0566,1.0596,1.0596,1.0635,1.0635,1.0635,1.0635,1.0635,1.0635,1.0664,1.0703,1.0732,1.0732,1.0771,1.0801,1.0801,1.0801,1.0801,1.0801,1.0801,1.084,1.084,1.0869,1.0869,1.0908,1.0908,1.0947,1.0947,1.0947,1.0947,1.0977,1.0977,1.0977,1.0977,1.0977,1.1016,1.1016,1.1055,1.1084,1.1123,1.1123,1.1123,1.1123,1.1123,1.1123,1.1123,1.1123,1.1123,1.1123,1.1123,1.1123,1.1123,1.1123,1.1084,1.1084,1.1123,1.1123,1.1123,1.1123,1.1123,1.1123,1.1162,1.1162,1.1162,1.1162,1.1162,1.1123,1.1123,1.1123,1.1084,1.1123,1.1123,1.1123,1.1123,1.1123,1.1123,1.1123,1.1123,1.1123,1.1094,1.1094,1.1094,1.1094,1.1123,1.1094,1.1094,1.1123,1.1123,1.1094,1.1094,1.1123,1.1123,1.1094,1.1094,1.1123,1.1094,1.1123,1.1123,1.1123,1.1123,1.1123,1.1123,1.1123,1.1094,1.1094,1.1055,1.1094,1.1094,1.1094,1.1055,1.1055,1.1016,1.1055,1.1016,1.1016,1.0986,1.0986,1.1016,1.1016,1.1016,1.1016,1.1016,1.1016,1.1016,1.1016,1.1016,1.1016,1.1016,1.1016,1.1016,1.1055,1.1055,1.1055,1.1055,1.1055,1.1055,1.1025,1.1025,1.1025,1.1025,1.1025,1.1133,1.1133,1.1133,1.1133,1.1162,1.1162,1.1162,1.1133,1.1162,1.1133,1.1172,1.1172,1.1133,1.1133,1.1133,1.1094,1.1055,1.0166,1.0166,1.0137,1.0137,1.0137,1.0107,1.0107,1.0107,1.0107,1.0107,1.0107,1.0078,1.0039,1.0039,1.001,1.001,1.001,1.001,1.001,1.001,1.001,0.99853,0.99853,0.99853,0.99853,0.99853,0.99853,0.99268,0.99268,0.99268,0.99268,0.98975,0.98975,0.98389,0.98389,0.98145,0.97852,0.97852,0.97852,0.97559,0.97559,0.97266,0.97266,0.97022,0.97022,0.97022,0.97022,0.97022,0.97022,0.97022,0.97266,0.97559,0.97266,0.97266,0.97266,0.97559,0.97315,0.97315,0.97022,0.96728,0.96728,0.96728,0.96728,0.96728,0.96728,0.96728,0.96728,0.97022,0.96728,0.97022,0.97022,0.96728,0.96728,0.96728,0.96728,0.96728,0.97022,0.96728,0.97022,0,1.0684,1.0645,1.0684,1.0684,1.0684,1.0684,1.0645,1.0645,1.0645,1.0645,1.0645,1.0645,1.0645,1.0684,1.0645,1.0645,1.0615,1.0615,1.0615,1.0615,1.0615,1.0576,1.0576,1.0576,1.0576,1.0547,1.0547,1.0576,1.0576,1.0586,1.0586,1.0547,1.0586,1.0586,1.0586,0.97607,0.97607,0.97607,0.97315,0.96777,0.96484,0.9624,0.95654,0.95654,0.95166,0.95166,0.95166,0.95166,0.95166,0.94873,0.95166,0.95166,0.9541,0.9541,0.95703,0.95703,0.95703,0.95947,0.95947,0.95947,0.95947,0.95947,0.95947,0.95947,0.9624,0.9624,0.9624,0.9624,0.95947,0.9624,0.9624,0.9624,0.95947,0.95703,0.9541,0.95166,0.95166,0.94873,0.94629,0.94385,0.94385,0.94385,0.94385,0.94385,0.94385,0.94385,0.94629,0.94629,0.95166,0.94922,0,1.0264,1.0293,1.0205,1.0205,1.0205,1.0205,1.0176,1.0176,1.0176,1.0176,1.0146,1.0146,1.0146,1.0146,1.0146,1.0146,1.0146,1.0146,1.0146,1.0146,1.0146,1.0146,1.0117,1.0117,1.0117,1.0117,1.0117,1.0117,1.0117,1.0117,1.0117,1.0146,1.0146,1.0146,1.0176,0,1.0752,1.0752,0,0,0,0,1.4531,1.4531,1.459,0,0,0,1.8594,1.8486,1.8486,1.8486,1.8799,1.9004,1.8906,1.8906,1.8906,1.8906,1.8691,1.8691,1.8691,1.8594,1.8594,1.8594,1.8691,1.8691,1.8691,1.8594,1.8691,1.8691,1.8691,1.8691,1.8594,1.8594,1.8594,1.8594,1.8594,1.8496,1.8496,1.8496,1.8496,1.8389,1.8496,1.8496,1.8389,1.8389,1.8291,1.8291,1.8291,1.8291,1.8291,1.8291,1.8291,1.8193,1.8193,1.8193,1.8096,0,0,0,0,0,0,0,0,0,0,0,0,0,0,0,0,0,0,0,0,0,0,0,0,0,0,0,0,0,0
1.0273,1.0273,1.0273,1.0312,1.0342,1.0342,1.0342,1.0371,1.0371,1.0371,1.04,1.04,1.0439,1.0439,1.0439,1.0469,1.0469,1.0498,1.0498,1.0498,1.0498,1.0498,1.0537,1.0537,1.0566,1.0566,1.0596,1.0635,1.0635,1.0635,1.0635,1.0635,1.0635,1.0703,1.0703,1.0703,1.0703,1.0771,1.0771,1.0801,1.0801,1.0801,1.0801,1.084,1.084,1.084,1.0869,1.0869,1.0869,1.0908,1.0947,1.0947,1.0947,1.0947,1.0977,1.0977,1.0977,1.0977,1.1016,1.1055,1.1055,1.1084,1.1084,1.1123,1.1123,1.1123,1.1123,1.1123,1.1123,1.1123,1.1123,1.1123,1.1123,1.1123,1.1084,1.1084,1.1084,1.1084,1.1084,1.1094,1.1094,1.1094,1.1094,1.1094,1.1094,1.1094,1.1094,1.1123,1.1123,1.1094,1.1094,1.1094,1.1094,1.1094,1.1123,1.1123,1.1123,1.1123,1.1123,1.1123,1.1123,1.1123,1.1123,1.1094,1.1094,1.1094,1.1094,1.1094,1.1094,1.1094,1.1094,1.1094,1.1055,1.1094,1.1094,1.1094,1.1055,1.1123,1.1094,1.1055,1.1094,1.1094,1.1094,1.1094,1.1055,1.1055,1.1055,1.1055,1.1055,1.1016,1.1016,1.1055,1.1016,1.1055,1.1016,1.1016,1.1016,1.1016,1.0986,1.0986,1.0986,1.0986,1.0986,1.0986,1.0986,1.1016,1.1016,1.1025,1.0986,1.0986,1.0986,1.0986,1.0986,1.1025,1.1025,1.1025,1.1055,1.1055,1.1025,1.1055,1.1055,1.1055,1.1025,1.1025,1.1025,1.1133,1.1133,1.1133,1.1094,1.1094,1.1133,1.1133,1.1133,1.1133,1.1133,1.1133,1.1133,1.1133,1.1094,1.1094,1.1055,1.1055,1.0195,1.0166,1.0137,1.0137,1.0137,1.0107,1.0107,1.0107,1.0107,1.0107,1.0107,1.0078,1.0049,1.0049,1.002,1.002,1.002,1.002,1.002,1.002,1.002,1.002,0.99853,0.99853,0.99853,0.99853,0,0,0.99268,0.99268,0.99268,0.99268,0.98682,0.98438,0.98145,0.98145,0.97852,0.97852,0.97852,0.97559,0.97559,0.97266,0.97266,0.97022,0.97022,0.97022,0.97022,0.97022,0.97022,0.97315,0.97559,0.97559,0.97559,0.97559,0.97559,0.97852,0.97559,0.97559,0.97315,0.97022,0.97022,0.97022,0.97022,0.96728,0.96728,0.96728,0.97022,0.97022,0.97022,0.97022,0.97022,0.97022,0.96728,0.96728,0.96728,0.96728,0.96728,0.96728,0.97022,0.97852,0,1.0645,1.0645,1.0645,1.0645,1.0645,1.0645,1.0645,1.0615,1.0576,1.0615,1.0615,1.0615,1.0615,1.0615,1.0586,1.0586,1.0586,1.0586,1.0615,1.0576,1.0576,1.0576,1.0547,1.0547,1.0547,1.0547,1.0547,1.0547,1.0547,1.0547,1.0547,1.0547,1.0547,1.0547,0.97607,0.97607,0.97607,0.97315,0.9707,0.96484,0.9624,0.95947,0.95703,0.95166,0.95166,0.95166,0.95166,0.95166,0.95166,0.95166,0.9541,0.95703,0.95703,0.95703,0.95947,0.95947,0.95947,0.9624,0.9624,0.95947,0.9624,0.9624,0.9624,0.96533,0.96533,0.96533,0.9624,0.9624,0.9624,0.9624,0.9624,0.95947,0.95703,0.95703,0.9541,0.9541,0.95166,0.94922,0.94629,0.94385,0.94385,0.94385,0.94629,0.94629,0.94629,0.94922,0.95166,0.95166,0.95166,0.95166,0,1.0205,1.0146,1.0146,1.0146,1.0146,1.0146,1.0176,1.0146,1.0146,1.0146,1.0146,1.0146,1.0146,1.0117,1.0117,1.0117,1.0117,1.0117,1.0117,1.0117,1.0117,1.0088,1.0088,1.0088,1.0088,1.0088,1.0088,1.0117,1.0117,1.0117,1.0117,1.0146,1.0146,1.0146,0,1.0752,1.0752,0,0,0,0,1.459,1.459,1.459,1.4531,1.4531,1.4531,1.4531,1.4473,1.4473,0,0,1.8799,1.8906,1.8906,1.9014,1.8906,1.8799,1.8799,1.8691,1.8691,1.8594,1.8594,1.8691,1.8691,1.8691,1.8691,1.8691,1.8701,1.8701,1.8701,1.8594,1.8594,1.8594,1.8496,1.8496,1.8496,1.8496,1.8389,1.8389,1.8389,1.8398,1.8398,1.8398,1.8291,1.8291,1.8193,1.8193,1.8291,1.8291,1.8193,1.8193,1.8193,1.8193,1.8193,1.8105,0,0,0,0,0,0,0,0,0,0,0,0,0,0,0,0,0,0,0,0,0,0,0,0,0,0,0,0,0,0
1.0273,1.0273,1.0312,1.0312,1.0342,1.0342,1.0371,1.0371,1.0371,1.04,1.04,1.04,1.0439,1.0469,1.0439,1.0469,1.0469,1.0469,1.0498,1.0498,1.0498,1.0498,1.0537,1.0537,1.0566,1.0566,1.0596,1.0635,1.0635,1.0635,1.0635,1.0635,1.0635,1.0664,1.0703,1.0703,1.0703,1.0771,1.0771,1.0801,1.0801,1.0801,1.0801,1.0801,1.084,1.084,1.0869,1.0869,1.0869,1.0908,1.0908,1.0947,1.0947,1.0947,1.0977,1.0977,1.0977,1.1016,1.1016,1.1055,1.1055,1.1084,1.1123,1.1123,1.1123,1.1123,1.1123,1.1123,1.1123,1.1123,1.1123,1.1123,1.1123,1.1094,1.1094,1.1094,1.1055,1.1055,1.1055,1.1055,1.1055,1.1094,1.1094,1.1094,1.1094,1.1094,1.1094,1.1094,1.1094,1.1094,1.1094,1.1055,1.1055,1.1055,1.1055,1.1055,1.1055,1.1055,1.1094,1.1094,1.1094,1.1094,1.1094,1.1055,1.1094,1.1094,1.1055,1.1055,1.1094,1.1055,1.1055,1.1094,1.1055,1.1055,1.1055,1.1055,1.1055,1.1055,1.1055,1.1055,1.1055,1.1094,1.1055,1.1055,1.1055,1.1016,1.1016,1.1016,1.0986,1.1016,1.1016,1.1016,1.1016,1.1016,1.1016,1.0986,1.0986,1.0986,1.0986,1.0947,1.0947,1.0986,1.0986,1.0986,1.0986,1.0986,1.0986,1.0986,1.0986,1.0986,1.0986,1.0986,1.0986,1.0986,1.1025,1.1025,1.1025,1.1025,1.1025,1.1025,1.1025,1.1025,1.1025,1.1055,1.1055,1.1133,1.1133,1.1094,1.1094,1.1094,1.1094,1.1094,1.1094,1.1094,1.1094,1.1094,1.1094,1.1094,1.1094,1.1055,1.1025,1.1025,1.0166,1.0166,1.0137,1.0137,1.0137,1.0107,1.0107,1.0107,1.0107,1.0107,1.0107,1.0107,1.0078,1.0078,1.0049,1.0049,1.0049,1.002,1.002,1.002,1.002,1.002,1.002,1.002,1.002,0,1.085,1.085,0.9956,0.98975,0.98975,0.98975,0.98682,0.98438,0.98145,0.97852,0.97852,0.97852,0.97559,0.97559,0.97315,0.97315,0.97315,0.97315,0.97315,0.97022,0.97315,0.97559,0.97559,0.97852,0.97852,0.98145,0.98145,0.97852,0.98145,0.98145,0.97852,0.97852,0.97559,0.97559,0.97559,0.97315,0.97315,0.97022,0.96728,0.97022,0.97022,0.97022,0.97022,0.97022,0.97022,0.97022,0.96728,0.96777,0.96777,0.96777,0.96777,0.96777,0.97022,0.97022,0,1.0645,1.0645,1.0615,1.0615,1.0615,1.0615,1.0615,1.0586,1.0586,1.0615,1.0586,1.0586,1.0586,1.0586,1.0586,1.0586,1.0586,1.0586,1.0586,1.0547,1.0547,1.0518,1.0488,1.0488,1.0518,1.0518,1.0518,1.0518,1.0488,1.0518,1.0518,1.0518,1.0518,1.0518,0.97607,0.97607,0.97315,0.9707,0.96777,0.96484,0.9624,0.9624,0.95703,0.95703,0.95166,0.95166,0.95166,0.95166,0.9541,0.9541,0.95703,0.95703,0.95947,0.95947,0.95947,0.95947,0.9624,0.9624,0.9624,0.9624,0.96533,0.96533,0.96533,0.96777,0.96777,0.96533,0.96533,0.9624,0.96533,0.96533,0.9624,0.9624,0.95947,0.95996,0.95703,0.9541,0.95166,0.94922,0.94629,0.94385,0.94385,0.94385,0.94385,0.94629,0.94629,0.95166,0.95166,0.95166,0.94922,0,0,1.0176,1.0146,1.0146,1.0146,1.0146,1.0146,1.0146,1.0146,1.0117,1.0146,1.0117,1.0117,1.0117,1.0117,1.0117,1.0117,1.0088,1.0088,1.0088,1.0088,1.0088,1.0088,1.0088,1.0088,1.0088,1.0088,1.0088,1.0088,1.0117,1.0117,1.0117,1.0117,0,1.0859,1.082,1.0752,1.0723,1.0723,0,0,0,1.4473,1.4531,1.4473,1.4473,1.4473,1.4473,1.4473,1.4404,1.4404,1.4404,1.4473,1.4404,1.4287,1.4287,1.4287,1.4229,0,0,0,1.8691,1.8701,1.8594,1.8701,1.8701,1.8701,1.8594,1.8594,1.8594,1.8594,1.8594,1.8496,1.8496,1.8496,1.8496,1.8496,1.8496,1.8496,1.8398,1.8398,1.8398,1.8398,1.8398,1.8398,1.8291,1.8291,1.8291,1.8193,1.8193,1.8193,1.8193,1.8193,1.8105,1.8105,1.8105,1.8105,0,0,0,0,0,0,0,0,0,0,0,0,0,0,0,0,0,0,0,0,0,0,0,0,0,0,0,0,0,0
1.0273,1.0273,1.0312,1.0312,1.0342,1.0342,1.0371,1.0371,1.0371,1.04,1.04,1.04,1.0439,1.0469,1.0469,1.0469,1.0469,1.0498,1.0498,1.0498,1.0498,1.0498,1.0537,1.0566,1.0566,1.0566,1.0605,1.0635,1.0635,1.0635,1.0635,1.0635,1.0635,1.0703,1.0703,1.0732,1.0732,1.0771,1.0801,1.0801,1.0801,1.0801,1.0801,1.084,1.084,1.084,1.0879,1.0879,1.0908,1.0908,1.0947,1.0947,1.0947,1.0947,1.0977,1.0977,1.0977,1.1016,1.1016,1.1016,1.1055,1.1084,1.1084,1.1084,1.1084,1.1123,1.1123,1.1123,1.1123,1.1123,1.1123,1.1094,1.1094,1.1055,1.1055,1.1016,1.1016,1.1016,1.1055,1.1055,1.1055,1.1055,1.1055,1.1094,1.1094,1.1094,1.1055,1.1094,1.1055,1.1055,1.1055,1.1016,1.1016,1.1055,1.1055,1.1055,1.1016,1.1055,1.1055,1.1055,1.1055,1.1055,1.1055,1.1055,1.1055,1.1016,1.1016,1.1016,1.1016,1.1016,1.1016,1.1016,1.1016,1.1016,1.1016,1.1016,1.1055,1.1016,1.1055,1.1016,1.1055,1.1094,1.1055,1.1055,1.1055,1.1016,1.1016,1.1016,1.0986,1.0986,1.0986,1.0986,1.0986,1.0986,1.0986,1.0986,1.0986,1.0947,1.0947,1.0947,1.0947,1.0947,1.0947,1.0947,1.0986,1.0947,1.0947,1.0947,1.0947,1.0947,1.0947,1.0918,1.0947,1.0986,1.0986,1.1025,1.1025,1.1025,1.1025,1.1025,1.1025,1.1025,1.1055,1.1055,1.1055,1.1094,1.1094,1.1094,1.1094,1.1094,1.1094,1.1094,1.1094,1.1094,1.1094,1.1094,1.1055,1.1055,1.1055,1.1025,1.1025,1.0986,1.0166,1.0166,1.0137,1.0137,1.0137,1.0137,1.0107,1.0107,1.0107,1.0107,1.0107,1.0107,1.0078,1.0078,1.0049,1.0049,1.0049,1.002,1.002,1.002,1.002,1.002,1.002,1.002,0,1.0811,1.0811,1.085,0.99853,0.99268,0.98975,0.98975,0.9873,0.98438,0.98145,0.97852,0.97852,0.97852,0.97559,0.97559,0.97559,0.97315,0.97315,0.97315,0.97315,0.97559,0.97559,0.97852,0.97852,0.97852,0.98145,0.98145,0.98438,0.98145,0.98438,0.98438,0.98145,0.98145,0.98145,0.98145,0.98145,0.97852,0.97852,0.97607,0.97315,0.97315,0.97022,0.97022,0.97022,0.97022,0.97022,0.97022,0.97022,0.97022,0.96777,0.96777,0.97022,0.96777,0.97022,0.97022,0,1.0615,1.0615,1.0615,1.0615,1.0615,1.0586,1.0586,1.0586,1.0547,1.0586,1.0586,1.0586,1.0586,1.0586,1.0547,1.0547,1.0547,1.0547,1.0547,1.0547,1.0518,1.0488,1.0488,1.0449,1.0449,1.0449,1.0449,1.0449,1.0449,1.0449,1.0449,1.0488,1.0488,1.0488,0.97315,0.97315,0.9707,0.9707,0.96777,0.96484,0.96484,0.9624,0.95947,0.95947,0.9541,0.9541,0.9541,0.9541,0.95703,0.95703,0.95703,0.95947,0.95947,0.95947,0.9624,0.9624,0.9624,0.9624,0.9624,0.96533,0.96533,0.96777,0.96777,0.96777,0.9707,0.96777,0.96777,0.96533,0.96777,0.96533,0.96533,0.9624,0.95996,0.95996,0.95703,0.95459,0.95166,0.95166,0.94629,0.94629,0.94385,0.94385,0.94629,0.94629,0.94922,0.95166,0.95166,0.95166,0.94922,0,1.0176,1.0146,1.0117,1.0117,1.0117,1.0117,1.0117,1.0146,1.0117,1.0117,1.0117,1.0117,1.0088,1.0117,1.0088,1.0088,1.0088,1.0088,1.0088,1.0088,1.0088,1.0088,1.0088,1.0088,1.0088,1.0088,1.0088,1.0088,1.0088,1.0088,1.0117,0,1.0859,1.082,1.0791,1.0752,1.0752,1.0723,1.0723,0,0,0,1.4531,1.4531,1.4531,1.4531,1.4473,1.4473,1.4473,1.4404,1.4473,1.4404,1.4346,1.4346,1.4287,1.4229,1.4229,1.4229,1.4229,1.4229,0,0,1.8594,1.8594,1.8701,1.8701,1.8701,1.8594,1.8701,1.8594,1.8594,1.8594,1.8496,1.8496,1.8496,1.8398,1.8398,1.8398,1.8398,1.8291,1.8398,1.8291,1.8291,1.8301,1.8193,1.8193,1.8193,1.8203,1.8203,1.8203,1.8203,1.8203,1.8105,1.8105,1.8105,1.8105,1.8105,0,0,0,0,0,0,0,0,0,0,0,0,0,0,0,0,0,0,0,0,0,0,0,0,0,0,0,0,0,0
1.0283,1.0283,1.0312,1.0312,1.0342,1.0342,1.0371,1.0371,1.04,1.04,1.04,1.041,1.0439,1.0439,1.0439,1.0469,1.0469,1.0498,1.0498,1.0498,1.0498,1.0498,1.0537,1.0566,1.0566,1.0566,1.0605,1.0635,1.0635,1.0635,1.0635,1.0635,1.0635,1.0703,1.0703,1.0703,1.0732,1.0801,1.0801,1.0801,1.0801,1.0801,1.0801,1.084,1.084,1.084,1.0879,1.0879,1.0908,1.0908,1.0947,1.0947,1.0947,1.0947,1.0977,1.0977,1.0977,1.1016,1.1016,1.1055,1.1055,1.1094,1.1094,1.1094,1.1094,1.1094,1.1094,1.1123,1.1123,1.1094,1.1094,1.1055,1.1016,1.1016,1.1016,1.1016,1.1016,1.1016,1.1016,1.1016,1.1016,1.1016,1.1055,1.1055,1.1055,1.1055,1.1016,1.1055,1.1016,1.1016,1.0986,1.0986,1.0986,1.1016,1.1016,1.1016,1.1016,1.1016,1.1055,1.1055,1.1055,1.1055,1.1055,1.1016,1.1016,1.1016,1.0986,1.0986,1.0986,1.0986,1.1016,1.1016,1.1016,1.1016,1.1016,1.1016,1.1016,1.1016,1.1025,1.1025,1.1025,1.1025,1.1025,1.1025,1.1016,1.1025,1.1025,1.0986,1.0986,1.0986,1.0947,1.0947,1.0947,1.0947,1.0986,1.0986,1.0986,1.0986,1.0947,1.0947,1.0947,1.0947,1.0918,1.0918,1.0947,1.0879,1.0918,1.0918,1.0879,1.0918,1.0879,1.0918,1.0918,1.0947,1.0947,1.0986,1.1025,1.1025,1.1025,1.1025,1.1025,1.1025,1.1055,1.1055,1.1055,1.1055,1.1094,1.1094,1.1094,1.1055,1.1094,1.1094,1.1094,1.1055,1.1055,1.1055,1.1064,1.1025,1.1025,1.1025,1.0986,1.0957,1.0957,1.0166,1.0137,1.0137,1.0107,1.0107,1.0107,1.0137,1.0107,1.0107,1.0107,1.0107,1.0078,1.0078,1.0049,1.0049,1.0049,1.002,1.002,1.002,1.002,1.002,1.002,1.002,0,1.0811,1.0811,1.0811,0.99268,0.9873,0.9873,0.9873,0.98438,0.98145,0.98145,0.97852,0.97852,0.97852,0.97559,0.97559,0.97559,0.97559,0.97315,0.97607,0.97607,0.97607,0.97852,0.98145,0.98145,0.98438,0.98438,0.98438,0.9873,0.98438,0.9873,0.9873,0.98438,0.98438,0.98438,0.98438,0.98438,0.98145,0.98145,0.97852,0.97607,0.97607,0.97315,0.97315,0.97022,0.97022,0.97022,0.97022,0.97022,0.97022,0.97022,0.97022,0.97022,0.97022,0.97315,0.97315,0,1.0586,1.0586,1.0586,1.0586,1.0586,1.0547,1.0547,1.0547,1.0547,1.0547,1.0547,1.0547,1.0547,1.0547,1.0547,1.0547,1.0547,1.0547,1.0547,1.0518,1.0488,1.0449,1.0449,1.0449,1.0449,1.042,1.042,1.0449,1.042,1.042,1.042,1.042,1.042,1.0449,1.0449,0.97363,0.97363,0.9707,0.96777,0.96777,0.96533,0.9624,0.9624,0.95947,0.95947,0.95947,0.95703,0.95703,0.95703,0.95947,0.95947,0.95947,0.9624,0.9624,0.9624,0.9624,0.96533,0.96533,0.96533,0.96777,0.9707,0.9707,0.9707,0.9707,0.9707,0.9707,0.96777,0.96777,0.96777,0.96777,0.96533,0.9624,0.9624,0.95996,0.95703,0.95703,0.95459,0.95166,0.95166,0.94922,0.94629,0.94629,0.94629,0.94629,0.94922,0.94922,0.95166,0.95166,0.95166,1.0117,1.0146,1.0146,1.0117,1.0117,1.0117,1.0117,1.0117,1.0117,1.0117,1.0117,1.0117,1.0117,1.0088,1.0088,1.0088,1.0088,1.0088,1.0088,1.0088,1.0088,1.0059,1.0059,1.0059,1.0059,1.0059,1.0059,1.0088,1.0088,1.0088,1.0088,1.0117,1.0117,0,1.0723,1.0752,1.0723,1.0723,1.0684,1.0684,1.0684,0,0,0,0,1.4404,1.4473,1.4404,1.4473,1.4473,1.4414,1.4414,1.4287,1.4287,1.4346,1.4287,1.4229,1.4229,1.4229,1.4229,1.4287,1.4229,1.4229,1.4346,1.4414,0,1.8701,1.8594,1.8594,1.8701,1.8701,1.8594,1.8594,1.8496,1.8496,1.8398,1.8398,1.8398,1.8398,1.8301,1.8301,1.8301,1.8301,1.8203,1.8203,1.8203,1.8203,1.8203,1.8203,1.8203,1.8203,1.8203,1.8203,1.8105,1.8105,1.8105,1.8105,1.8105,0,0,0,0,0,0,0,0,0,0,0,0,0,0,0,0,0,0,0,0,0,0,0,0,0,0,0,0,0,0
1.0283,1.0283,1.0312,1.0312,1.0342,1.0371,1.0371,1.0371,1.041,1.041,1.041,1.041,1.0439,1.0439,1.0439,1.0469,1.0469,1.0498,1.0498,1.0498,1.0508,1.0537,1.0537,1.0566,1.0566,1.0537,1.0605,1.0605,1.0635,1.0635,1.0635,1.0635,1.0635,1.0674,1.0703,1.0703,1.0732,1.0771,1.0801,1.0801,1.0801,1.0801,1.0801,1.084,1.084,1.084,1.0879,1.0879,1.0908,1.0947,1.0947,1.0947,1.0947,1.0977,1.0977,1.0977,1.0977,1.1016,1.1016,1.1055,1.1055,1.1055,1.1094,1.1094,1.1094,1.1094,1.1094,1.1094,1.1094,1.1094,1.1055,1.1016,1.0986,1.0986,1.1016,1.0986,1.0986,1.0986,1.0986,1.0986,1.0986,1.0986,1.0986,1.1016,1.1016,1.0986,1.0986,1.1016,1.0986,1.0986,1.0986,1.0986,1.0986,1.1016,1.1016,1.1016,1.0986,1.1016,1.1016,1.1016,1.1055,1.1055,1.1016,1.1016,1.0986,1.0986,1.0986,1.0986,1.0986,1.0986,1.0986,1.0986,1.1025,1.0986,1.1025,1.0986,1.0986,1.0986,1.1025,1.0986,1.0986,1.0986,1.0986,1.0947,1.0986,1.0986,1.0947,1.0947,1.0947,1.0947,1.0947,1.0947,1.0947,1.0918,1.0879,1.0879,1.0879,1.0918,1.0918,1.0879,1.0879,1.0879,1.0879,1.0879,1.0918,1.0879,1.0918,1.0879,1.0879,1.0879,1.0879,1.0879,1.0918,1.0947,1.0947,1.0986,1.1025,1.1025,1.1025,1.1025,1.1025,1.1025,1.1055,1.1055,1.1055,1.1055,1.1094,1.1094,1.1094,1.1064,1.1094,1.1094,1.1064,1.1064,1.1064,1.1025,1.1025,1.1025,1.0986,1.0986,1.0986,1.0957,1.0957,1.0918,1.0918,1.0918,1.0107,1.0107,1.0107,1.0137,1.0137,1.0137,1.0137,1.0107,1.0107,1.0078,1.0078,1.0049,1.0049,1.002,1.002,1.002,1.0049,1.002,1.002,0,1.0811,1.0811,1.0811,0.9956,0.99268,0.9873,0.9873,0.9873,0.98438,0.98145,0.98145,0.97852,0.97852,0.97852,0.97852,0.97607,0.97607,0.97607,0.97607,0.97607,0.97607,0.97852,0.98145,0.98145,0.98438,0.98438,0.9873,0.9873,0.9873,0.9873,0.99023,0.99023,0.9873,0.9873,0.9873,0.9873,0.98438,0.98145,0.98145,0.97852,0.97852,0.979,0.97607,0.97315,0.97315,0.97315,0.97315,0.97022,0.97315,0.97315,0.97022,0.97315,0.97315,0.97315,0.97315,0.97315,0,1.0547,1.0547,1.0547,1.0547,1.0547,1.0547,1.0518,1.0518,1.0518,1.0547,1.0547,1.0547,1.0547,1.0547,1.0547,1.0547,1.0547,1.0547,1.0547,1.0518,1.0488,1.0449,1.042,1.042,1.042,1.042,1.042,1.042,1.042,1.042,1.042,1.042,1.042,1.042,1.042,0.9707,0.9707,0.9707,0.96777,0.96777,0.96533,0.9624,0.9624,0.9624,0.95996,0.95996,0.95996,0.95996,0.95996,0.95996,0.95996,0.95996,0.9624,0.9624,0.96533,0.96533,0.96533,0.96533,0.96777,0.96777,0.9707,0.9707,0.9707,0.9707,0.9707,0.9707,0.9707,0.96777,0.9707,0.96826,0.96533,0.96533,0.9624,0.9624,0.95996,0.95703,0.95459,0.95166,0.95166,0.94922,0.94629,0.94629,0.94922,0.94922,0.94922,0.95166,0.95166,0.94922,0,1.0117,1.0146,1.0117,1.0117,1.0117,1.0117,1.0117,1.0117,1.0117,1.0117,1.0117,1.0117,1.0088,1.0088,1.0088,1.0088,1.0088,1.0088,1.0088,1.0088,1.0088,1.0059,1.0059,1.0059,1.0059,1.0059,1.0059,1.0059,1.0088,1.0088,1.0088,1.0117,0,1.0654,1.0654,1.0723,1.0693,1.0693,1.0693,1.0654,1.0723,1.0723,1.0723,0,0,0,0,1.4287,1.4287,1.4473,1.4473,1.4414,1.4287,1.4287,1.4287,1.4287,1.4287,1.4229,1.4229,1.4287,1.4287,1.4287,1.4287,1.4346,1.4346,1.4229,1.4229,1.4111,1.417,1.8799,1.8701,1.8594,1.8496,1.8496,1.8496,1.8398,1.8398,1.8398,1.8398,1.8301,1.8203,1.8301,1.8203,1.8203,1.8105,1.8105,1.8203,1.8203,1.8203,1.8105,1.8105,1.8105,1.8105,1.8105,1.8105,1.8105,1.8105,1.8008,0,0,0,0,0,0,0,0,0,0,0,0,0,0,0,0,0,0,0,0,0,0,0,0,0,0,0,0,0,0
1.0283,1.0283,1.0312,1.0312,1.0342,1.0371,1.0371,1.0371,1.041,1.041,1.041,1.041,1.0439,1.0469,1.0469,1.0469,1.0508,1.0508,1.0508,1.0508,1.0508,1.0537,1.0537,1.0566,1.0566,1.0566,1.0635,1.0635,1.0635,1.0635,1.0635,1.0635,1.0635,1.0703,1.0703,1.0703,1.0732,1.0771,1.0811,1.0811,1.0811,1.0811,1.0811,1.084,1.084,1.084,1.0879,1.0879,1.0908,1.0947,1.0947,1.0947,1.0947,1.0947,1.0986,1.0986,1.0986,1.0986,1.1016,1.1016,1.1055,1.1055,1.1055,1.1055,1.1055,1.1055,1.1016,1.1055,1.1055,1.1055,1.1016,1.0986,1.0986,1.0986,1.0986,1.0986,1.0986,1.0986,1.0986,1.0986,1.0986,1.0986,1.0947,1.0986,1.0986,1.0986,1.0986,1.0986,1.0986,1.0947,1.0947,1.0947,1.0947,1.0986,1.0986,1.0986,1.0986,1.0986,1.1016,1.1016,1.1016,1.1016,1.0986,1.0986,1.0986,1.0986,1.0986,1.0986,1.0986,1.0947,1.0947,1.0986,1.0986,1.0986,1.0986,1.0986,1.0986,1.0947,1.0986,1.0986,1.0947,1.0947,1.0947,1.0918,1.0947,1.0947,1.0947,1.0947,1.0947,1.0947,1.0918,1.0918,1.0918,1.0918,1.0879,1.0879,1.085,1.0879,1.0879,1.0879,1.0879,1.085,1.085,1.0879,1.0879,1.0879,1.0879,1.0879,1.0879,1.0879,1.0879,1.0879,1.0879,1.0918,1.0918,1.0918,1.0986,1.0986,1.1025,1.1025,1.1025,1.1064,1.1064,1.1064,1.1064,1.1064,1.1064,1.1064,1.1064,1.1064,1.1064,1.1064,1.1064,1.1064,1.1025,1.1025,1.1025,1.0986,1.0986,1.0986,1.0957,1.0957,1.0918,1.0918,1.0918,1.0918,1.0879,1.0879,1.0889,1.0137,0,1.085,1.085,1.085,1.085,1.085,1.0049,1.0078,1.0078,1.0049,1.0049,1.0049,0,1.0811,1.0811,1.082,1.082,1.082,1.082,0.99609,0.99316,0.99023,0.9873,0.9873,0.98438,0.98438,0.98145,0.97852,0.97852,0.97852,0.97607,0.97607,0.97607,0.97315,0.97607,0.97607,0.97607,0.97852,0.98438,0.98438,0.9873,0.9873,0.99023,0.99023,0.99023,0.99023,0.99023,0.99023,0.99023,0.99023,0.99023,0.99023,0.99023,0.9873,0.9873,0.98438,0.98145,0.979,0.97607,0.97607,0.97315,0.97315,0.97315,0.97022,0.97315,0.97607,0.97315,0.97607,0.97607,0.97315,0.97607,0.97315,0,1.0518,1.0547,1.0547,1.0518,1.0518,1.0518,1.0518,1.0518,1.0518,1.0547,1.0518,1.0518,1.0518,1.0518,1.0518,1.0518,1.0518,1.0518,1.0518,1.0449,1.0449,1.042,1.042,1.042,1.042,1.042,1.042,1.042,1.042,1.0391,1.0391,1.0391,1.0391,1.0391,1.0391,1.0391,0.9707,0.9707,0.96777,0.96777,0.96777,0.96533,0.9624,0.9624,0.95996,0.95996,0.95996,0.95703,0.95996,0.95996,0.95996,0.9624,0.96533,0.96533,0.96826,0.96826,0.96777,0.96777,0.9707,0.9707,0.9707,0.9707,0.9707,0.97363,0.9707,0.9707,0.9707,0.96826,0.9707,0.96826,0.96533,0.96533,0.9624,0.9624,0.95996,0.95703,0.95459,0.95166,0.95166,0.95166,0.94922,0.94678,0.94922,0.94922,0.94922,0.95166,0.95166,0.94922,0,1.0117,1.0117,1.0117,1.0117,1.0117,1.0088,1.0117,1.0088,1.0088,1.0088,1.0088,1.0088,1.0088,1.0088,1.0088,1.0088,1.0088,1.0088,1.0088,1.0088,1.0059,1.0059,1.0059,1.0059,1.0059,1.0059,1.0059,1.0059,0,1.0557,1.0527,1.0527,1.0488,1.0488,1.0586,1.0654,1.0654,1.0654,1.0654,1.0654,1.0693,1.0723,1.0723,1.0693,1.0693,0,0,0,0,1.4414,1.4346,1.4346,1.4287,1.4287,1.4287,1.4287,1.4287,1.4229,1.4287,1.4287,1.4287,1.4287,1.4287,1.4287,1.4287,1.4229,1.4229,1.4111,1.4111,1.4111,1.4111,1.417,1.8496,1.8398,1.8496,1.8398,1.8301,1.8398,1.8398,1.8203,1.8203,1.8203,1.8203,1.8105,1.8105,1.8105,1.8203,1.8203,1.8105,1.8105,1.8105,1.8105,1.8105,1.8105,1.8105,1.8105,1.8105,1.8008,0,0,0,0,0,0,0,0,0,0,0,0,0,0,0,0,0,0,0,0,0,0,0,0,0,0,0,0,0,0
1.0283,1.0283,1.0312,1.0312,1.0342,1.0371,1.0371,1.041,1.041,1.041,1.041,1.041,1.0439,1.0469,1.0469,1.0508,1.0508,1.0508,1.0508,1.0508,1.0537,1.0508,1.0537,1.0537,1.0566,1.0566,1.0635,1.0635,1.0635,1.0635,1.0674,1.0674,1.0674,1.0703,1.0742,1.0742,1.0771,1.0771,1.0811,1.0811,1.084,1.084,1.084,1.084,1.084,1.0879,1.0879,1.0908,1.0908,1.0947,1.0947,1.0947,1.0947,1.0986,1.0986,1.0986,1.0986,1.0986,1.1016,1.1016,1.1055,1.1055,1.1055,1.1055,1.1016,1.1016,1.1016,1.1016,1.1016,1.1016,1.0986,1.0986,1.0986,1.0986,1.0986,1.0986,1.0986,1.0986,1.0986,1.0947,1.0947,1.0947,1.0947,1.0986,1.0986,1.0986,1.0986,1.0986,1.0947,1.0947,1.0918,1.0947,1.0947,1.0986,1.0986,1.0986,1.0986,1.0947,1.0947,1.0947,1.0947,1.0947,1.0947,1.0947,1.0947,1.0947,1.0986,1.0986,1.0947,1.0947,1.0947,1.0986,1.0986,1.0986,1.0986,1.0947,1.0947,1.0947,1.0947,1.0947,1.0918,1.0918,1.0918,1.0879,1.0947,1.0947,1.0947,1.0947,1.0918,1.0918,1.0918,1.0918,1.0918,1.0879,1.085,1.085,1.085,1.0879,1.0879,1.085,1.085,1.085,1.085,1.085,1.085,1.0811,1.0811,1.085,1.085,1.085,1.085,1.0879,1.0879,1.0918,1.0918,1.0957,1.0986,1.1025,1.1025,1.1025,1.1064,1.1064,1.1064,1.1064,1.1064,1.1064,1.1064,1.1064,1.1064,1.1064,1.1064,1.1064,1.1025,1.1025,1.1025,1.0986,1.0986,1.0986,1.0957,1.0957,1.0957,1.0918,1.0918,1.0918,1.0918,1.0889,1.0889,1.0889,1.0889,1.085,1.085,1.085,1.085,1.085,1.085,1.0811,1.0811,1.0811,1.082,1.0781,1.0781,1.0781,1.0781,1.0781,1.082,1.082,1.082,1.0781,1.0781,0.99609,0.99609,0.99023,0.99023,0.9873,0.9873,0.98438,0.98145,0.97852,0.97852,0.97852,0.97607,0.97607,0.97607,0.97607,0.97607,0.979,0.979,0.98145,0.98438,0.9873,0.99023,0.99023,0.99023,0.99023,0.99316,0.99316,0.99316,0.99316,0.99316,0.99316,0.99316,0.99316,0.99316,0.99023,0.9873,0.98438,0.98193,0.98193,0.979,0.97607,0.97607,0.97607,0.97607,0.97315,0.97607,0.97607,0.97607,0.97607,0.97607,0.97607,0.97607,0.97607,0,1.0518,1.0518,1.0518,1.0518,1.0488,1.0488,1.0488,1.0488,1.0488,1.0518,1.0518,1.0518,1.0518,1.0518,1.0488,1.0488,1.0488,1.0488,1.0488,1.0449,1.042,1.042,1.0391,1.0391,1.0391,1.0391,1.0391,1.0391,1.0391,1.0391,1.0361,1.0361,1.0361,1.0361,1.0361,1.0361,1.0391,0.9707,0.96777,0.96777,0.96777,0.96777,0.96533,0.9624,0.9624,0.95996,0.95996,0.95996,0.95996,0.9624,0.9624,0.96533,0.96533,0.96826,0.96826,0.9707,0.9707,0.9707,0.9707,0.9707,0.9707,0.97363,0.97363,0.97363,0.9707,0.9707,0.9707,0.96826,0.9707,0.96826,0.96533,0.96533,0.9624,0.9624,0.9624,0.95996,0.95703,0.95459,0.95459,0.95166,0.95166,0.94922,0.94922,0.95166,0.95166,0.95215,0.95215,0.95215,0,1.0117,1.0117,1.0117,1.0088,1.0088,1.0088,1.0117,1.0088,1.0088,1.0088,1.0088,1.0088,1.0088,1.0088,1.0088,1.0088,1.0088,1.0059,1.0059,1.0059,1.0088,1.0059,1.0059,1.0059,1.0088,1.0088,1.0088,0,1.0557,1.0557,1.0488,1.0488,1.0488,1.0527,1.0557,1.0586,1.0625,1.0625,1.0654,1.0654,1.0693,1.0723,1.0693,1.0693,1.0654,1.0654,0,0,0,0,1.4346,1.4287,1.4229,1.4287,1.4287,1.4287,1.4287,1.4287,1.4287,1.4287,1.4287,1.4287,1.4287,1.4229,1.4229,1.4229,1.4229,1.417,1.417,1.417,1.417,1.417,1.4111,1.4053,1.417,1.417,1.8301,1.8398,1.8398,1.8203,1.8203,1.8203,1.8203,1.8105,1.8105,1.8105,1.8105,1.8105,1.8008,1.8008,1.8008,1.8105,1.8105,1.8008,1.8105,1.8105,1.8105,1.8008,0,0,0,0,0,0,0,0,0,0,0,0,0,0,0,0,0,0,0,0,0,0,0,0,0,0,0,0,0,0
1.0283,1.0283,1.0312,1.0312,1.0342,1.0371,1.0371,1.0371,1.041,1.041,1.041,1.0439,1.0439,1.0469,1.0469,1.0508,1.0508,1.0508,1.0508,1.0508,1.0508,1.0508,1.0537,1.0537,1.0537,1.0566,1.0566,1.0605,1.0635,1.0635,1.0674,1.0674,1.0674,1.0703,1.0742,1.0742,1.0771,1.0811,1.0811,1.0811,1.084,1.084,1.084,1.084,1.084,1.084,1.084,1.0879,1.0908,1.0908,1.0947,1.0947,1.0947,1.0947,1.0947,1.0986,1.0986,1.1016,1.1016,1.0986,1.1094,1.1055,1.1055,1.1055,1.1016,1.0986,1.0986,1.0986,1.0986,1.0986,1.0947,1.0947,1.0947,1.0986,1.0986,1.0986,1.0947,1.0947,1.0947,1.0918,1.0918,1.0918,1.0918,1.0947,1.0947,1.0947,1.0947,1.0947,1.0918,1.0918,1.0918,1.0879,1.0918,1.0947,1.0947,1.0947,1.0947,1.0947,1.0947,1.0918,1.0918,1.0918,1.0918,1.0918,1.0947,1.0947,1.0947,1.0947,1.0947,1.0918,1.0918,1.0918,1.0947,1.0947,1.0947,1.0947,1.0918,1.0918,1.0918,1.0879,1.0879,1.0879,1.0879,1.0879,1.0879,1.085,1.0879,1.0879,1.0918,1.0879,1.0879,1.0918,1.0918,1.0879,1.085,1.085,1.085,1.085,1.085,1.085,1.085,1.0811,1.085,1.0811,1.0811,1.0811,1.0811,1.0811,1.0811,1.085,1.085,1.0879,1.0879,1.0918,1.0918,1.0957,1.0957,1.0986,1.0986,1.1025,1.1025,1.1064,1.1025,1.1064,1.1025,1.1025,1.1025,1.1064,1.1064,1.1025,1.1025,1.1025,1.0986,1.1025,1.0986,1.0957,1.0957,1.0957,1.0957,1.0957,1.0957,1.0918,1.0918,1.0918,1.0889,1.0889,1.0889,1.0889,1.085,1.0811,1.085,1.082,1.085,1.085,1.082,1.082,1.082,1.082,1.082,1.082,1.082,1.082,1.082,1.082,1.0781,1.0781,1.0781,1.0781,1.0781,1.0781,0.99316,0.9873,0.9873,0.9873,0.9873,0.98438,0.98145,0.979,0.979,0.979,0.97607,0.979,0.97607,0.979,0.979,0.98145,0.98145,0.98438,0.99023,0.99023,0.99316,0.99023,0.99316,0.99316,0.99316,0.99316,0.99316,0.99316,0.99316,0.99316,0.99316,0.99316,0.99316,0.99023,0.99023,0.9873,0.98438,0.98193,0.979,0.97607,0.97607,0.97607,0.97607,0.97607,0.97607,0.979,0.97607,0.979,0.97607,0.97607,0.97607,0.97607,0,1.0518,1.0518,1.0518,1.0488,1.0488,1.0488,1.0488,1.0488,1.0488,1.0488,1.0488,1.0488,1.0488,1.0488,1.0449,1.0488,1.0449,1.0449,1.0449,1.042,1.0391,1.0391,1.0361,1.0361,1.0361,1.0361,1.0361,1.0391,1.0361,1.0361,1.0332,1.0332,1.0332,1.0332,1.0332,1.0332,1.0361,0.9707,0.96777,0.96826,0.96826,0.96826,0.96533,0.96533,0.96533,0.9624,0.9624,0.95996,0.9624,0.9624,0.9624,0.96533,0.96533,0.96826,0.9707,0.9707,0.9707,0.9707,0.9707,0.9707,0.97363,0.97363,0.97363,0.97363,0.97363,0.9707,0.9707,0.96826,0.9707,0.96826,0.96533,0.96533,0.96533,0.96289,0.96289,0.95996,0.95703,0.95703,0.95459,0.95459,0.95215,0.94922,0.95215,0.95215,0.95215,0.95215,0.95215,0,1.0117,1.0117,1.0117,1.0117,1.0088,1.0088,1.0088,1.0088,1.0088,1.0088,1.0088,1.0088,1.0088,1.0088,1.0088,1.0059,1.0059,1.0059,1.0059,1.0088,1.0088,1.0088,1.0059,1.0059,1.0088,1.0117,1.0117,1.0557,1.0557,1.0527,1.0527,1.0488,1.0488,1.0488,1.0527,1.0557,1.0557,1.0586,1.0625,1.0625,1.0625,1.0654,1.0625,1.0625,1.0625,1.0625,1.0557,0,1.0527,0,0,1.4355,1.4287,1.4287,0,1.4531,1.4229,1.4287,1.4355,1.4355,1.4355,1.4229,1.4287,1.4229,1.4229,1.4229,1.417,1.417,1.417,1.417,1.417,1.417,1.417,1.4111,1.4053,1.4053,1.4053,1.3994,1.3994,0,1.8203,1.8105,1.8105,1.8203,1.8105,1.8105,1.8105,1.8105,1.8105,1.8008,1.8008,1.8008,1.8008,1.8008,1.8008,1.8008,1.8008,1.8008,1.8008,0,0,0,0,0,0,0,0,0,0,0,0,0,0,0,0,0,0,0,0,0,0,0,0,0,0,0,0,0,0
1.0283,1.0283,1.0312,1.0312,1.0342,1.0371,1.0371,1.0371,1.041,1.041,1.041,1.0439,1.0439,1.0469,1.0469,1.0508,1.0508,1.0508,1.0508,1.0508,1.0508,1.0508,1.0508,1.0537,1.0537,1.0537,1.0566,1.0566,1.0635,1.0635,1.0674,1.0674,1.0703,1.0703,0,1.0771,1.0811,1.0811,1.084,1.0811,1.084,1.084,1.084,1.084,1.084,1.084,1.0879,1.0908,1.0908,1.0908,1.0947,1.0947,1.0947,1.0947,1.0947,1.0986,1.0986,1.0986,1.0986,1.0986,1.0986,1.0986,1.0986,1.0986,1.0986,1.0986,1.0947,1.0986,1.0986,1.0947,1.0947,1.0947,1.0947,1.0947,1.0947,1.0947,1.0947,1.0918,1.0918,1.0879,1.0879,1.0879,1.0879,1.0879,1.0879,1.0879,1.0918,1.0879,1.0879,1.0879,1.0879,1.085,1.0879,1.0918,1.0918,1.0918,1.0918,1.0918,1.0918,1.0918,1.0879,1.0918,1.0879,1.0918,1.0918,1.0918,1.0918,1.0918,1.0918,1.0918,1.0918,1.0918,1.0918,1.0918,1.0918,1.0879,1.0879,1.0879,1.0879,1.085,1.085,1.085,1.085,1.085,1.0879,1.0879,1.085,1.085,1.085,1.085,1.085,1.085,1.085,1.085,1.085,1.085,1.0811,1.085,1.085,1.085,1.0811,1.0811,1.0811,1.0811,1.0811,1.0781,1.0781,1.0811,1.0811,1.085,1.085,1.0879,1.0879,1.0918,1.0957,1.0957,1.0957,1.0957,1.0957,1.0986,1.1025,1.0986,1.1025,1.1025,1.1025,1.1025,1.1025,1.1025,1.1025,1.1025,1.0986,1.0957,1.0957,1.0957,1.0957,1.0918,1.0918,1.0918,1.0918,1.0918,1.0918,1.0918,1.0918,1.0889,1.0889,1.0889,1.0889,1.085,1.085,1.082,1.082,1.082,1.085,1.082,1.082,1.082,1.082,1.0781,1.0781,1.0781,1.0781,1.0781,1.0781,1.0781,1.0781,1.0781,1.0781,1.0752,1.0752,1.0752,0.99023,0.9873,0.9873,0.9873,0.9873,0.98438,0.98145,0.979,0.979,0.979,0.979,0.979,0.979,0.979,0.98145,0.98438,0.98438,0.9873,0.99023,0.99023,0.99316,0.99316,0.99316,0.99316,0.99609,0.99609,0.99609,0.99316,0.99609,0.99609,0.99609,0.99316,0.99316,0.99316,0.99023,0.9873,0.98486,0.98193,0.979,0.97607,0.97607,0.97607,0.97607,0.97607,0.97607,0.97607,0.979,0.979,0.979,0.979,0.979,0.979,0,1.042,1.0488,1.0488,1.0449,1.0449,1.0449,1.0449,1.0449,1.0449,1.0449,1.0449,1.0449,1.0449,1.0449,1.042,1.042,1.042,1.042,1.042,1.0391,1.0361,1.0361,1.0361,1.0361,1.0361,1.0361,1.0361,1.0361,1.0361,1.0332,1.0332,1.0293,1.0293,1.0293,1.0293,1.0293,1.0361,0.9707,0.96826,0.9707,0.96826,0.96826,0.96533,0.96533,0.9624,0.9624,0.9624,0.9624,0.9624,0.9624,0.96533,0.96533,0.96826,0.96826,0.9707,0.9707,0.9707,0.9707,0.9707,0.9707,0.97363,0.97363,0.97363,0.97363,0.97119,0.97119,0.97119,0.96826,0.96826,0.96826,0.96826,0.96533,0.96533,0.96289,0.95996,0.95996,0.95752,0.95752,0.95752,0.95459,0.95215,0.95215,0.95215,0.95215,0.95215,0.95215,0.94922,1.0088,1.0117,1.0117,1.0088,1.0088,1.0088,1.0088,1.0088,1.0088,1.0088,1.0088,1.0088,1.0088,1.0059,1.0088,1.0088,1.0059,1.0059,1.0088,1.0059,1.0088,1.0088,1.0088,1.0088,1.0088,1.0488,1.0459,1.0459,1.0488,1.0488,1.0488,1.0488,1.0488,1.0488,1.0488,1.0488,1.0527,1.0527,1.0586,1.0625,1.0625,1.0625,1.0625,1.0625,1.0625,1.0596,1.0596,1.0557,1.0557,0,0,0,0,1.4287,0,1.4414,1.4414,1.4355,1.4355,1.4414,1.4355,1.4355,1.4355,1.4355,1.4229,1.417,1.4229,1.417,1.417,1.417,1.4111,1.4111,1.4111,1.417,1.4111,1.4053,1.4111,1.4053,1.3994,1.3994,1.3945,0,0,1.8105,1.8105,1.8105,1.8008,1.8008,1.8008,1.8105,1.8008,1.8008,1.8008,1.8008,1.8008,1.8008,1.791,1.792,1.792,1.792,0,0,0,0,0,0,0,0,0,0,0,0,0,0,0,0,0,0,0,0,0,0,0,0,0,0,0,0,0,0
1.0283,1.0283,1.0312,1.0312,1.0342,1.0381,1.0381,1.0381,1.041,1.041,1.041,1.0439,1.0439,1.0469,1.0469,1.0508,1.0508,1.0508,1.0508,1.0508,1.0508,1.0508,1.0537,1.0537,1.0566,1.0566,1.0605,1.0605,1.0635,1.0635,1.0674,1.0674,1.0703,1.0703,0,1.0771,1.0811,1.0811,1.0811,1.0811,1.084,1.084,1.084,1.084,1.084,1.084,1.0879,1.0908,1.0908,1.0908,1.0947,1.0947,1.0947,1.0947,1.0947,1.0986,1.0986,1.0986,1.0986,1.0986,1.0986,1.0986,1.0986,1.0986,1.0947,1.0947,1.0947,1.0947,1.0947,1.0947,1.0918,1.0918,1.0918,1.0947,1.0918,1.0918,1.0918,1.0918,1.0879,1.084,1.084,1.084,1.085,1.0879,1.0879,1.0879,1.0879,1.0879,1.085,1.085,1.085,1.085,1.085,1.0879,1.0918,1.0918,1.0879,1.0918,1.0918,1.0879,1.0879,1.0879,1.0879,1.0879,1.0918,1.0918,1.0879,1.0918,1.0918,1.0879,1.0879,1.0879,1.0879,1.0879,1.0879,1.0879,1.0879,1.0879,1.085,1.085,1.085,1.085,1.085,1.085,1.0879,1.0879,1.085,1.0811,1.0811,1.085,1.0811,1.0811,1.0811,1.0811,1.0811,1.0811,1.0811,1.0811,1.085,1.0811,1.0811,1.0781,1.0811,1.0781,1.0811,1.0781,1.0781,1.0781,1.0811,1.085,1.085,1.0879,1.0889,1.0918,1.0918,1.0918,1.0957,1.0957,1.0957,1.0957,1.0957,1.0957,1.0986,1.0986,1.0986,1.0986,1.0986,1.0957,1.0957,1.0918,1.0889,1.0889,1.0918,1.0918,1.0918,1.0918,1.0918,1.0918,1.0889,1.0889,1.0889,1.0889,1.0889,1.0889,1.0889,1.085,1.085,1.085,1.085,1.082,1.082,1.082,1.082,1.082,1.082,1.0781,1.0781,1.0781,1.0781,1.0781,1.0781,1.0752,1.0752,1.0752,1.0781,1.0752,1.0752,1.0713,1.0713,1.0752,0.99023,0.9873,0.99023,0.9873,0.9873,0.98438,0.98438,0.98145,0.98145,0.979,0.979,0.98193,0.98193,0.98193,0.98438,0.9873,0.9873,0.99023,0.99316,0.99316,0.99609,0.99609,0.99609,0.99609,0.99609,0.99902,0.99609,0.99609,0.99609,0.99609,0.99609,0.99609,0.99316,0.99316,0.99316,0.99023,0.9873,0.98193,0.979,0.979,0.97607,0.97607,0.97607,0.97607,0.97607,0.979,0.979,0.979,0.979,0.979,0.979,0.979,0.979,0,1.042,1.042,1.042,1.042,1.042,1.042,1.042,1.042,1.042,1.042,1.042,1.042,1.042,1.0391,1.042,1.042,1.0391,1.0391,1.0361,1.0361,1.0332,1.0332,1.0332,1.0332,1.0332,1.0332,1.0361,1.0332,1.0332,1.0293,1.0293,1.0264,1.0264,1.0264,1.0293,1.0293,1.0293,0.9707,0.96826,0.96826,0.96826,0.96826,0.9624,0.96533,0.96533,0.96289,0.96289,0.96533,0.96533,0.96533,0.96826,0.96826,0.9707,0.9707,0.97119,0.97119,0.97119,0.97119,0.97363,0.97363,0.97363,0.97119,0.97363,0.97119,0.97119,0.97119,0.96826,0.96826,0.96826,0.96826,0.96533,0.96533,0.96289,0.96289,0.96289,0.95996,0.95752,0.95752,0.95459,0.95459,0.95215,0.95752,0.95459,0.95459,0,1.0059,1.0088,1.0088,1.0088,1.0088,1.0088,1.0088,1.0088,1.0088,1.0088,1.0088,1.0088,1.0088,1.0088,1.0088,1.0059,1.0059,1.0059,1.0059,1.0059,1.0059,1.0088,1.0088,1.0117,1.0088,1.0488,1.0488,1.0488,1.0459,1.0488,1.0488,1.0459,1.0459,1.0459,1.0488,1.0488,1.0488,1.0527,1.0557,1.0596,1.0625,1.0596,1.0596,1.0625,1.0625,1.0596,1.0596,1.0596,1.0557,1.0557,1.0527,0,0,0,1.4355,1.4414,1.4355,1.4355,1.4355,1.4355,1.4355,1.4355,1.4355,1.4355,1.4355,1.4229,1.417,1.4229,1.417,1.417,1.417,1.417,1.4111,1.4111,1.4111,1.4053,1.3994,1.4053,1.4053,1.3994,1.3945,1.3994,0,0,1.8105,1.8105,1.8105,1.8008,1.8008,1.8008,1.8008,1.8008,1.8008,1.792,1.792,1.792,1.792,1.7822,1.7822,1.792,1.7822,0,0,0,0,0,0,0,0,0,0,0,0,0,0,0,0,0,0,0,0,0,0,0,0,0,0,0,0,0,0
1.0283,1.0283,1.0312,1.0312,1.0342,1.0381,1.0381,1.0381,1.041,1.041,1.041,1.0439,1.0439,1.0469,1.0469,1.0508,1.0508,1.0508,1.0508,1.0508,1.0537,1.0537,1.0537,1.0537,1.0576,1.0576,1.0605,1.0605,1.0635,1.0635,1.0674,1.0703,1.0703,1.0703,1.0771,1.0771,1.0811,1.0811,1.084,1.0811,1.084,1.084,1.084,1.084,1.084,1.084,1.0879,1.0879,1.0908,1.0908,1.0908,1.0947,1.0947,1.0947,1.0947,1.0986,1.0986,1.0986,1.0986,1.0947,1.0947,1.0947,1.0918,1.0947,1.0918,1.0918,1.0918,1.0918,1.0918,1.0918,1.0918,1.0918,1.0918,1.0918,1.0918,1.0879,1.0879,1.0879,1.085,1.085,1.085,1.085,1.085,1.085,1.085,1.085,1.085,1.085,1.085,1.0811,1.085,1.0811,1.0811,1.0879,1.0879,1.0879,1.0879,1.0879,1.0879,1.0879,1.0879,1.085,1.085,1.0879,1.0879,1.0879,1.0879,1.0879,1.0879,1.0879,1.085,1.085,1.085,1.0879,1.0879,1.0879,1.0879,1.085,1.085,1.085,1.085,1.085,1.085,1.0811,1.085,1.085,1.0811,1.0781,1.0781,1.0781,1.0781,1.0781,1.0811,1.0811,1.0811,1.0811,1.0781,1.0811,1.085,1.0811,1.0811,1.0781,1.0811,1.0781,1.0811,1.0811,1.0811,1.0811,1.0811,1.085,1.085,1.0889,1.0889,1.0918,1.0918,1.0918,1.0918,1.0918,1.0918,1.0918,1.0918,1.0918,1.0957,1.0957,1.0918,1.0957,1.0918,1.0918,1.0918,1.0889,1.0889,1.0889,1.085,1.085,1.085,1.085,1.085,1.085,1.085,1.085,1.0889,1.0889,1.0889,1.085,1.085,1.082,1.082,1.082,1.082,1.0781,1.0781,1.0781,1.0781,1.0781,1.0781,1.0781,1.0781,1.0781,1.0781,1.0752,1.0752,1.0752,1.0752,1.0752,1.0752,1.0752,1.0713,1.0713,1.0684,1.0684,0.99023,0.99023,0.99023,0.99023,0.9873,0.9873,0.9873,0.98193,0.98193,0.98193,0.98193,0.98193,0.98193,0.98438,0.9873,0.99023,0.9873,0.99023,0.99316,0.99316,0.99609,0.99609,0.99609,0.99609,0.99902,0.99902,0.99902,0.99609,0.99902,0.99902,0.99902,0.99609,0.99609,0.99316,0.99316,0.99316,0.98779,0.98486,0.98193,0.979,0.979,0.979,0.979,0.97607,0.97607,0.979,0.979,0.979,0.979,0.979,0.979,0.97607,0.979,0,1.0459,1.042,1.042,1.042,1.042,1.042,1.042,1.0391,1.042,1.042,1.0391,1.0391,1.0391,1.0361,1.0391,1.0361,1.0361,1.0332,1.0332,1.0332,1.0332,1.0332,1.0332,1.0332,1.0332,1.0332,1.0332,1.0332,1.0293,1.0264,1.0264,1.0234,1.0234,1.0234,1.0264,1.0264,1.0264,1.0234,0.96826,0.96826,0.9707,0.96826,0.96826,0.96826,0.96533,0.96533,0.96533,0.96533,0.96533,0.96826,0.96826,0.96826,0.97119,0.97119,0.97119,0.97119,0.97119,0.97119,0.97119,0.97119,0.97119,0.97119,0.97119,0.97119,0.97119,0.96826,0.96533,0.96826,0.96826,0.96533,0.96533,0.96533,0.96289,0.96289,0.96289,0.95996,0.95752,0.95752,0.95752,0.95459,0.95459,0.95752,0.95459,0.95459,1.0029,1.0088,1.0059,1.0059,1.0088,1.0059,1.0088,1.0088,1.0088,1.0059,1.0088,1.0088,1.0088,1.0088,1.0088,1.0059,1.0059,1.0029,1.0029,1.0029,1.0059,1.0059,1.0088,1.0088,1.0088,1.0488,1.0488,1.0459,1.0459,1.0459,1.0459,1.0459,1.0459,1.0459,1.0459,1.0459,1.0459,1.0459,1.0527,1.0557,1.0557,1.0596,1.0596,1.0596,1.0596,1.0596,1.0596,1.0596,1.0557,1.0557,1.0527,1.0557,1.0557,0,0,1.4297,1.4414,1.4414,1.4473,1.4355,1.4414,1.4414,1.4355,1.4355,1.4297,1.4355,1.4229,1.417,1.4229,1.4229,1.417,1.417,1.417,1.417,1.4111,1.3945,1.3945,1.4004,1.4053,1.4004,1.4004,1.3945,1.3945,0,0,1.8008,1.8008,1.8008,1.792,1.792,1.792,1.8008,1.792,1.792,1.7822,1.7822,1.7822,1.7822,1.7822,1.7822,1.7822,1.7822,0,0,0,0,0,0,0,0,0,0,0,0,0,0,0,0,0,0,0,0,0,0,0,0,0,0,0,0,0,0
1.0283,1.0283,1.0312,1.0312,1.0342,1.0381,1.0381,1.0381,1.041,1.041,1.0439,1.0439,1.0469,1.0508,1.0508,1.0508,1.0508,1.0508,1.0508,1.0508,1.0508,1.0508,1.0537,1.0537,1.0576,1.0576,1.0605,1.0605,1.0635,1.0674,1.0674,1.0674,1.0674,1.0703,0,1.0811,1.0811,1.0811,1.0811,1.0811,1.084,1.084,1.084,1.084,1.084,1.084,1.0879,1.0879,1.0879,1.0918,1.0918,1.0918,1.0918,1.0918,1.0918,1.0947,1.0947,1.0947,1.0947,1.0918,1.0918,1.0918,1.0918,1.0918,1.0918,1.0918,1.0879,1.0918,1.0918,1.0918,1.0879,1.0879,1.0879,1.0879,1.0879,1.085,1.085,1.085,1.085,1.085,1.085,1.085,1.085,1.085,1.085,1.085,1.085,1.085,1.0811,1.0811,1.0811,1.0811,1.0811,1.085,1.085,1.085,1.085,1.0879,1.0879,1.085,1.085,1.085,1.085,1.0879,1.0879,1.085,1.085,1.085,1.085,1.085,1.085,1.085,1.085,1.085,1.0879,1.0879,1.085,1.085,1.085,1.085,1.085,1.0811,1.0811,1.0811,1.085,1.0781,1.0781,1.0781,1.0742,1.0781,1.0781,1.0781,1.0781,1.0742,1.0781,1.0781,1.0781,1.0811,1.0811,1.0811,1.0811,1.0781,1.0811,1.0781,1.0811,1.0811,1.0811,1.085,1.085,1.085,1.0889,1.0889,1.0889,1.0918,1.0918,1.0918,1.0918,1.0918,1.0918,1.0918,1.0918,1.0889,1.0918,1.0918,1.0918,1.0889,1.0889,1.0889,1.0889,1.0889,1.085,1.085,1.082,1.085,1.082,1.082,1.082,1.082,1.082,1.082,1.082,1.082,1.082,1.0781,1.0781,1.0781,1.0781,1.082,1.0781,1.0781,1.0781,1.0781,1.0781,1.0781,1.0752,1.0752,1.0752,1.0752,1.0752,1.0752,1.0752,1.0752,1.0713,1.0713,1.0713,1.0713,1.0684,1.0645,1.0645,1.0645,1.0645,0.99023,0.99023,0.99023,0.99023,0.99023,0.9873,0.98193,0.98193,0.98193,0.98193,0.98438,0.98486,0.98486,0.9873,0.99023,0.99023,0.99316,0.99316,0.99316,0.99609,0.99609,0.99902,0.99902,0.99902,0.99902,0.99902,0.99609,0.99902,0.99902,0.99609,0.99609,0.99609,0.99316,0.99316,0.99316,0.99072,0.98779,0.98486,0.98193,0.979,0.979,0.979,0.979,0.979,0.979,0.979,0.979,0.98193,0.979,0.979,0.97656,0.979,0,1.042,1.0391,1.0391,1.0391,1.0361,1.0391,1.0391,1.0391,1.042,1.0391,1.0391,1.0361,1.0361,1.0361,1.0361,1.0332,1.0332,1.0293,1.0293,1.0293,1.0293,1.0293,1.0293,1.0264,1.0264,1.0264,1.0332,1.0293,1.0264,1.0234,1.0234,1.0234,1.0205,1.0205,1.0205,1.0234,1.0264,1.0264,1.0205,0.97119,0.97119,0.96826,0.96826,0.96826,0.96826,0.96533,0.96533,0.96826,0.96826,0.96826,0.96826,0.96826,0.97119,0.97119,0.97119,0.97119,0.97119,0.97119,0.97119,0.97119,0.97119,0.97119,0.97119,0.97119,0.97119,0.96826,0.96533,0.96826,0.96826,0.96582,0.96582,0.96289,0.96289,0.96289,0.96289,0.95996,0.95996,0.95996,0.95752,0.95752,0.95459,0.95215,0,1.0088,1.0088,1.0088,1.0088,1.0059,1.0059,1.0059,1.0059,1.0059,1.0059,1.0059,1.0059,1.0088,1.0059,1.0088,1.0088,1.0059,1.0059,1.0029,1.0029,0,1.0488,1.0459,1.0459,1.0117,1.0459,1.0459,1.0459,1.0459,1.0459,1.0459,1.0459,1.0459,1.043,1.043,1.043,1.0459,1.0459,1.0459,1.0498,1.0527,1.0557,1.0557,1.0557,1.0557,1.0596,1.0596,1.0596,1.0557,1.0557,1.0527,1.0527,1.0527,0,0,0,0,0,0,1.4541,1.4473,1.4473,1.4473,1.4473,1.4473,1.4414,1.4355,0,0,1.4238,1.417,1.417,0,0,1.417,1.4053,1.4004,1.3945,1.4004,1.4062,1.4004,1.4004,1.3887,1.3887,0,0,1.792,1.792,1.792,1.792,1.792,1.792,1.792,1.792,1.7822,1.7822,1.7822,1.7822,1.7822,1.7822,1.7734,1.7734,1.7734,0,0,0,0,0,0,0,0,0,0,0,0,0,0,0,0,0,0,0,0,0,0,0,0,0,0,0,0,0,0
1.0283,1.0283,1.0312,1.0312,1.0342,1.0342,1.0381,1.0381,1.041,1.041,1.0439,1.0439,1.0479,1.0479,1.0508,1.0508,1.0508,1.0508,1.0508,1.0508,1.0508,1.0537,1.0537,1.0537,1.0576,1.0605,1.0605,1.0605,1.0635,1.0635,1.0674,1.0674,1.0674,1.0703,0,1.0811,1.0811,1.0811,1.0811,1.0811,1.084,1.084,1.084,1.084,1.084,1.084,1.084,1.0879,1.0879,1.0918,1.0918,1.0918,1.0918,1.0879,1.0879,1.0879,1.0879,1.0879,1.0879,1.085,1.085,1.085,1.085,1.0879,1.085,1.085,1.085,1.0879,1.0879,1.085,1.085,1.0879,1.0879,1.085,1.085,1.085,1.0811,1.085,1.0811,1.0811,1.0811,1.0811,1.0811,1.085,1.085,1.0811,1.085,1.0811,1.0811,1.0811,1.0811,1.0811,1.0811,1.085,1.085,1.085,1.085,1.085,1.0879,1.085,1.085,1.085,1.085,1.0879,1.085,1.0811,1.0811,1.0811,1.0811,1.0811,1.0811,1.0811,1.085,1.085,1.085,1.085,1.085,1.085,1.085,1.0811,1.0811,1.0811,1.0811,1.0781,1.0742,1.0781,1.0781,1.0742,1.0742,1.0742,1.0742,1.0742,1.0742,1.0742,1.0742,1.0781,1.0781,1.0811,1.085,1.0811,1.0811,1.0811,1.0811,1.0781,1.0811,1.0811,1.0811,1.085,1.085,1.085,1.0889,1.0889,1.0889,1.0918,1.0918,1.0918,1.0918,1.0918,1.0918,1.0889,1.0889,1.0889,1.0889,1.0889,1.0889,1.0889,1.0889,1.085,1.085,1.085,1.082,1.082,1.082,1.082,1.082,1.0781,1.0781,1.0781,1.0781,1.0781,1.0781,1.0781,1.0781,1.0781,1.0781,1.0781,1.0752,1.0752,1.0752,1.0752,1.0713,1.0752,1.0713,1.0752,1.0752,1.0752,1.0752,1.0752,1.0752,1.0752,1.0713,1.0713,1.0713,1.0684,1.0684,1.0684,1.0645,1.0645,1.0615,1.0615,1.0586,0.99023,0.99023,0.99023,0.99023,0.99023,0.99023,0.99023,0.98486,0.98486,0.98486,0.9873,0.98486,0.9873,0.9873,0.99023,0.99023,0.99316,0.99316,0.99316,0.99609,0.99609,0.99902,0.99902,0.99902,0.99902,0.99902,0.99609,0.99902,0.99609,0.99609,0.99609,0.99609,0.99365,0.99365,0.99365,0.99072,0.98779,0.98486,0.98193,0.98193,0.979,0.979,0.979,0.979,0.98193,0.98193,0.98193,0.98193,0.98193,0.979,0.979,0.979,1.0391,1.0391,1.0361,1.0361,1.0361,1.0361,1.0361,1.0332,1.0332,1.0361,1.0361,1.0361,1.0361,1.0332,1.0332,1.0332,1.0293,1.0293,1.0293,1.0293,1.0293,1.0293,1.0293,1.0264,1.0264,1.0264,1.0234,1.0234,1.0234,1.0205,1.0205,1.0205,1.0205,1.0205,1.0205,1.0205,1.0205,1.0205,1.0205,1.0205,0.97363,0.97119,0.96826,0.96826,0.96533,0.96826,0.96826,0.96826,0.96826,0.96826,0.96826,0.96826,0.96826,0.97119,0.97119,0.97119,0.97119,0.97119,0.97119,0.97119,0.97119,0.97119,0.97119,0.97119,0.97119,0.97119,0.96826,0.96582,0.96826,0.96826,0.96582,0.96582,0.96289,0.96289,0.96289,0.96289,0.96289,0.96289,0.96045,0.96045,0.95752,0.95752,0,1.0029,1.0029,1.0059,1.0059,1.0029,1.0029,1.0059,1.0059,1.0059,1.0059,1.0059,1.0059,1.0059,1.0088,1.0088,1.0088,1.0059,0,1.0488,1.0488,1.0488,1.0488,1.0488,1.0459,1.0488,1.0459,1.043,1.0459,1.043,1.043,1.043,1.043,1.043,1.043,1.043,1.043,1.0459,1.0459,1.0459,1.0498,1.0498,1.0527,1.0527,1.0557,1.0557,1.0557,1.0557,1.0557,1.0557,1.0557,1.0527,1.0527,1.0527,1.0527,0,0,0,0,0,0,1.46,1.4541,0,0,0,0,0,1.4355,0,0,0,1.4238,1.4238,0,0,0,1.418,1.3945,1.3945,1.4004,1.4062,1.4004,1.4004,1.3945,0,0,1.792,1.792,1.792,1.792,1.7822,1.7822,1.7822,1.7822,1.7822,1.7822,1.7822,1.7734,1.7822,1.7734,1.7734,1.7734,1.7734,1.7734,0,0,0,0,0,0,0,0,0,0,0,0,0,0,0,0,0,0,0,0,0,0,0,0,0,0,0,0,0,0
1.0283,1.0312,1.0312,1.0312,1.0342,1.0342,1.0381,1.0381,1.041,1.0439,1.0439,1.0439,1.0479,1.0479,1.0508,1.0508,1.0508,1.0508,1.0508,1.0508,1.0508,1.0537,1.0537,1.0576,1.0576,1.0605,1.0605,1.0605,1.0635,1.0635,1.0635,1.0674,1.0703,1.0703,0,1.0811,1.0811,1.0811,1.0811,1.0811,1.084,1.084,1.084,1.084,1.084,1.084,1.085,1.0879,1.0879,1.0879,1.0879,1.0879,1.0879,1.0879,1.085,1.085,1.0879,1.085,1.085,1.085,1.0811,1.085,1.085,1.085,1.085,1.085,1.085,1.085,1.085,1.085,1.085,1.085,1.085,1.0811,1.0811,1.0811,1.0811,1.0811,1.0811,1.0811,1.0811,1.0811,1.0811,1.0811,1.0811,1.0811,1.0811,1.0811,1.0811,1.0781,1.0781,1.0781,1.0781,1.0811,1.0811,1.0811,1.085,1.085,1.085,1.085,1.085,1.085,1.085,1.085,1.0811,1.0781,1.0781,1.0781,1.0781,1.0811,1.0811,1.0811,1.0811,1.0811,1.0811,1.0811,1.0811,1.0811,1.0781,1.0781,1.0781,1.0781,1.0742,1.0742,1.0742,1.0781,1.0781,1.0742,1.0742,1.0742,1.0742,1.0742,1.0713,1.0713,1.0742,1.0742,1.0742,1.0781,1.0811,1.0781,1.082,1.0781,1.082,1.0781,1.082,1.085,1.082,1.085,1.085,1.085,1.0889,1.085,1.0889,1.0918,1.0889,1.0889,1.0889,1.0889,1.0889,1.0889,1.0889,1.0889,1.0889,1.085,1.085,1.085,1.085,1.085,1.082,1.082,1.082,1.0781,1.0781,1.0781,1.0781,1.0781,1.0781,1.0781,1.0781,1.0781,1.0752,1.0752,1.0752,1.0752,1.0752,1.0752,1.0752,1.0713,1.0713,1.0713,1.0713,1.0713,1.0684,1.0684,1.0684,1.0713,1.0713,1.0713,1.0684,1.0684,1.0645,1.0684,1.0684,1.0645,1.0645,1.0645,1.0615,1.0615,1.0615,1.0615,1.0586,1.0586,0.99023,0.99023,0.99023,0.99316,0.99023,0.99023,0.9873,0.98486,0.98779,0.98779,0.98779,0.98779,0.99023,0.99023,0.99023,0.99316,0.99316,0.99072,0.99316,0.99609,0.99609,0.99902,0.99902,0.99902,0.99902,0.99951,0.99658,0.99658,0.99658,0.99658,0.99658,0.99365,0.99365,0.99365,0.99072,0.98779,0.98779,0.98193,0.98193,0.98193,0.98193,0.98193,0.98193,0.98193,0.98193,0.98193,0.98193,0.98193,0.979,0.979,0,1.0361,1.0361,1.0361,1.0332,1.0332,1.0332,1.0332,1.0293,1.0293,1.0332,1.0332,1.0332,1.0332,1.0332,1.0303,1.0303,1.0293,1.0303,1.0264,1.0303,1.0303,1.0264,1.0264,1.0234,1.0234,1.0234,1.0234,1.0205,1.0205,1.0205,1.0205,1.0205,1.0205,1.0205,1.0176,1.0176,1.0176,1.0176,1.0176,1.0176,1.0176,0.97119,0.97119,0.97119,0.97119,0.97119,0.96826,0.96826,0.96826,0.96826,0.96826,0.96826,0.97119,0.97119,0.97119,0.97119,0.97119,0.97119,0.97119,0.97119,0.97119,0.97119,0.97119,0.97119,0.97119,0.97119,0.96826,0.96582,0.96826,0.96826,0.96582,0.96582,0.96582,0.96582,0.96289,0.96289,0.96289,0.96045,0.96289,0.96045,0.96045,0.96045,0,1.0029,1.0059,1.0059,1.0029,1.0029,1.0029,1.0029,1.0029,1,1,1.0029,1,1.0029,1.0059,1.0088,1.0088,1.0088,1.0488,1.0498,1.0498,1.0459,1.0498,1.0498,1.0498,1.043,1.043,1.043,1.043,1.043,1.043,1.043,1.04,1.04,1.043,1.043,1.043,1.043,1.043,1.0459,1.0498,1.0498,1.0527,1.0527,1.0527,1.0557,1.0527,1.0557,1.0557,1.0557,1.0557,1.0527,1.0527,1.0527,0,0,0,0,0,0,0,1.4727,0,0,0,0,0,0,0,0,0,0,0,0,0,0,0,0,1.3945,1.3945,1.3945,1.4062,1.4004,1.4004,1.3945,0,0,1.792,1.792,1.792,1.7822,1.7822,1.7822,1.7822,1.7822,1.7822,1.7822,1.7734,1.7734,1.7734,1.7734,1.7734,1.7734,1.7734,1.7734,0,0,0,0,0,0,0,0,0,0,0,0,0,0,0,0,0,0,0,0,0,0,0,0,0,0,0,0,0,0
1.0312,1.0312,1.0312,1.0342,1.0342,1.0342,1.0381,1.0381,1.041,1.0439,1.0439,1.0479,1.0479,1.0508,1.0508,1.0508,1.0508,1.0508,1.0508,1.0508,1.0537,1.0537,1.0537,1.0576,1.0576,1.0605,1.0605,1.0605,1.0605,1.0645,1.0645,1.0674,1.0703,1.0703,0,1.0811,1.0811,1.0811,1.0811,1.0811,1.085,1.085,1.085,1.085,1.085,1.085,1.085,1.085,1.085,1.0879,1.085,1.085,1.085,1.0879,1.085,1.085,1.085,1.085,1.085,1.085,1.0811,1.085,1.085,1.085,1.0811,1.0811,1.0811,1.085,1.085,1.085,1.0811,1.0811,1.0811,1.0811,1.0811,1.0811,1.0811,1.0781,1.0781,1.0781,1.0781,1.0781,1.0781,1.0811,1.0781,1.0781,1.0781,1.0781,1.0781,1.0742,1.0742,1.0742,1.0742,1.0781,1.0781,1.0781,1.0811,1.0811,1.0811,1.0811,1.0811,1.0811,1.0811,1.0811,1.0811,1.0781,1.0781,1.0742,1.0781,1.0781,1.0781,1.0781,1.0781,1.0781,1.0781,1.0781,1.0742,1.0742,1.0742,1.0742,1.0742,1.0742,1.0742,1.0742,1.0742,1.0742,1.0742,1.0742,1.0742,1.0713,1.0713,1.0742,1.0713,1.0713,1.0713,1.0742,1.0752,1.0752,1.0752,1.0781,1.0781,1.0752,1.0752,1.082,1.085,1.082,1.082,1.085,1.085,1.085,1.085,1.085,1.085,1.0889,1.0889,1.0889,1.0889,1.0889,1.0889,1.0889,1.085,1.085,1.085,1.085,1.085,1.082,1.082,1.082,1.082,1.0781,1.0781,1.0781,1.0781,1.0781,1.0752,1.0752,1.0752,1.0752,1.0752,1.0752,1.0752,1.0752,1.0713,1.0713,1.0713,1.0713,1.0684,1.0684,1.0684,1.0684,1.0684,1.0684,1.0645,1.0645,1.0654,1.0654,1.0654,1.0654,1.0654,1.0654,1.0654,1.0615,1.0615,1.0615,1.0615,1.0615,1.0586,1.0615,1.0615,1.0586,1.0586,1.0518,0.99316,0.99316,0.99316,0.99316,0.99072,0.99072,0.98779,0.98486,0.98779,0.99072,0.98779,0.98779,0.99072,0.99072,0.99072,0.99072,0.99072,0.99072,0.99365,0.99658,0.99658,0.99658,0.99951,0.99951,0.99951,0.99951,0.99658,0.99658,0.99658,0.99658,0.99658,0.99365,0.99365,0.99365,0.99072,0.99072,0.98779,0.98486,0.98193,0.98193,0.98193,0.98193,0.98193,0.98193,0.98193,0.98193,0.98193,0.97949,0.97949,0,1.0361,1.0332,1.0332,1.0332,1.0332,1.0332,1.0303,1.0303,1.0303,1.0303,1.0332,1.0303,1.0332,1.0303,1.0303,1.0303,1.0303,1.0264,1.0264,1.0234,1.0234,1.0234,1.0205,1.0234,1.0234,1.0205,1.0205,1.0205,1.0205,1.0205,1.0205,1.0205,1.0176,1.0176,1.0176,1.0176,1.0176,1.0176,1.0176,1.0176,1.0176,1.0176,1.0088,1.0088,0.97363,0.97119,0.97119,0.97119,0.96826,0.96826,0.97119,0.97119,0.97119,0.97119,0.97119,0.97119,0.97119,0.97119,0.97119,0.97119,0.97119,0.97119,0.97119,0.97119,0.97119,0.97119,0.97119,0.96826,0.96826,0.96826,0.96826,0.96582,0.96582,0.96582,0.96582,0.96289,0.96289,0.96289,0.96289,0.96289,0.96289,0.96289,0.96582,0,1,1.0029,1.0029,1.0029,1.0029,1,1,0,0,0,0,1,0,1.0059,1.0088,1.0088,1.0498,1.0498,1.0498,1.0498,1.0498,1.0527,1.0498,1.0459,1.043,1.0459,1.0459,1.043,1.043,1.043,1.043,1.04,1.04,1.043,1.043,1.04,1.043,1.043,1.0459,1.0498,1.0498,1.0498,1.0498,1.0527,1.0527,1.0527,1.0557,1.0557,1.0557,1.0527,1.0527,1.0527,1.0527,0,0,0,0,0,0,0,1.4727,0,0,0,0,0,0,0,0,0,0,0,0,0,0,0,0,0,1.4062,1.4062,1.4062,1.4062,1.4004,1.3945,0,0,1.8018,1.792,1.7822,1.7822,1.7822,1.7822,1.7822,1.7822,1.7822,1.7822,1.7734,1.7734,1.7734,1.7734,1.7734,1.7734,1.7734,1.7637,0,0,0,0,0,0,0,0,0,0,0,0,0,0,0,0,0,0,0,0,0,0,0,0,0,0,0,0,0,0
1.0312,1.0312,1.0342,1.0352,1.0352,1.0381,1.0381,1.0381,1.041,1.0439,1.0479,1.0479,1.0508,1.0508,1.0508,1.0508,1.0508,1.0508,1.0508,1.0508,1.0508,1.0537,1.0537,1.0537,1.0576,1.0605,1.0605,1.0605,1.0645,1.0645,1.0674,1.0674,1.0703,0,1.0771,1.0811,1.0811,1.0811,1.0811,1.085,1.085,1.085,1.085,1.085,1.085,1.085,1.085,1.0811,1.085,1.085,1.085,1.085,1.085,1.085,1.085,1.085,1.085,1.085,1.085,1.0811,1.0811,1.0811,1.0811,1.0811,1.0811,1.0811,1.0811,1.0811,1.0811,1.0811,1.0811,1.0811,1.0781,1.0781,1.0781,1.0781,1.0781,1.0781,1.0742,1.0742,1.0742,1.0742,1.0742,1.0742,1.0781,1.0781,1.0781,1.0781,1.0742,1.0742,1.0742,1.0742,1.0742,1.0781,1.0742,1.0742,1.0742,1.0742,1.0742,1.0742,1.0742,1.0742,1.0781,1.0742,1.0742,1.0713,1.0713,1.0713,1.0742,1.0742,1.0742,1.0742,1.0781,1.0781,1.0781,1.0781,1.0742,1.0742,1.0742,1.0742,1.0713,1.0713,1.0713,1.0713,1.0713,1.0713,1.0713,1.0713,1.0713,1.0713,1.0713,1.0713,1.0713,1.0713,1.0713,1.0713,1.0752,1.0752,1.0752,1.0781,1.0752,1.0752,1.0752,1.0781,1.0781,1.082,1.082,1.082,1.085,1.085,1.085,1.085,1.082,1.085,1.085,1.085,1.085,1.085,1.085,1.085,1.085,1.085,1.085,1.082,1.082,1.082,1.082,1.0781,1.0781,1.0781,1.0781,1.0752,1.0752,1.0752,1.0752,1.0752,1.0752,1.0752,1.0752,1.0752,1.0713,1.0713,1.0684,1.0684,1.0684,1.0684,1.0645,1.0645,1.0654,1.0654,1.0654,1.0654,1.0654,1.0654,1.0654,1.0654,1.0654,1.0615,1.0615,1.0615,1.0615,1.0615,1.0586,1.0586,1.0586,1.0586,1.0547,1.0547,1.0547,1.0547,1.0547,1.0518,1.0518,0.99365,0.99365,0.99365,0.99365,0.99072,0.99072,0.98779,0.99072,0.99072,0.99072,0.99072,0.99072,0.99072,0.99072,0.99365,0.99365,0.99365,0.99365,0.99365,0.99658,0.99658,0.99951,0.99951,0.99658,0.99658,0.99658,0.99658,0.99365,0.99365,0.99365,0.99365,0.99365,0.99072,0.99072,0.99072,0.98779,0.98486,0.98193,0.98193,0.98193,0.98193,0.98193,0.98193,0.98193,0.98193,0.98193,0.98193,0.97949,1.0332,1.0332,1.0303,1.0303,1.0303,1.0303,1.0303,1.0303,1.0264,1.0264,1.0264,1.0303,1.0303,1.0303,1.0303,1.0264,1.0264,1.0264,1.0264,1.0264,1.0234,1.0234,1.0234,1.0205,1.0205,1.0205,1.0205,1.0205,1.0176,1.0176,1.0176,1.0176,1.0176,1.0176,1.0176,1.0176,1.0176,1.0176,1.0146,1.0146,1.0146,1.0146,1.0146,1.0088,1.0088,1.0088,0.97119,0.97119,0.97119,0.96826,0.97119,0.97119,0.97119,0.96826,0.97119,0.97119,0.97119,0.97119,0.97119,0.97119,0.97119,0.97119,0.97119,0.97119,0.97119,0.97119,0.97119,0.97119,0.96826,0.96826,0.96826,0.96826,0.96826,0.96582,0.96582,0.96582,0.96582,0.96582,0.96582,0.96289,0.96289,0.96582,0.96582,0,1,1,1,1.0029,1.0029,0,1.0791,1.0762,1.0723,1.0723,1.0723,1.0693,1.0693,1.0654,1.0625,1.0625,1.0596,1.0557,1.0527,1.0498,1.0498,1.0498,1.0527,1.0498,1.0459,1.043,1.043,1.043,1.043,1.043,1.04,1.04,1.04,1.04,1.04,1.04,1.043,1.04,1.043,1.0459,1.0498,1.0459,1.0498,1.0498,1.0498,1.0498,1.0498,1.0527,1.0527,1.0527,1.0527,1.0498,1.0498,1.0498,0,0,0,0,0,0,0,1.4727,1.4668,0,0,0,0,0,0,0,0,0,0,0,0,0,0,0,0,1.4062,1.4004,1.4121,1.4062,1.4004,1.4004,0,0,1.792,1.7822,1.7822,1.7822,1.7822,1.7734,1.7734,1.7734,1.7734,1.7734,1.7734,1.7734,1.7734,1.7734,1.7734,1.7734,1.7637,1.7646,0,0,0,0,0,0,0,0,0,0,0,0,0,0,0,0,0,0,0,0,0,0,0,0,0,0,0,0,0,0
1.0312,1.0312,1.0352,1.0352,1.0352,1.0381,1.0381,1.041,1.041,1.0439,1.0479,1.0479,1.0508,1.0508,1.0508,1.0508,1.0508,1.0508,1.0508,1.0537,1.0508,1.0537,1.0537,1.0537,1.0605,1.0645,1.0645,1.0645,1.0645,1.0674,1.0674,1.0674,1.0713,0,1.0811,1.0811,1.0811,1.0811,1.0811,1.0811,1.085,1.0811,1.085,1.085,1.085,1.085,1.0811,1.0811,1.0811,1.0811,1.0811,1.0811,1.0811,1.0811,1.085,1.0811,1.0811,1.0811,1.0811,1.0811,1.0811,1.0811,1.0811,1.0811,1.0781,1.0781,1.0781,1.0781,1.0811,1.0781,1.0781,1.0781,1.0781,1.0781,1.0781,1.0742,1.0742,1.0742,1.0742,1.0713,1.0713,1.0713,1.0713,1.0742,1.0742,1.0742,1.0742,1.0742,1.0742,1.0742,1.0713,1.0713,1.0713,1.0742,1.0742,1.0742,1.0742,1.0742,1.0713,1.0713,1.0713,1.0713,1.0713,1.0713,1.0713,1.0713,1.0713,1.0713,1.0713,1.0713,1.0742,1.0742,1.0713,1.0713,1.0713,1.0713,1.0713,1.0645,1.0645,1.0645,1.0645,1.0645,1.0645,1.0645,1.0645,1.0684,1.0684,1.0684,1.0713,1.0713,1.0713,1.0713,1.0713,1.0713,1.0713,1.0752,1.0752,1.0752,1.0752,1.0781,1.0781,1.0781,1.0781,1.082,1.082,1.082,1.082,1.082,1.085,1.082,1.082,1.082,1.082,1.082,1.082,1.082,1.082,1.082,1.082,1.082,1.0781,1.082,1.0781,1.0781,1.0781,1.0781,1.0781,1.0781,1.0781,1.0752,1.0752,1.0752,1.0713,1.0713,1.0713,1.0713,1.0713,1.0713,1.0713,1.0713,1.0713,1.0684,1.0684,1.0654,1.0654,1.0654,1.0654,1.0654,1.0615,1.0615,1.0654,1.0654,1.0654,1.0654,1.0615,1.0615,1.0615,1.0615,1.0615,1.0586,1.0586,1.0586,1.0586,1.0547,1.0547,1.0547,1.0547,1.0547,1.0557,1.0518,1.0518,1.0518,1.0518,1.0518,0.99365,0.99365,0.99365,0.99365,0.99365,0.99072,0.99072,0.99072,0.99072,0.99072,0.99072,0.99365,0.99365,0.99365,0.99365,0.99365,0.99365,0.99658,0.99658,0.99658,0.99658,0.99658,0.99658,0.99658,0.99658,0.99658,0.99365,0.99365,0.99365,0.99365,0.99365,0.99072,0.99072,0.99072,0.98779,0.98486,0.98486,0.98486,0.98193,0.98193,0.98193,0.98486,0.98193,0.98193,0.98486,0.98193,0.97949,1.0303,1.0303,1.0303,1.0303,1.0303,1.0264,1.0264,1.0264,1.0264,1.0234,1.0234,1.0234,1.0234,1.0264,1.0264,1.0234,1.0234,1.0234,1.0234,1.0234,1.0205,1.0205,1.0205,1.0205,1.0205,1.0176,1.0176,1.0176,1.0176,1.0176,1.0146,1.0146,1.0146,1.0146,1.0146,1.0146,1.0146,1.0146,1.0146,1.0146,1.0146,1.0117,1.0088,1.0088,1.0088,1.0088,1.0059,0.97119,0.97119,0.97119,0.97119,0.97119,0.97119,0.97119,0.97119,0.97119,0.97119,0.97119,0.97119,0.97119,0.97119,0.97119,0.97119,0.97119,0.97119,0.97119,0.97119,0.97119,0.97119,0.96875,0.96875,0.96875,0.96875,0.96582,0.96582,0.96582,0.96582,0.96582,0.96582,0.96582,0.96582,0.96582,0,1,0.99707,1,0.99707,0,0,1.0791,1.0762,1.0723,1.0693,1.0654,1.0654,1.0654,1.0625,1.0625,1.0625,1.0625,1.0596,1.0527,1.0498,1.0498,1.0498,1.0459,1.0498,1.0498,1.0459,1.0459,1.04,1.043,1.043,1.043,1.04,1.04,1.04,1.04,1.04,1.04,1.04,1.04,1.043,1.0459,1.0459,1.0459,1.0459,1.0459,1.0459,1.0459,1.0459,1.0498,1.0498,1.0498,1.0527,1.0498,1.0498,0,0,0,0,0,0,0,0,1.4727,1.4727,0,0,0,0,0,0,0,0,0,0,0,0,0,0,0,1.4121,1.4062,1.4062,1.4121,1.4121,1.4062,1.4004,0,0,1.7822,1.7822,1.7822,1.7734,1.7734,1.7734,1.7734,1.7734,1.7734,1.7734,1.7734,1.7734,1.7734,1.7734,1.7646,1.7646,1.7646,1.7646,0,0,0,0,0,0,0,0,0,0,0,0,0,0,0,0,0,0,0,0,0,0,0,0,0,0,0,0,0,0
1.0312,1.0312,1.0352,1.0352,1.0381,1.0381,1.0381,1.041,1.041,1.0439,1.0479,1.0479,1.0508,1.0508,1.0508,1.0508,1.0508,1.0508,1.0508,1.0537,1.0537,1.0537,1.0537,1.0537,1.0576,1.0645,1.0645,1.0645,1.0645,1.0645,1.0674,1.0674,1.0713,0,1.0811,1.0811,1.0811,1.0811,1.0811,1.0811,1.0811,1.0811,1.0811,1.0811,1.085,1.0811,1.0811,1.0781,1.0781,1.0781,1.0781,1.0781,1.0811,1.0811,1.0811,1.0811,1.0781,1.0781,1.0781,1.0781,1.0781,1.0781,1.0781,1.0781,1.0781,1.0742,1.0742,1.0742,1.0742,1.0742,1.0742,1.0742,1.0742,1.0742,1.0742,1.0742,1.0713,1.0713,1.0713,1.0713,1.0713,1.0713,1.0713,1.0713,1.0713,1.0713,1.0713,1.0713,1.0713,1.0713,1.0713,1.0713,1.0713,1.0742,1.0742,1.0742,1.0742,1.0742,1.0713,1.0713,1.0713,1.0713,1.0713,1.0684,1.0684,1.0684,1.0713,1.0713,1.0713,1.0752,1.0752,1.0752,1.0713,1.0684,1.0684,1.0684,1.0645,1.0645,1.0615,1.0615,1.0615,1.0615,1.0615,1.0615,1.0615,1.0615,1.0615,1.0615,1.0645,1.0684,1.0684,1.0713,1.0713,1.0713,1.0713,1.0713,1.0752,1.0752,1.0781,1.0781,1.0781,1.0752,1.0781,1.0781,1.0781,1.0781,1.0781,1.0781,1.082,1.082,1.082,1.0781,1.0781,1.082,1.0781,1.0781,1.0781,1.0781,1.0781,1.0781,1.0781,1.0781,1.0752,1.0752,1.0781,1.0752,1.0752,1.0752,1.0752,1.0713,1.0713,1.0713,1.0684,1.0684,1.0684,1.0684,1.0684,1.0684,1.0684,1.0684,1.0684,1.0654,1.0654,1.0654,1.0654,1.0654,1.0615,1.0615,1.0615,1.0615,1.0615,1.0615,1.0615,1.0615,1.0615,1.0586,1.0586,1.0586,1.0586,1.0547,1.0547,1.0557,1.0557,1.0557,1.0557,1.0518,1.0518,1.0518,1.0518,1.0488,1.0488,1.0488,1.0488,1.0488,0.99365,0.99365,0.99365,0.99365,0.99365,0.99365,0.99072,0.99365,0.99072,0.99072,0.99365,0.99365,0.99365,0.99365,0.99365,0.99365,0.99365,0.99365,0.99658,0.99658,0.99658,0.99365,0.99658,0.99658,0.99658,0.99365,0.99365,0.99365,0.99365,0.99365,0.99365,0.99365,0.99072,0.99072,0.99072,0.98779,0.98779,0.98486,0.98486,0.98486,0.98486,0.98486,0.98486,0.98486,0.98486,0.98486,1.0264,1.0264,1.0264,1.0264,1.0264,1.0264,1.0264,1.0234,1.0234,1.0234,1.0205,1.0205,1.0234,1.0205,1.0234,1.0205,1.0205,1.0205,1.0205,1.0205,1.0205,1.0205,1.0205,1.0205,1.0205,1.0205,1.0176,1.0176,1.0176,1.0146,1.0146,1.0117,1.0117,1.0088,1.0088,1.0117,1.0117,1.0117,1.0117,1.0088,1.0117,1.0088,1.0088,1.0088,1.0088,1.0059,1.0088,1.0059,1.0059,0.97412,0.97119,0.97412,0.97119,0.97119,0.97119,0.97119,0.97119,0.97119,0.97119,0.97119,0.97119,0.97119,0.97119,0.97119,0.97119,0.97119,0.97119,0.97119,0.97119,0.97119,0.96875,0.97119,0.96875,0.96875,0.96875,0.96875,0.96875,0.96582,0.96875,0.96875,0.96582,0.96582,0,0,1,1,0,1.0791,1.0762,1.0762,1.0762,1.0723,1.0664,1.0664,1.0664,1.0664,1.0625,1.0625,1.0625,1.0596,1.0596,1.0596,1.0527,1.0498,1.0498,1.0459,1.0459,1.0498,1.0459,1.04,1.04,1.04,1.04,1.04,1.043,1.04,1.04,1.04,1.04,1.04,1.04,1.04,1.04,1.043,1.043,1.0459,1.043,1.043,1.0469,1.0469,1.0469,1.0469,1.0498,1.0469,1.0498,1.0498,1.0498,1.0498,0,0,0,0,0,0,0,0,0,0,0,0,0,0,0,0,0,0,0,0,0,0,0,1.4355,1.4238,1.4121,1.4062,1.4062,1.4062,1.418,1.418,0,0,1.792,1.7822,1.7822,1.7822,1.7734,1.7734,1.7734,1.7734,1.7646,1.7734,1.7734,1.7734,1.7646,1.7646,1.7646,1.7646,1.7646,1.7646,1.7646,0,0,0,0,0,0,0,0,0,0,0,0,0,0,0,0,0,0,0,0,0,0,0,0,0,0,0,0,0,0
1.0312,1.0312,1.0352,1.0352,1.0381,1.0381,1.0381,1.0381,1.041,1.0439,1.0479,1.0479,1.0508,1.0508,1.0508,1.0508,1.0508,1.0508,1.0537,1.0537,1.0537,1.0547,1.0547,1.0547,1.0576,1.0645,1.0645,1.0645,1.0645,1.0645,1.0674,1.0674,0,1.0742,1.0811,1.0811,1.0781,1.0781,1.0811,1.0811,1.0811,1.0811,1.0811,1.0811,1.0781,1.0781,1.0781,1.0742,1.0742,1.0742,1.0781,1.0742,1.0742,1.0781,1.0781,1.0742,1.0781,1.0742,1.0742,1.0781,1.0781,1.0742,1.0742,1.0781,1.0742,1.0713,1.0713,1.0713,1.0742,1.0713,1.0713,1.0713,1.0713,1.0713,1.0713,1.0713,1.0713,1.0713,1.0713,1.0674,1.0674,1.0674,1.0674,1.0674,1.0674,1.0713,1.0713,1.0713,1.0684,1.0684,1.0684,1.0684,1.0684,1.0713,1.0713,1.0713,1.0713,1.0713,1.0713,1.0713,1.0713,1.0684,1.0684,1.0684,1.0684,1.0684,1.0713,1.0713,1.0713,1.0713,1.0713,1.0713,1.0713,1.0684,1.0645,1.0645,1.0615,1.0615,1.0615,1.0615,1.0615,1.0615,1.0615,1.0576,1.0576,1.0615,1.0615,1.0615,1.0615,1.0645,1.0645,1.0684,1.0684,1.0713,1.0713,1.0713,1.0713,1.0752,1.0752,1.0752,1.0752,1.0752,1.0781,1.0781,1.0781,1.0781,1.0752,1.0781,1.0781,1.0781,1.0752,1.0752,1.0752,1.0781,1.0781,1.0752,1.0752,1.0752,1.0752,1.0752,1.0752,1.0752,1.0713,1.0713,1.0713,1.0713,1.0713,1.0713,1.0684,1.0684,1.0684,1.0684,1.0654,1.0654,1.0654,1.0654,1.0654,1.0654,1.0654,1.0654,1.0654,1.0654,1.0615,1.0615,1.0615,1.0615,1.0586,1.0586,1.0586,1.0586,1.0586,1.0586,1.0586,1.0586,1.0586,1.0586,1.0557,1.0557,1.0557,1.0557,1.0557,1.0518,1.0518,1.0518,1.0518,1.0488,1.0488,1.0488,1.0488,1.0488,1.0459,1.0459,1.0459,1.0459,1.0459,1.042,1.042,0,0.99658,0.99365,0.99365,0.99365,0.99365,0.99365,0.99365,0.99365,0.99365,0.99365,0.99365,0.99365,0.99365,0.99365,0.99365,0.99365,0.99365,0.99365,0.99365,0.99365,0.99365,0.99365,0.99365,0.99365,0.99365,0.99365,0.99365,0.99072,0.99072,0.99072,0.99072,0.98779,0.98779,0.98779,0.98486,0.98779,0.98779,0.98779,0.98486,0.98486,0,1.0234,1.0234,1.0264,1.0264,1.0234,1.0234,1.0234,1.0205,1.0205,1.0205,1.0205,1.0176,1.0176,1.0205,1.0205,1.0205,1.0205,1.0205,1.0205,1.0205,1.0205,1.0176,1.0176,1.0176,1.0176,1.0176,1.0176,1.0176,1.0146,1.0146,1.0146,1.0146,1.0117,1.0117,1.0117,1.0088,1.0117,1.0088,1.0117,1.0088,1.0088,1.0088,1.0088,1.0088,1.0088,1.0059,1.0059,1.0059,1.0059,1.0059,1.0059,0.97412,0.97705,0.97412,0.97119,0.97119,0.97119,0.97119,0.97119,0.97119,0.97119,0.97119,0.97119,0.97119,0.97119,0.97119,0.97119,0.97119,0.97119,0.97119,0.97119,0.96875,0.97119,0.97119,0.97119,0.96875,0.96875,0.96875,0.96875,0.96875,0.97119,0.97119,0,0,1.083,1.083,1.0791,1.0791,1.0762,1.0723,1.0723,1.0723,1.0693,1.0664,1.0664,1.0625,1.0625,1.0625,1.0625,1.0596,1.0596,1.0596,1.0527,1.0527,1.0498,1.0498,1.0459,1.0498,1.0459,1.0459,1.043,1.04,1.0371,1.04,1.043,1.043,1.0371,1.0371,1.04,1.04,1.04,1.04,1.04,1.04,1.043,1.043,1.0469,1.0469,1.043,1.043,1.043,1.043,1.043,1.0469,1.043,1.043,1.043,1.0469,1.0498,0,0,0,0,0,0,0,0,0,0,0,0,0,0,0,0,0,0,0,0,0,1.4238,1.4238,1.4238,1.4238,1.4121,1.4121,1.4062,1.4121,1.4121,0,0,1.792,1.792,1.7832,1.7832,1.7832,1.7734,1.7734,1.7734,1.7734,1.7734,1.7734,1.7734,1.7646,1.7646,1.7646,1.7646,1.7646,1.7646,1.7646,1.7549,0,0,0,0,0,0,0,0,0,0,0,0,0,0,0,0,0,0,0,0,0,0,0,0,0,0,0,0,0,0
1.0312,1.0312,1.0352,1.0381,1.0381,1.0381,1.0381,1.0381,1.041,1.041,1.0449,1.0479,1.0508,1.0508,1.0508,1.0508,1.0508,1.0508,1.0508,1.0547,1.0547,1.0547,1.0547,1.0576,1.0645,1.0645,1.0645,1.0645,1.0645,1.0674,1.0674,1.0674,1.0742,0,1.0811,1.0781,1.0781,1.0781,1.0811,1.0811,1.0811,1.0781,1.0781,1.0781,1.0742,1.0742,1.0742,1.0742,1.0742,1.0713,1.0742,1.0742,1.0713,1.0713,1.0713,1.0713,1.0713,1.0742,1.0742,1.0742,1.0742,1.0713,1.0742,1.0742,1.0713,1.0713,1.0713,1.0713,1.0742,1.0713,1.0713,1.0713,1.0713,1.0713,1.0713,1.0713,1.0713,1.0713,1.0674,1.0674,1.0684,1.0684,1.0684,1.0684,1.0684,1.0684,1.0684,1.0684,1.0684,1.0684,1.0684,1.0645,1.0645,1.0684,1.0684,1.0684,1.0684,1.0645,1.0684,1.0645,1.0645,1.0645,1.0645,1.0645,1.0684,1.0684,1.0713,1.0713,1.0713,1.0713,1.0713,1.0713,1.0684,1.0684,1.0645,1.0645,1.0615,1.0615,1.0576,1.0586,1.0586,1.0586,1.0586,1.0586,1.0586,1.0586,1.0615,1.0615,1.0615,1.0615,1.0645,1.0684,1.0713,1.0713,1.0713,1.0713,1.0713,1.0713,1.0713,1.0752,1.0752,1.0752,1.0752,1.0752,1.0752,1.0752,1.0752,1.0752,1.0752,1.0752,1.0752,1.0752,1.0752,1.0781,1.0752,1.0752,1.0752,1.0752,1.0752,1.0713,1.0713,1.0684,1.0684,1.0684,1.0684,1.0684,1.0713,1.0684,1.0684,1.0654,1.0654,1.0654,1.0654,1.0654,1.0654,1.0654,1.0654,1.0654,1.0615,1.0654,1.0615,1.0615,1.0615,1.0586,1.0586,1.0586,1.0586,1.0557,1.0557,1.0557,1.0557,1.0557,1.0557,1.0557,1.0557,1.0557,1.0557,1.0518,1.0518,1.0518,1.0518,1.0518,1.0488,1.0488,1.0488,1.0488,1.0459,1.0459,1.0459,1.0459,1.042,1.042,1.042,1.042,1.0459,1.042,1.042,0,1.0518,0.99365,0.99365,0.99365,0.99365,0.99365,0.99365,0.99365,0.99365,0.99365,0.99365,0.99365,0.99365,0.99365,0.99365,0.99365,0.99365,0.99365,0.99365,0.99365,0.99365,0.99365,0.99365,0.99365,0.99365,0.99365,0.99365,0.99365,0.99072,0.99072,0.99072,0.99072,0.99072,0.99072,0.99072,0.99072,0.99072,0.99072,0.99072,0.99072,1.0234,1.0234,1.0234,1.0234,1.0234,1.0234,1.0234,1.0205,1.0205,1.0205,1.0176,1.0176,1.0176,1.0176,1.0205,1.0176,1.0176,1.0176,1.0176,1.0176,1.0176,1.0176,1.0176,1.0176,1.0146,1.0176,1.0176,1.0146,1.0146,1.0146,1.0117,1.0117,1.0117,1.0088,1.0088,1.0088,1.0088,1.0088,1.0088,1.0088,1.0088,1.0088,1.0088,1.0059,1.0059,1.0059,1.0059,1.0059,1.0059,1.0059,1.0059,1.0029,1,0.99707,0.99707,0.99414,0.99414,0.97705,0.97412,0.97412,0.97705,0.97412,0.97412,0.97412,0.97412,0.97119,0.97119,0.97119,0.97119,0.97119,0.97119,0.97119,0.96875,0.97119,0.97119,0.97119,0.96875,0.96875,0.96875,0.96875,0,0.97705,0.97705,0,0,1.083,1.083,1.0762,1.0762,1.0723,1.0723,1.0693,1.0693,1.0664,1.0625,1.0625,1.0625,1.0625,1.0596,1.0596,1.0596,1.0557,1.0557,1.0527,1.0527,1.0527,1.0498,1.0498,1.0498,1.0498,1.0498,1.0469,1.043,1.0371,1.04,1.04,1.043,1.04,1.04,1.04,1.04,1.04,1.04,1.04,1.04,1.043,1.043,1.043,1.043,1.04,1.04,1.04,1.04,1.0371,1.04,1.04,1.043,1.043,1.043,1.0469,0,0,0,0,0,0,0,0,0,0,0,0,0,0,0,0,0,0,0,0,1.4238,1.4238,1.4238,1.4238,1.4121,1.4121,1.4062,1.4062,1.4062,0,0,0,1.7832,1.7832,1.7832,1.7832,1.7734,1.7734,1.7734,1.7734,1.7646,1.7646,1.7646,1.7646,1.7646,1.7646,1.7646,1.7646,1.7646,1.7646,1.7549,1.7549,0,0,0,0,0,0,0,0,0,0,0,0,0,0,0,0,0,0,0,0,0,0,0,0,0,0,0,0,0,0
1.0322,1.0352,1.0352,1.0381,1.0352,1.0381,1.0381,1.0381,1.041,1.041,1.0449,1.0479,1.0508,1.0508,1.0508,1.0508,1.0508,1.0508,1.0547,1.0547,1.0547,1.0576,1.0576,1.0605,1.0645,1.0645,1.0645,1.0645,1.0674,1.0674,1.0674,1.0674,1.0713,1.0781,1.0742,1.0781,1.0781,1.0781,1.0781,1.0781,1.0781,1.0742,1.0742,1.0742,1.0713,1.0713,1.0742,1.0713,1.0742,1.0713,1.0713,1.0713,1.0713,1.0713,1.0713,1.0713,1.0713,1.0713,1.0713,1.0713,1.0713,1.0713,1.0713,1.0713,1.0713,1.0713,1.0713,1.0713,1.0713,1.0713,1.0713,1.0713,1.0713,1.0713,1.0713,1.0713,1.0713,1.0713,1.0684,1.0684,1.0645,1.0684,1.0684,1.0684,1.0645,1.0645,1.0645,1.0645,1.0645,1.0645,1.0645,1.0615,1.0615,1.0684,1.0684,1.0684,1.0684,1.0645,1.0645,1.0645,1.0645,1.0645,1.0645,1.0645,1.0645,1.0713,1.0713,1.0713,1.0713,1.0713,1.0713,1.0684,1.0645,1.0615,1.0615,1.0615,1.0615,1.0586,1.0586,1.0586,1.0586,1.0586,1.0586,1.0586,1.0586,1.0586,1.0586,1.0586,1.0586,1.0615,1.0615,1.0684,1.0713,1.0713,1.0713,1.0752,1.0713,1.0713,1.0713,1.0752,1.0752,1.0752,1.0713,1.0713,1.0713,1.0713,1.0713,1.0713,1.0713,1.0713,1.0713,1.0713,1.0713,1.0752,1.0752,1.0752,1.0713,1.0713,1.0713,1.0684,1.0684,1.0684,1.0654,1.0654,1.0654,1.0654,1.0684,1.0654,1.0654,1.0654,1.0654,1.0654,1.0615,1.0615,1.0615,1.0615,1.0615,1.0615,1.0586,1.0615,1.0586,1.0586,1.0586,1.0557,1.0557,1.0557,1.0557,1.0518,1.0518,1.0518,1.0518,1.0518,1.0518,1.0518,1.0518,1.0518,1.0518,1.0518,1.0518,1.0518,1.0518,1.0488,1.0488,1.0488,1.0488,1.0459,1.0459,1.0459,1.042,1.042,1.042,1.042,1.0391,1.042,1.042,1.0391,1.0391,0,1.0557,1.0586,0.99365,0.99365,0.99658,0.99365,0.99365,0.99658,0.99365,0.99365,0.99658,0.99365,0.99658,0.99658,0.99365,0.99365,0.99365,0.99365,0.99365,0.99365,0.99365,0.99365,0.99365,0.99365,0.99365,0.99365,0.99365,0.99365,0.99072,0.99072,0.99072,0.99072,0.99072,0.99072,0.99072,0.99365,0.98779,0.98779,0.99072,0,1.0205,1.0205,1.0234,1.0234,1.0234,1.0205,1.0205,1.0205,1.0176,1.0176,1.0176,1.0176,1.0146,1.0146,1.0176,1.0176,1.0176,1.0176,1.0146,1.0146,1.0146,1.0146,1.0146,1.0146,1.0146,1.0146,1.0146,1.0117,1.0146,1.0117,1.0117,1.0088,1.0088,1.0088,1.0088,1.0088,1.0088,1.0088,1.0088,1.0088,1.0088,1.0059,1.0059,1.0059,1.0059,1.0059,1.0059,1.0059,1.0059,1.0059,1.0059,1.0029,1,0.99707,0.99707,0.99414,0.99414,0.99414,0.99414,0.99121,0.98242,0.97998,0.97998,0.97705,0.97705,0.97412,0.97412,0.97119,0.97119,0.97119,0.97168,0.97168,0.97168,0.97168,0.97168,0.97412,0.97168,0.97412,0.97412,0.97168,0,0.97705,0.98535,0,1.0898,1.0898,1.083,1.0791,1.0762,1.0732,1.0732,1.0693,1.0693,1.0664,1.0625,1.0625,1.0625,1.0596,1.0596,1.0596,1.0557,1.0566,1.0566,1.0527,1.0527,1.0527,1.0498,1.0498,1.0498,1.0498,1.0498,1.0469,1.043,1.043,1.043,1.04,1.043,1.04,1.0371,1.0371,1.04,1.04,1.04,1.04,1.04,1.04,1.04,1.04,1.04,1.04,1.04,1.04,1.04,1.0371,1.04,1.04,1.04,1.04,1.0371,1.0371,1.0303,0,0,0,0,0,0,0,0,0,0,0,0,0,0,0,0,0,0,0,0,1.418,1.418,1.418,1.4121,1.4121,1.4062,1.4004,1.4062,0,0,1.7832,1.7832,1.7832,1.7832,1.7734,1.7734,1.7734,1.7734,1.7646,1.7646,1.7646,1.7646,1.7549,1.7549,1.7549,1.7646,1.7646,1.7646,1.7559,1.7559,1.7559,0,0,0,0,0,0,0,0,0,0,0,0,0,0,0,0,0,0,0,0,0,0,0,0,0,0,0,0,0,0
1.0322,1.0322,1.0352,1.0352,1.0352,1.0381,1.0381,1.041,1.041,1.0449,1.0449,1.0479,1.0479,1.0508,1.0508,1.0508,1.0508,1.0508,1.0547,1.0547,1.0547,1.0576,1.0576,1.0576,1.0645,1.0645,1.0645,1.0645,1.0674,1.0674,1.0674,1.0713,1.0742,1.0781,1.0742,1.0742,1.0742,1.0742,1.0742,1.0713,1.0713,1.0713,1.0713,1.0713,1.0674,1.0713,1.0713,1.0713,1.0713,1.0713,1.0713,1.0713,1.0674,1.0674,1.0674,1.0645,1.0674,1.0674,1.0713,1.0713,1.0713,1.0713,1.0713,1.0713,1.0713,1.0713,1.0713,1.0713,1.0684,1.0684,1.0684,1.0684,1.0684,1.0713,1.0713,1.0713,1.0713,1.0713,1.0684,1.0645,1.0645,1.0645,1.0645,1.0645,1.0615,1.0615,1.0615,1.0615,1.0576,1.0576,1.0615,1.0576,1.0576,1.0645,1.0645,1.0645,1.0645,1.0615,1.0615,1.0615,1.0615,1.0615,1.0615,1.0615,1.0645,1.0713,1.0684,1.0684,1.0684,1.0684,1.0684,1.0615,1.0615,1.0615,1.0615,1.0586,1.0586,1.0586,1.0586,1.0586,1.0547,1.0547,1.0586,1.0547,1.0547,1.0586,1.0586,1.0586,1.0586,1.0586,1.0586,1.0684,1.0684,1.0713,1.0713,1.0713,1.0713,1.0713,1.0713,1.0713,1.0713,1.0713,1.0713,1.0713,1.0713,1.0713,1.0684,1.0684,1.0684,1.0684,1.0684,1.0684,1.0684,1.0713,1.0713,1.0713,1.0684,1.0684,1.0684,1.0654,1.0654,1.0654,1.0654,1.0654,1.0654,1.0654,1.0654,1.0654,1.0654,1.0615,1.0615,1.0654,1.0615,1.0615,1.0615,1.0615,1.0615,1.0586,1.0615,1.0615,1.0586,1.0557,1.0557,1.0557,1.0557,1.0518,1.0518,1.0518,1.0518,1.0518,1.0518,1.0518,1.0518,1.0518,1.0518,1.0518,1.0518,1.0518,1.0518,1.0488,1.0488,1.0488,1.0459,1.0459,1.0459,1.0459,1.042,1.042,1.042,1.042,1.0391,1.0391,1.0391,1.0391,1.0391,1.0391,1.0391,1.0459,1.0459,1.0459,0.99658,0.99658,0.99365,0.99658,0.99658,0.99365,0.99658,0.99658,0.99658,0.99658,0.99658,0.99658,0.99658,0.99365,0.99365,0.99365,0.99365,0.99365,0.99365,0.99365,0.99365,0.99365,0.99365,0.99365,0.99365,0.99365,0.99072,0.99072,0.99072,0.99072,0.99072,0.99365,0.99365,0.99072,0.99072,0.99072,0.99072,1.0146,1.0176,1.0176,1.0205,1.0205,1.0205,1.0176,1.0176,1.0176,1.0176,1.0176,1.0146,1.0146,1.0146,1.0146,1.0176,1.0146,1.0146,1.0146,1.0146,1.0146,1.0117,1.0117,1.0117,1.0117,1.0117,1.0117,1.0117,1.0088,1.0088,1.0088,1.0088,1.0088,1.0088,1.0088,1.0088,1.0088,1.0088,1.0088,1.0059,1.0059,1.0059,1.0059,1.0059,1.0059,1.0059,1.0059,1.0059,1.0059,1.0059,1.0029,1.0029,1,1,0.99707,0.99707,0.99707,0.99707,0.99414,0.99414,0.99414,0.98828,0.98291,0.98291,0.98291,0.97998,0.97705,0.97705,0.97412,0.97412,0.97412,0.97412,0.97412,0.97412,0.97412,0,0,1.1299,1.1299,1.1299,1.1299,1.1299,1.1299,1.1221,1.1113,1.0967,1.0898,1.083,1.0801,1.0762,1.0732,1.0693,1.0664,1.0664,1.0625,1.0625,1.0625,1.0596,1.0596,1.0596,1.0596,1.0566,1.0566,1.0527,1.0527,1.0527,1.0527,1.0527,1.0498,1.0498,1.0498,1.0469,1.0469,1.043,1.043,1.043,1.04,1.04,1.0371,1.0371,1.0371,1.0371,1.0371,1.0371,1.0371,1.0371,1.04,1.0371,1.0371,1.0371,1.0371,1.0371,1.04,1.0371,1.0371,1.04,1.0371,1.0371,1.0371,1.0371,1.0371,1.0312,0,0,0,0,0,0,0,0,0,0,0,0,0,0,0,0,0,0,0,0,1.4238,1.4238,1.4297,1.4121,1.4062,1.4062,1.4004,1.4004,0,0,1.7832,1.792,1.7832,1.7832,1.7734,1.7734,1.7646,1.7646,1.7646,1.7646,1.7559,1.7559,1.7559,1.7559,1.7559,1.7559,1.7559,1.7559,1.7559,1.7461,1.7461,0,0,0,0,0,0,0,0,0,0,0,0,0,0,0,0,0,0,0,0,0,0,0,0,0,0,0,0,0,0
1.0322,1.0381,1.0381,1.0381,1.0352,1.0381,1.0381,1.041,1.041,1.0449,1.0449,1.0479,1.0479,1.0508,1.0508,1.0508,1.0547,1.0508,1.0547,1.0547,1.0547,1.0576,1.0576,1.0576,1.0645,1.0645,1.0645,1.0645,1.0674,1.0674,1.0674,1.0674,1.0713,1.0742,1.0742,1.0742,1.0713,1.0713,1.0713,1.0713,1.0713,1.0713,1.0713,1.0674,1.0645,1.0674,1.0674,1.0674,1.0674,1.0674,1.0674,1.0674,1.0645,1.0645,1.0645,1.0645,1.0645,1.0674,1.0713,1.0713,1.0684,1.0684,1.0684,1.0684,1.0684,1.0684,1.0684,1.0684,1.0684,1.0684,1.0684,1.0645,1.0645,1.0645,1.0645,1.0684,1.0645,1.0684,1.0684,1.0684,1.0645,1.0615,1.0615,1.0615,1.0615,1.0576,1.0576,1.0576,1.0576,1.0576,1.0576,1.0547,1.0547,1.0615,1.0615,1.0615,1.0576,1.0586,1.0586,1.0615,1.0615,1.0615,1.0586,1.0615,1.0645,1.0684,1.0684,1.0684,1.0684,1.0645,1.0615,1.0615,1.0615,1.0615,1.0586,1.0586,1.0586,1.0547,1.0586,1.0547,1.0547,1.0547,1.0586,1.0547,1.0547,1.0586,1.0586,1.0586,1.0615,1.0586,1.0586,1.0684,1.0684,1.0713,1.0713,1.0713,1.0713,1.0713,1.0713,1.0713,1.0713,1.0713,1.0713,1.0684,1.0684,1.0684,1.0654,1.0654,1.0654,1.0654,1.0654,1.0654,1.0654,1.0684,1.0684,1.0684,1.0654,1.0654,1.0654,1.0654,1.0654,1.0615,1.0615,1.0615,1.0615,1.0586,1.0615,1.0586,1.0615,1.0615,1.0615,1.0615,1.0615,1.0615,1.0615,1.0615,1.0615,1.0586,1.0557,1.0586,1.0557,1.0557,1.0557,1.0518,1.0518,1.0518,1.0518,1.0488,1.0488,1.0488,1.0488,1.0488,1.0488,1.0488,1.0488,1.0488,1.0488,1.0488,1.0488,1.0488,1.0459,1.0459,1.0459,1.0459,1.042,1.042,1.042,1.0391,1.0391,1.0391,1.0391,1.0391,1.0391,1.0391,1.0391,1.0391,1.0391,1.0391,1.0391,1.0391,1.0391,1.0029,0.99951,0.99951,0.99658,0.99658,0.99658,0.99951,0.99951,0.99951,0.99951,0.99658,0.99658,0.99365,0.99365,0.99365,0.99365,0.99365,0.99365,0.99365,0.99365,0.99365,0.99365,0.99365,0.99365,0.99365,0.99121,0.99121,0.99121,0.99121,0.99414,0.99414,0.99414,0.99707,0.99707,1,1.0146,1.0146,1.0176,1.0176,1.0176,1.0176,1.0176,1.0176,1.0146,1.0146,1.0146,1.0146,1.0146,1.0146,1.0146,1.0117,1.0146,1.0146,1.0146,1.0146,1.0117,1.0117,1.0088,1.0117,1.0117,1.0088,1.0088,1.0088,1.0088,1.0088,1.0088,1.0088,1.0088,1.0088,1.0088,1.0088,1.0059,1.0059,1.0059,1.0059,1.0059,1.0059,1.0059,1.0029,1.0059,1.0029,1.0029,1.0029,1.0029,1.0029,1.0029,1.0029,1,1,0.99707,0.99707,0.99707,0.99707,0.99707,0.99707,0.99414,0.99414,0.99414,0.98535,0.98584,0.98584,0,0.97998,0.97998,0,0,0,0,0,1.1299,1.126,1.126,1.1299,1.1299,1.1299,1.1299,1.1299,1.126,1.126,1.1221,1.1113,1.1006,1.0898,1.083,1.0801,1.0762,1.0732,1.0693,1.0664,1.0664,1.0625,1.0625,1.0596,1.0596,1.0596,1.0566,1.0566,1.0566,1.0527,1.0527,1.0527,1.0527,1.0498,1.0527,1.0498,1.0498,1.0469,1.0469,1.0469,1.043,1.043,1.043,1.04,1.04,1.0371,1.0371,1.0371,1.0371,1.04,1.0371,1.0371,1.0371,1.0371,1.0371,1.0371,1.0371,1.0371,1.0371,1.0371,1.0371,1.0371,1.0371,1.0371,1.0371,1.0371,1.0371,1.0371,1.0312,0,0,0,0,0,0,0,0,0,0,0,0,0,0,0,0,0,0,0,1.4424,1.4238,1.4297,1.4297,1.418,1.4121,1.4062,1.4062,0,0,0,1.8213,1.7832,1.7734,1.7734,1.7734,1.7646,1.7646,1.7646,1.7559,1.7559,1.7461,1.7559,1.7461,1.7461,1.7461,1.7559,1.7559,1.7559,1.7461,1.7461,1.7461,0,0,0,0,0,0,0,0,0,0,0,0,0,0,0,0,0,0,0,0,0,0,0,0,0,0,0,0,0,0
1.0352,1.0381,1.0381,1.041,1.041,1.041,1.041,1.041,1.0449,1.0449,1.0449,1.0479,1.0479,1.0508,1.0508,1.0508,1.0547,1.0508,1.0547,1.0547,1.0547,1.0576,1.0576,1.0576,1.0615,1.0645,1.0645,1.0645,1.0645,1.0645,1.0674,1.0674,1.0713,1.0713,1.0713,1.0713,1.0713,1.0713,1.0713,1.0713,1.0674,1.0674,1.0674,1.0645,1.0615,1.0645,1.0615,1.0615,1.0615,1.0615,1.0645,1.0645,1.0645,1.0645,1.0645,1.0645,1.0615,1.0645,1.0684,1.0684,1.0684,1.0645,1.0645,1.0684,1.0684,1.0684,1.0645,1.0645,1.0615,1.0615,1.0615,1.0615,1.0576,1.0576,1.0615,1.0645,1.0615,1.0645,1.0615,1.0645,1.0615,1.0615,1.0576,1.0576,1.0576,1.0576,1.0576,1.0576,1.0576,1.0576,1.0547,1.0547,1.0547,1.0586,1.0586,1.0586,1.0586,1.0586,1.0586,1.0586,1.0586,1.0547,1.0518,1.0615,1.0615,1.0615,1.0615,1.0615,1.0615,1.0615,1.0586,1.0586,1.0547,1.0586,1.0547,1.0547,1.0518,1.0518,1.0518,1.0518,1.0547,1.0547,1.0547,1.0547,1.0586,1.0586,1.0586,1.0586,1.0615,1.0586,1.0615,1.0615,1.0615,1.0684,1.0684,1.0684,1.0684,1.0684,1.0684,1.0684,1.0684,1.0684,1.0684,1.0654,1.0654,1.0654,1.0615,1.0615,1.0615,1.0615,1.0615,1.0654,1.0615,1.0654,1.0654,1.0654,1.0654,1.0654,1.0615,1.0615,1.0615,1.0615,1.0615,1.0615,1.0586,1.0586,1.0586,1.0557,1.0557,1.0557,1.0557,1.0557,1.0557,1.0518,1.0518,1.0586,1.0586,1.0557,1.0557,1.0557,1.0518,1.0518,1.0518,1.0518,1.0518,1.0518,1.0488,1.0488,1.0488,1.0488,1.0488,1.0488,1.0488,1.0488,1.0488,1.0488,1.0488,1.0488,1.0459,1.0459,1.042,1.0459,1.043,1.043,1.043,1.043,1.0391,1.0391,1.0391,1.0391,1.0361,1.0361,1.0361,1.0391,1.0391,1.0361,1.0361,1.0361,1.0332,1.0332,1.0332,0.99951,0.99951,0.99951,0.99951,0.99951,0.99658,0.99951,0.99951,0.99951,1.0029,1.0029,0.99658,0.99365,0.99365,0.99365,0.99365,0.99365,0.99365,0.99365,0.99365,0.99365,0.99365,0.99414,0.99414,0.99414,0.99414,0.99121,0.99414,0.99414,0.99414,1.0029,1,1,1.0029,1.0059,1.0117,1.0117,1.0117,1.0146,1.0146,1.0176,1.0146,1.0146,1.0146,1.0146,1.0117,1.0117,1.0117,1.0117,1.0117,1.0146,1.0146,1.0117,1.0117,1.0117,1.0117,1.0117,1.0117,1.0117,1.0088,1.0088,1.0088,1.0088,1.0088,1.0059,1.0059,1.0059,1.0059,1.0059,1.0059,1.0059,1.0059,1.0059,1.0059,1.0059,1.0059,1.0029,1.0029,1.0029,1.0029,1.0029,1.0029,1.0029,1.0029,1.0029,1.0029,1,1,1,1,0.99707,0.99707,0.99707,0.99707,0.99707,0.99707,0.99707,0.99414,0.99414,0.99414,0,0,0,1.1455,0,0,1.1416,1.1299,1.1299,1.1299,1.126,1.126,1.1299,1.1299,1.1299,1.1299,1.1299,1.1299,1.126,1.1221,1.1152,1.1045,1.0938,1.0869,1.0801,1.0762,1.0732,1.0693,1.0664,1.0625,1.0625,1.0596,1.0596,1.0596,1.0596,1.0566,1.0527,1.0527,1.0527,1.0498,1.0498,1.0498,1.0498,1.0498,1.0498,1.0498,1.0469,1.043,1.043,1.043,1.04,1.04,1.04,1.04,1.0371,1.0371,1.0371,1.04,1.0371,1.0371,1.0371,1.0371,1.0371,1.0342,1.0342,1.0342,1.0371,1.0342,1.0342,1.0342,1.0342,1.0371,1.0371,1.0371,1.0371,1.0371,1.04,1.0371,0,0,0,0,0,0,0,0,0,0,0,0,0,0,0,0,0,0,0,1.4424,1.4365,1.4297,1.4297,1.418,1.4121,1.4062,1.4062,0,0,0,1.7832,1.7832,1.7734,1.7734,1.7646,1.7646,1.7646,1.7646,1.7559,1.7559,1.7461,1.7461,1.7461,1.7471,1.7471,1.7471,1.7471,1.7471,1.7471,1.7373,0,0,0,0,0,0,0,0,0,0,0,0,0,0,0,0,0,0,0,0,0,0,0,0,0,0,0,0,0,0,0
