0.90137,0.90381,0.90381,0.90625,0.90869,0.90869,0.91113,0.91113,0.91113,0.91113,0.91357,0.91357,0.91602,0.91846,0.91846,0.9209,0.9209,0.9209,0.92383,0.92383,0.92383,0.92627,0.92627,0.92627,0.92871,0.92871,0.92871,0.93115,0.93115,0.93408,0.93652,0.93897,0.9419,0.9419,0.9419,0.9419,0.94434,0.94434,0.94434,0.94727,0.94971,0.94971,0.95264,0.95264,0.95508,0.95508,0.95508,0.95801,0.95801,0.96045,0.96045,0.96338,0.96338,0.96582,0.96582,0.96582,0.96875,0.96875,0.96875,0.97168,0.97168,0.97461,0.97461,0.97461,0.97461,0.97705,0.97705,0.97998,0.98291,0.98291,0.98584,0.98877,0.98877,0.98877,0.98877,0.9917,0.9917,0.9917,0.99463,0.99463,0.99756,0.99756,0.99756,1.001,0.99756,1.0039,1.0068,1.0068,1.0098,1.0098,1.0156,1.0156,1.0156,1.0156,1.0156,1.0156,1.0156,1.0156,1.0156,1.0537,1.0537,1.0566,1.0537,1.0566,1.0537,1.0537,1.0537,1.0508,1.0469,1.0439,1.0439,1.041,0,1.1914,1.1992,1.1953,1.1992,1.1953,1.1953,1.1992,1.1953,1.1953,1.1914,1.1914,1.1914,1.1914,1.1914,1.1914,1.1914,1.1875,1.1875,1.1875,1.1875,1.1875,1.1826,1.1826,1.1826,1.1826,1.1826,1.1826,1.1826,1.1826,1.1826,1.1787,1.1748,1.1709,1.1709,1.1709,1.1709,1.167,1.167,1.167,1.1709,1.1709,1.1709,1.167,1.167,1.167,1.167,1.167,1.167,1.167,1.1631,1.1631,1.1631,1.1631,1.1631,1.1631,1.1631,1.1631,1.1631,1.1592,1.1592,1.1592,1.1592,1.1592,1.1592,1.1592,0,0,0,0,0,0,0,0,0.90967,0.90967,0.85449,0.85449,0.85449,0.85449,0.85449,0.85449,0.85254,0.85254,0.85254,0.85254,0.85254,0,0,0,0.81152,0.81152,0.80957,0.80957,0.80762,0.80566,0.80566,0.80371,0.80176,0.80176,0.80176,0.7998,0.7998,0.79834,0.79834,0.79834,0.79834,0.79639,0.79639,0.79639,0.79834,0.79834,0.79834,0.79834,0.79248,0.79248,0.78906,0.78906,0.78711,0.78711,0.78906,0.78906,0.79053,0.78906,0.79053,0.79248,0,0,0.91211,0.91211,0.90967,0.91211,0.91211,0.91455,0.91699,0.91992,0.92236,0,0.95361,0.95068,0.95068,0.95068,0.95068,0.95068,0.95361,0.95361,0.95605,0.95361,0.95605,0.95605,0.95605,0.95605,0.95361,0.95361,0.95361,0.95605,0.95605,0.95361,0.95605,0.95605,0.95605,0.95605,0.95361,0.95361,0.95605,0.95361,0.95605,0.95605,0.95605,0.95654,0.95654,0.95605,0.95605,0.95361,0.95361,0.95361,0.95361,0.95117,0.95117,0.94824,0.94824,0.94824,0.94824,0.9458,0.9458,0.9458,0.9458,0.9458,0.94824,0.94824,0.94824,0.95117,0.95654,0,0,0.77295,0.76953,0.76953,0.76758,0.76758,0.76611,0.76611,0.76611,0.76611,0.76611,0.76611,0.76611,0.76416,0.76416,0.76611,0.76611,0.76758,0.76611,0.76758,0.76611,0.76611,0.76416,0.76611,0.76611,0.76416,0.7627,0.7627,0.76074,0.76074,0.76074,0.76074,0.75928,0.75928,0.75928,0.75928,0.75928,0.75928,0.75928,0.75928,0.75732,0.75781,0.75781,0.75781,0.75586,0.75586,0.75586,0.75781,0.75781,0.75781,0.75781,0.75781,0.75586,0.75586,0.75586,0.75586,0.7544,0.7544,0.7544,0.7544,0.7544,0.7544,0.7544,0.7544,0.75781,0.75586,0,0,0,0,0,0,0,0,0,0,0,1.042,1.0391,1.0391,1.0361,1.0361,1.0361,1.0322,1.0322,1.0322,1.0293,1.0293,1.0293,1.0293,1.0293,1.0264,1.0264,1.0264,1.0264,1.0264,1.0264,1.0264,1.0264,1.0264,1.0264,1.0234,1.0234,0,0,0,0,0,0,0,0,1.8428,0,0,1.9727,1.9609,1.9492,1.9492,1.9385,1.9385,1.9385,1.9385,1.9609,1.9385,1.9385,1.9385,1.9277,1.9277,1.9492,1.9277,1.9277,1.9277,1.9277,1.916,1.916,1.916,1.9053,1.9053,1.9053,1.8955,1.8955,1.8955,1.8955,1.8955,1.9062,1.8848,1.8848,1.8955,1.8955,1.8955,1.8955,1.8955,1.8955,1.8955,1.8955,1.8848,1.8848,1.8848,1.8643,1.8643,1.8643,1.8643,1.8643,1.8848,1.874,1.8643
0.90137,0.90381,0.90625,0.90625,0.90869,0.90869,0.91113,0.91113,0.91113,0.91113,0.91357,0.91357,0.91602,0.91846,0.91846,0.92139,0.92139,0.92139,0.92383,0.92383,0.92383,0.92627,0.92627,0.92627,0.92871,0.92871,0.92871,0.93115,0.93115,0,0.93652,0.93897,0.93897,0.9419,0.9419,0.94434,0.94434,0.94434,0.94434,0.94727,0.94971,0.94971,0.95264,0.95264,0.95508,0.95508,0.95508,0.95508,0.95801,0.96045,0.96045,0.96338,0.96338,0.96631,0.96631,0.96875,0.96875,0.96875,0.96875,0.97168,0.97168,0.97461,0.97461,0.97461,0.97461,0.97754,0.97754,0.97998,0.98291,0.98584,0.98584,0.98877,0.98877,0.98877,0.98877,0.9917,0.9917,0.9917,0.9917,0.99463,0.99756,0.99756,0.99756,1.001,0.99756,1.001,1.0068,1.0068,1.0098,1.0098,1.0156,1.0156,1.0156,1.0156,1.0156,1.0156,1.0186,1.0186,1.0156,1.0156,1.0537,1.0537,1.0537,1.0537,1.0537,1.0537,1.0537,1.0508,1.0469,1.0439,0,1.0371,0,1.1875,1.1953,1.1953,1.1953,1.1914,1.1953,1.1953,1.1953,1.1914,1.1914,1.1914,1.1914,1.1914,1.1914,1.1914,1.1875,1.1875,1.1875,1.1875,1.1875,1.1826,1.1826,1.1826,1.1826,1.1826,1.1826,1.1826,1.1826,1.1826,1.1787,1.1748,1.1709,1.1709,1.1709,1.1709,1.167,1.167,1.167,1.167,1.1709,1.1709,1.1709,1.167,1.167,1.167,1.167,1.167,1.167,1.1631,1.167,1.167,1.1631,1.1631,1.1631,1.1631,1.1592,1.1631,1.1592,1.1592,1.1592,1.1592,1.1592,1.1592,1.1592,0,0,0,0,0,0,0,0,0,0.91455,0.90967,0.85449,0.85254,0.85449,0.85449,0.85254,0.85254,0.85254,0.8501,0.8501,0.8501,0.8501,0,0,0,0,0.81152,0.80957,0.80762,0.80566,0.80566,0.80371,0.80371,0.80176,0.80176,0.7998,0.7998,0.79834,0.79834,0.79834,0.79834,0.79834,0.79639,0.79639,0.79639,0.79834,0.79639,0.79443,0.79443,0.79053,0.78711,0.78711,0.78711,0.78516,0.78516,0.78516,0.78711,0.78711,0.78516,0.78516,0.78516,0.78516,0,0,0.91211,0.91211,0.91211,0.91211,0.91455,0.91748,0.91992,0,0,0,0.95068,0.95068,0.95068,0.95068,0.95068,0.95361,0.95605,0.95605,0.95605,0.95605,0.95605,0.95898,0.95605,0.95361,0.95361,0.95361,0.95605,0.95605,0.95361,0.95605,0.95361,0.95361,0.95361,0.95361,0.95361,0.95654,0.95361,0.95654,0.95654,0.95654,0.95654,0.95654,0.95654,0.95361,0.95361,0.95117,0.95117,0.95117,0.95117,0.94824,0.95117,0.95117,0.95117,0.94824,0.9458,0.94824,0.94824,0.94824,0.94824,0.94824,0.94824,0.94824,0.95361,0.95654,0.77148,0.77148,0.76953,0.76953,0.76758,0.76758,0.76758,0.76611,0.76611,0.76611,0.76611,0.76611,0.76611,0.76416,0.76416,0.76416,0.76416,0.76416,0.76611,0.76611,0.76611,0.76611,0.76611,0.76416,0.76416,0.76416,0.7627,0.76074,0.76074,0.76074,0.76074,0.76074,0.76074,0.75928,0.75928,0.75928,0.75928,0.75928,0.75928,0.75928,0.75781,0.75781,0.75781,0.75586,0.75586,0.75586,0.75586,0.75586,0.75781,0.75781,0.75781,0.75781,0.75781,0.75781,0.75781,0.75586,0.75586,0.7544,0.7544,0.7544,0.7544,0.7544,0.7544,0.7544,0.75586,0.75781,0.75781,0.75781,0,0,0,0,0,0,0,0,0,0,0,1.042,1.0361,1.0332,1.0361,1.0332,1.0332,1.0332,1.0293,1.0293,1.0293,1.0293,1.0264,1.0264,1.0234,1.0234,1.0264,1.0264,1.0264,1.0264,1.0264,1.0264,1.0234,1.0234,1.0234,1.0234,1.0264,0,0,0,0,0,0,1.8037,1.8428,1.874,0,1.9834,1.9492,1.9385,1.9385,1.9385,1.9385,1.9277,1.9385,1.9277,1.9277,1.9385,1.9385,1.9277,1.9277,1.9385,1.9277,1.9277,1.9277,1.9277,1.917,1.917,1.917,1.9062,1.8955,1.8955,1.8955,1.8848,1.8848,1.8955,1.8848,1.8955,1.8848,1.8848,1.8955,1.8955,1.8955,1.8848,1.8848,1.8955,1.8848,1.8848,1.8848,1.8848,1.874,1.8643,1.8535,1.8535,1.8535,1.8535,1.8535,1.8643,1.8643
0.90137,0.90381,0.90625,0.90625,0.90869,0.90869,0.91113,0.91113,0.91113,0.91357,0.91357,0.91602,0.91846,0.91846,0.92139,0.92139,0.92383,0.92383,0.92383,0.92383,0.92627,0.92627,0.92627,0.92871,0.92871,0.92871,0.92871,0.93164,0.93164,0.93652,0.93652,0.93897,0.9419,0.9419,0.9419,0.94434,0.94434,0.94434,0.94434,0.94727,0.94971,0.94971,0.95264,0.95264,0.95508,0.95508,0.95508,0.95508,0.96045,0.96045,0.96045,0.96338,0.96631,0.96631,0.96631,0.96875,0.96875,0.96875,0.97168,0.97168,0.97168,0.97461,0.97461,0.97461,0.97754,0.97754,0.98047,0.98291,0.98584,0.98584,0.98584,0.98877,0.98877,0.98877,0.98877,0.9917,0.9917,0.99463,0.99463,0.99463,0.99756,1.001,1.001,1.001,1.001,1.001,1.0068,1.0098,1.0098,1.0127,1.0127,1.0156,1.0156,1.0156,1.0186,1.0186,1.0186,1.0215,1.0186,1.0215,1.0254,1.0537,1.0537,1.0537,1.0537,1.0537,1.0508,1.0508,1.0439,0,0,1.1875,1.1875,1.1914,1.1953,1.1953,1.1953,1.1914,1.1914,1.1914,1.1914,1.1875,1.1875,1.1875,1.1875,1.1875,1.1875,1.1875,1.1875,1.1826,1.1826,1.1826,1.1826,1.1826,1.1826,1.1787,1.1787,1.1787,1.1787,1.1787,1.1787,1.1748,1.1748,1.1748,1.1709,1.1709,1.1709,1.167,1.167,1.167,1.167,1.1631,1.167,1.167,1.167,1.167,1.167,1.167,1.167,1.167,1.1631,1.1631,1.1631,1.1631,1.1631,1.1631,1.1592,1.1592,1.1592,1.1592,1.1592,1.1553,1.1553,1.1592,1.1553,1.1553,0,0,0,0,0,0,0,0.91699,0.91455,0.91699,0.91699,0.91455,0.85449,0.85254,0.85254,0.85254,0.85254,0.8501,0.8501,0.8501,0.84815,0.84815,0.84815,0,0,0,0,0.81152,0.80762,0.80762,0.80371,0.80176,0.80176,0.80176,0.80029,0.80029,0.79834,0.79834,0.79834,0.79639,0.79639,0.79639,0.79443,0.79248,0.79248,0.79248,0.79248,0.79443,0.79102,0.78906,0.78906,0.78711,0.78516,0.78516,0.78369,0.78369,0.78516,0.78711,0.78516,0.78516,0.78516,0.78369,0.78369,0.77978,0.77978,0.90967,0.91504,0.91504,0.91211,0.91211,0.9126,0,0,0,0.95361,0.95068,0.95068,0.95068,0.95068,0.95068,0.95361,0.95605,0.95605,0.95605,0.95605,0.95898,0.95898,0.95605,0.95361,0.95605,0.95361,0.95654,0.95654,0.95361,0.95654,0.95361,0.95654,0.95361,0.95361,0.95361,0.95361,0.95361,0.95654,0.95654,0.95361,0.95654,0.95654,0.95361,0.95361,0.95117,0.95117,0.94824,0.94824,0.77832,0.77832,0.77832,0.77832,0.95117,0.94824,0.9458,0.9458,0.9458,0.9458,0.9458,0.9458,0.77148,0.77148,0.77148,0.77148,0.77148,0.76953,0.76953,0.76953,0.76758,0.76758,0.76758,0.76611,0.76611,0.76611,0.76611,0.76416,0.76416,0.76416,0.76416,0.76416,0.7627,0.7627,0.76416,0.76611,0.76611,0.76465,0.76465,0.7627,0.76465,0.76465,0.76123,0.76074,0.76074,0.75928,0.75928,0.75928,0.75928,0.75928,0.75928,0.75928,0.75928,0.75928,0.75928,0.75928,0.75928,0.75928,0.75928,0.75781,0.75781,0.75781,0.75781,0.75586,0.75781,0.75781,0.75781,0.75781,0.75781,0.75781,0.75781,0.75781,0.75586,0.75586,0.7544,0.7544,0.75586,0.7544,0.7544,0.7544,0.75586,0.75781,0.75781,0.75928,0.76123,0,0,0,0,0,0,0,0,0,0,0,1.0361,1.0332,1.0332,1.0332,1.0293,1.0293,1.0264,1.0264,1.0234,1.0234,1.0234,1.0234,1.0205,1.0234,1.0234,1.0234,1.0234,1.0234,1.0234,1.0234,1.0234,1.0205,1.0205,1.0205,1.0234,1.0205,1.0205,0,0,0,0,0,1.8535,1.8848,1.8945,1.9961,1.916,1.916,1.9385,1.9385,1.9385,1.9277,1.9277,1.9277,1.9277,1.9385,1.9277,1.9277,1.917,1.9277,1.9277,1.9277,1.9277,1.9277,1.917,1.917,1.9062,1.9062,1.8955,1.8955,1.8955,1.8848,1.8848,1.8848,1.8848,1.874,1.874,1.874,1.8848,1.8848,1.8848,1.8848,1.8848,1.8848,1.8848,1.8848,1.8848,1.874,1.8643,1.8535,1.8535,1.8535,1.8535,1.8535,1.8535,1.8535,1.8535
0.90381,0.90625,0.90625,0.90869,0.90869,0.90869,0.91113,0.91113,0.91357,0.91357,0.91357,0.91602,0.91895,0.91895,0.92139,0.92139,0.92383,0.92383,0.92383,0.92383,0.92627,0.92627,0.92627,0.92871,0.92871,0.92871,0.92871,0.93164,0.93164,0.93652,0.93652,0.93945,0.9419,0.9419,0.9419,0.9419,0.94434,0.94434,0.94434,0.94727,0.94971,0.94971,0.95264,0.95264,0.95508,0.95508,0.95508,0.95508,0.96045,0.96045,0.96045,0.96338,0.96631,0.96631,0.96631,0.96875,0.96875,0.96875,0.97168,0.97168,0.97461,0.97461,0.97461,0.97461,0.97754,0.97754,0.98047,0.98291,0.98584,0.98584,0.98584,0.98877,0.98877,0.98877,0.98877,0.98877,0.9917,0.9917,0.99463,0.99756,1.001,1.001,1.001,1.001,1.0039,1.0039,0,1.0098,1.0098,1.0127,1.0156,1.0156,1.0156,1.0156,1.0186,1.0186,1.0215,1.0215,1.0215,1.0215,1.0254,1.0254,1.0439,1.0508,1.0537,1.0537,1.0537,1.0537,0,0,1.1826,1.1826,1.1875,1.1875,1.1914,1.1914,1.1914,1.1914,1.1914,1.1875,1.1875,1.1875,1.1875,1.1875,1.1826,1.1826,1.1826,1.1875,1.1826,1.1826,1.1787,1.1826,1.1826,1.1787,1.1787,1.1787,1.1787,1.1787,1.1787,1.1748,1.1748,1.1748,1.1709,1.1709,1.1709,1.1709,1.167,1.167,1.167,1.167,1.1631,1.1631,1.167,1.167,1.167,1.167,1.1631,1.1631,1.1631,1.1631,1.1631,1.1592,1.1592,1.1631,1.1592,1.1631,1.1592,1.1592,1.1592,1.1592,1.1553,1.1553,1.1553,1.1553,1.1514,1.1514,0,0,0,0,0,0,0.91699,0.91699,0.91699,0.91943,0.91699,0.91699,0.85254,0.8501,0.85254,0.85254,0.8501,0.84815,0.84815,0.84815,0.84619,0.84619,0.84619,0,0,0,0,0.80957,0.80566,0.80566,0.80371,0.80029,0.80029,0.80029,0.79834,0.79834,0.79834,0.79639,0.79639,0.79443,0.79443,0.79248,0.79248,0.79102,0.79102,0.79102,0.79102,0.79102,0.78711,0.78711,0.78516,0.78516,0.78369,0.78369,0.78369,0.78369,0.78369,0.78516,0.78516,0.78369,0.78369,0.77978,0.77978,0.77978,0.77832,0.77832,0.77978,0.77978,0.91504,0.91504,0.91504,0,0.78565,0.78565,0.78565,0.78565,0.78565,0.78565,0.95068,0.95068,0.95361,0.95361,0.95361,0.95605,0.95898,0.95898,0.95898,0.95654,0.95361,0.95361,0.95361,0.95654,0.95361,0.95361,0.95654,0.95361,0.95654,0.95654,0.95361,0.95361,0.95654,0.95361,0.95361,0.95361,0.95361,0.95654,0.95654,0.95361,0.95117,0.94824,0.94824,0.94824,0.77832,0.77637,0.77637,0.77637,0.7749,0.77295,0.7749,0.77148,0.77148,0.77148,0.77148,0.9458,0.77148,0.77148,0.76953,0.76953,0.76953,0.76953,0.76953,0.76807,0.76807,0.76807,0.76807,0.76611,0.76611,0.76611,0.76611,0.76611,0.76416,0.76416,0.7627,0.7627,0.7627,0.7627,0.7627,0.7627,0.76465,0.76465,0.76465,0.76465,0.7627,0.7627,0.7627,0.76123,0.76123,0.75928,0.75928,0.75928,0.75928,0.75928,0.75928,0.75928,0.75928,0.75928,0.75928,0.76123,0.75928,0.75928,0.75928,0.75928,0.75928,0.75928,0.75928,0.75781,0.75781,0.75781,0.75928,0.75928,0.75928,0.75928,0.75928,0.75781,0.75781,0.75781,0.75586,0.75586,0.75586,0.75586,0.75586,0.75586,0.75586,0.75781,0.75928,0.75928,0.75928,0.76123,0,0,0,0,0,0,0,0,0,0,0,0,1.0293,1.0293,1.0293,1.0293,1.0264,1.0234,1.0234,1.0234,1.0234,1.0234,1.0205,1.0205,1.0205,1.0234,1.0205,1.0205,1.0205,1.0234,1.0234,1.0205,1.0205,1.0176,1.0176,1.0205,1.0205,1.0205,1.0205,0,0,0,0,0,0,1.9053,1.9277,1.9277,1.9277,1.9385,1.9385,1.9385,1.9277,1.9277,1.9277,1.9277,1.9277,1.9277,1.917,1.917,1.9385,1.9277,1.9277,1.9277,1.917,1.917,1.9062,1.8955,1.8955,1.8848,1.8848,1.8848,1.8848,1.8848,1.8848,1.8848,1.874,1.874,1.874,1.874,1.8848,1.8848,1.8848,1.8848,1.8848,1.8848,1.8848,1.8848,1.8535,1.8535,1.8535,1.8535,1.8438,1.8535,1.8535,1.8535,1.8535,1.8535
0.90381,0.90625,0.90625,0.90869,0.91113,0.91113,0.91113,0.91113,0.91357,0.91357,0.91357,0.91602,0.91895,0.91895,0.91895,0.92139,0.92139,0.92383,0.92383,0.92383,0.92383,0.92627,0.92627,0.92871,0.92871,0.92871,0.92871,0.93164,0.93164,0.93652,0.93652,0.93945,0.9419,0.9419,0.9419,0.9419,0.94434,0.94434,0.94434,0.94727,0.94971,0.95264,0.95264,0.95264,0.95508,0.95508,0.95508,0.95801,0.96094,0.96094,0.96094,0.96338,0.96338,0.96631,0.96631,0.96924,0.96924,0.96924,0.97168,0.97168,0.97461,0.97461,0.97461,0.97461,0.97754,0.97754,0.98047,0.98047,0.98584,0.98584,0.98877,0.98877,0.98877,0.98877,0.9917,0.9917,0.9917,0.99463,0.99463,0.99756,1.001,1.001,1.001,1.0039,1.001,1.0039,1.0068,1.0068,1.0098,1.0098,1.0127,1.0156,1.0156,1.0186,1.0186,1.0215,1.0215,1.0254,1.0254,1.0254,1.0254,1.0312,1.0381,1.0469,1.0537,1.0537,1.0537,0,0,1.1826,1.1826,1.1826,1.1826,1.1875,1.1875,1.1875,1.1875,1.1875,1.1875,1.1875,1.1875,1.1875,1.1875,1.1826,1.1826,1.1826,1.1836,1.1836,1.1836,1.1787,1.1787,1.1787,1.1787,1.1787,1.1787,1.1748,1.1748,1.1748,1.1748,1.1748,1.1709,1.1709,1.1709,1.167,1.167,1.167,1.167,1.167,1.1631,1.1631,1.1631,1.1592,1.1631,1.1631,1.1631,1.1631,1.1592,1.1592,1.1592,1.1592,1.1592,1.1592,1.1592,1.1592,1.1592,1.1592,1.1592,1.1592,1.1553,1.1553,1.1553,1.1553,1.1514,1.1514,1.1475,1.1436,0,0,0,0,0,0.91943,0.91699,0.91699,0.91699,0.91943,0.91943,0.91699,0.85254,0.8501,0.8501,0.8501,0.84815,0.84619,0.84619,0.84619,0.84619,0.84375,0,0,0,0,0,0,0.80566,0.80371,0.80029,0.79834,0.79834,0.79834,0.79834,0.79639,0.79639,0.79443,0.79248,0.79248,0.79248,0.79102,0.79102,0.78906,0.78906,0.78906,0.78906,0.78711,0.78516,0.78516,0.78369,0.78369,0.78369,0.78174,0.78369,0.78174,0.78174,0.78369,0.78174,0.78174,0.78174,0.77978,0.77978,0.77978,0.77832,0.77832,0.77832,0.77832,0.77832,0.77832,0.77637,0.77832,0.77637,0.78369,0.78565,0.78565,0.78565,0.78565,0.78565,0.78369,0,0,0,0.95654,0.95898,0.96191,0.95898,0.95654,0.95361,0.95361,0.95361,0.95654,0.95361,0.95361,0.95654,0.95361,0.95898,0.95654,0.95361,0.95654,0.95654,0.95361,0.95361,0.95117,0.95117,0.95361,0.95361,0.95117,0.77832,0.78027,0.78027,0.77832,0.77637,0.7749,0.7749,0.7749,0.7749,0.77295,0.77295,0.77148,0.77148,0.77148,0.77148,0.77148,0.77148,0.77148,0.76953,0.76953,0.76953,0.76953,0.76807,0.76807,0.76807,0.76611,0.76611,0.76611,0.76611,0.76465,0.76465,0.76465,0.76465,0.76465,0.7627,0.7627,0.7627,0.7627,0.7627,0.7627,0.76465,0.7627,0.76465,0.7627,0.7627,0.7627,0.7627,0.76123,0.76123,0.76123,0.75928,0.75928,0.75928,0.75928,0.75928,0.75928,0.75928,0.75928,0.75928,0.76123,0.76123,0.75928,0.75928,0.75928,0.75928,0.75928,0.75928,0.75928,0.75928,0.75928,0.75928,0.75928,0.75928,0.75928,0.75928,0.75928,0.75781,0.75781,0.75781,0.75586,0.75586,0.75781,0.75586,0.75586,0.75586,0.75781,0.75781,0.75781,0.75928,0.76123,0.75928,0.75928,0,0,0,0,0,0,0,0,0,0,1.0293,1.0293,1.0293,1.0264,1.0264,1.0234,1.0234,1.0205,1.0205,1.0205,1.0176,1.0176,1.0205,1.0205,1.0176,1.0176,1.0176,1.0176,1.0205,1.0205,1.0176,1.0176,1.0176,1.0176,1.0176,1.0176,1.0146,0,0,0,0,0,0,0,1.9277,1.9277,1.9277,1.9277,1.9277,1.9277,1.9277,1.9277,1.9277,1.9277,1.9277,1.9277,1.917,1.917,1.9277,1.917,1.9277,1.917,1.917,1.9062,1.8955,1.8955,1.8955,1.8848,1.8848,1.8848,1.8848,1.8848,1.8848,1.874,1.874,1.874,1.8643,1.8848,1.874,1.874,1.8848,1.8848,1.8848,1.874,1.874,1.874,1.8535,1.8535,1.8535,1.8535,1.8438,1.8545,1.8545,1.8545,1.8545,1.8545
0.90381,0.90625,0.90869,0.90869,0.91113,0.91113,0.91113,0.91113,0.91357,0.91357,0.91357,0.9165,0.91895,0.91895,0.91895,0.92139,0.92139,0.92383,0.92383,0.92383,0.92627,0.92627,0.92871,0.92871,0.92871,0.92871,0.93164,0.93164,0.93164,0.93652,0.93652,0.93652,0.93945,0.93945,0.9419,0.9419,0.94482,0.94482,0.94727,0.94727,0.94971,0.94971,0.95264,0.95508,0.95508,0.95508,0.95801,0.95801,0.96094,0.96094,0.96338,0.96338,0.96631,0.96631,0.96631,0.96924,0.96924,0.97168,0.97168,0.97168,0.97461,0.97461,0.97461,0.97461,0.97754,0.97754,0.98047,0.9834,0.98633,0.98633,0.98633,0.98877,0.98877,0.98877,0.9917,0.9917,0.9917,0.99463,0.99463,0.99756,1.001,1.001,1.001,1.0039,1.001,1.0068,1.0068,1.0068,1.0098,1.0098,1.0156,1.0156,1.0156,1.0186,1.0186,1.0225,1.0254,1.0254,1.0254,1.0254,1.0254,1.0283,1.0312,1.0342,0,0,1.1875,1.1875,1.1875,1.1875,1.1826,1.1826,1.1826,1.1826,1.1875,1.1875,1.1875,1.1875,1.1875,1.1836,1.1836,1.1836,1.1836,1.1836,1.1836,1.1836,1.1787,1.1787,1.1787,1.1787,1.1748,1.1748,1.1748,1.1748,1.1748,1.1709,1.1709,1.1709,1.1709,1.1709,1.1709,1.167,1.167,1.167,1.1631,1.1631,1.1631,1.1631,1.1631,1.1631,1.1592,1.1592,1.1592,1.1592,1.1592,1.1592,1.1592,1.1592,1.1592,1.1553,1.1553,1.1553,1.1553,1.1553,1.1553,1.1553,1.1553,1.1553,1.1553,1.1553,1.1514,1.1514,1.1475,1.1475,1.1436,1.1436,0,0,0,0,0,0.91943,0.91699,0.91699,0.91943,0.91943,0.91943,0.91699,0.85254,0.84815,0.8501,0.84815,0.84619,0.84619,0.84375,0.84375,0.84375,0.8418,0,0,0,0,0,0,0,0.80029,0.79834,0.79639,0.79443,0.79443,0.79443,0.79248,0.79248,0.79248,0.79102,0.79102,0.79102,0.78906,0.78906,0.78711,0.78711,0.78711,0.78516,0.78516,0.78369,0.78369,0.78369,0.78369,0.78174,0.78174,0.78174,0.78174,0.77978,0.77978,0.77832,0.77978,0.77832,0.77832,0.77832,0.77832,0.77832,0.77637,0.77832,0.77637,0.77832,0.77637,0.77637,0.77637,0.77637,0.78174,0.78174,0.78369,0.78369,0.78369,0.78369,0.78369,0.78174,0,0,0,0.95898,0.96191,0.96191,0.95898,0.95361,0.95361,0.95117,0.95361,0.95361,0.95361,0.95654,0.95654,0.95654,0.95654,0.95654,0.95654,0.95654,0.95361,0.95361,0.95117,0.95117,0.95117,0.78027,0.77832,0.77832,0.77832,0.77832,0.77637,0.77637,0.7749,0.77295,0.77295,0.77295,0.77295,0.77148,0.77148,0.77148,0.77148,0.77148,0.77148,0.77148,0.77148,0.76953,0.76953,0.76807,0.76807,0.76807,0.76611,0.76611,0.76611,0.76611,0.76611,0.76465,0.76465,0.76465,0.76465,0.7627,0.7627,0.76123,0.7627,0.7627,0.76123,0.7627,0.76465,0.76465,0.7627,0.76465,0.7627,0.7627,0.7627,0.76465,0.76123,0.76123,0.76123,0.76123,0.75928,0.75928,0.75928,0.75928,0.75928,0.75928,0.75928,0.76123,0.76123,0.7627,0.7627,0.76123,0.76123,0.76123,0.76123,0.76123,0.75928,0.75928,0.76123,0.76123,0.76123,0.76123,0.76123,0.76123,0.76123,0.75928,0.75928,0.75928,0.75928,0.75928,0.75928,0.75781,0.75781,0.75635,0.75781,0.75977,0.75977,0.75977,0.75977,0.75977,0.75977,0.75977,0,0,0,0,0,0,0,0,0,0,1.0293,1.0264,1.0264,1.0234,1.0205,1.0205,1.0176,1.0176,1.0176,1.0176,1.0146,1.0176,1.0176,1.0176,1.0146,1.0146,1.0146,1.0176,1.0176,1.0146,1.0146,1.0146,1.0146,1.0176,1.0146,1.0146,0,0,0,0,0,0,0,0,1.9277,1.9277,1.9277,1.9277,1.9277,1.9277,1.9277,1.9277,1.917,1.9277,1.917,1.917,1.917,1.917,1.917,1.917,1.9062,1.9062,1.8955,1.8848,1.8848,1.8848,1.8848,1.8848,1.874,1.874,1.874,1.874,1.875,1.875,1.875,1.8643,1.8848,1.8848,1.875,1.875,1.875,1.875,1.875,1.875,1.8643,1.8545,1.8438,1.8545,1.8545,1.8438,1.8545,1.8438,1.8438,1.8545,1.8545
0.90381,0.90869,0.90869,0.90869,0.91113,0.91113,0.91113,0.91406,0.91406,0.91406,0.91406,0.9165,0.91895,0.91895,0.91895,0.92139,0.92139,0.92139,0.92383,0.92383,0.92627,0.92627,0.9292,0.9292,0.9292,0.9292,0.93164,0.93164,0.93408,0.93652,0.93945,0.93945,0.93945,0.9419,0.9419,0.9419,0.94482,0.94727,0.94727,0.94971,0.94971,0.9502,0.95264,0.95557,0.95557,0.95557,0.95801,0.95801,0.96094,0.96094,0.96094,0.96338,0.96631,0.96631,0.96631,0.96631,0.96924,0.97168,0.97168,0.97461,0.97461,0.97461,0.97461,0.97754,0.97754,0.98047,0.98047,0.9834,0.98633,0.98633,0.98633,0.98926,0.98926,0.98926,0.99219,0.99219,0.99512,0.99512,0.99512,0.99805,1.001,1.001,1.001,1.001,1.0039,1.0068,1.0068,1.0098,1.0098,1.0098,1.0156,1.0156,1.0156,1.0186,1.0225,1.0225,1.0254,1.0254,1.0254,1.0254,1.0283,1.0283,1.0312,1.0312,0,0,1.1875,1.1826,1.1826,1.1826,1.1826,1.1787,1.1787,1.1836,1.1836,1.1836,1.1836,1.1836,1.1836,1.1836,1.1836,1.1787,1.1787,1.1787,1.1787,1.1787,1.1748,1.1748,1.1748,1.1709,1.1709,1.1709,1.1709,1.1709,1.1709,1.1709,1.1709,1.1709,1.167,1.167,1.167,1.167,1.1631,1.1631,1.1631,1.1631,1.1592,1.1592,1.1592,1.1553,1.1553,1.1553,1.1592,1.1592,1.1592,1.1553,1.1553,1.1553,1.1553,1.1553,1.1553,1.1514,1.1514,1.1514,1.1514,1.1514,1.1514,1.1514,1.1514,1.1475,1.1475,1.1436,1.1436,1.1436,1.1436,1.1396,0,0,0,0,0,0.91699,0.91699,0.91699,0.91699,0.91943,0.91943,0.85254,0.85059,0.84815,0.84815,0.84619,0.84619,0.84424,0.84424,0.84424,0.8418,0.8418,0,0,0,0,0,0,0.79639,0.79639,0.79639,0.79443,0.79248,0.79248,0.79248,0.79102,0.79102,0.79102,0.78906,0.78906,0.78906,0.78711,0.78711,0.78516,0.78516,0.78516,0.78369,0.78369,0.78369,0.78369,0.78369,0.78174,0.78174,0.77978,0.78174,0.77978,0.77832,0.77978,0.77832,0.77832,0.77832,0.77637,0.77637,0.77832,0.77637,0.77637,0.77637,0.77637,0.77832,0.77637,0.77637,0.77637,0.77637,0.78027,0.78027,0.78174,0.78369,0.78369,0.78369,0.78369,0.78174,0.78174,0.78369,0.78369,0.78369,0.78369,0.78369,0.78369,0.95361,0.78565,0.78565,0.95361,0.95361,0.95361,0.95361,0.78174,0.78369,0.95361,0.95361,0.95654,0.95654,0.95361,0.78027,0.78027,0.77832,0.78027,0.78027,0.77832,0.77832,0.77832,0.77832,0.77685,0.7749,0.7749,0.77295,0.77295,0.77295,0.77148,0.77148,0.77148,0.77148,0.77148,0.77148,0.77148,0.76953,0.76953,0.76953,0.76807,0.76807,0.76611,0.76611,0.76611,0.76611,0.76611,0.76611,0.76465,0.76465,0.76465,0.76465,0.7627,0.7627,0.76123,0.76123,0.76123,0.76123,0.76123,0.7627,0.76465,0.76465,0.7627,0.76465,0.7627,0.7627,0.7627,0.7627,0.76123,0.76123,0.76123,0.76123,0.76123,0.76123,0.76123,0.76123,0.76123,0.76123,0.76123,0.76123,0.7627,0.7627,0.7627,0.7627,0.76465,0.7627,0.76465,0.7627,0.7627,0.7627,0.7627,0.7627,0.76123,0.76123,0.7627,0.7627,0.7627,0.76123,0.76123,0.76123,0.76123,0.75977,0.75977,0.75977,0.75977,0.75781,0.75977,0.75977,0.75977,0.75977,0.76123,0.75977,0.75977,0.75977,0,0,0,0,0,0,0,0,0,0,1.0234,1.0205,1.0205,1.0205,1.0176,1.0176,1.0146,1.0146,1.0146,1.0146,1.0117,1.0146,1.0146,1.0146,1.0117,1.0117,1.0117,1.0146,1.0146,1.0117,1.0117,1.0117,1.0117,1.0117,1.0117,1.0117,0,0,0,0,0,0,0,0,1.9277,1.917,1.917,1.9277,1.9277,1.9277,1.917,1.917,1.917,1.917,1.917,1.917,1.917,1.917,1.917,1.917,1.9062,1.8955,1.8955,1.8848,1.8848,1.8848,1.8848,1.875,1.875,1.875,1.875,1.875,1.8643,1.8643,1.8643,1.8545,1.8643,1.8643,1.8643,1.8643,1.8643,1.8545,1.8643,1.8643,1.8545,1.8545,1.8545,1.8545,1.8545,1.8438,1.8438,1.8438,1.8438,1.8438,1.8438
0.90625,0.90625,0.90869,0.90869,0.91113,0.91162,0.91162,0.91162,0.91406,0.91406,0.91406,0.9165,0.91895,0.91895,0.91895,0.92139,0.92139,0.92139,0.92383,0.92627,0.92627,0.92627,0.9292,0.9292,0.9292,0.9292,0.93164,0.93164,0.93408,0,0.93945,0.93945,0.93945,0.9419,0.9419,0.9419,0.94482,0.94727,0.9502,0.9502,0.95264,0.95264,0.95264,0.95557,0.95557,0.95557,0.95557,0.95801,0.95801,0.96094,0.96094,0.96338,0.96631,0.96631,0.96631,0.96924,0.96924,0.97217,0.97217,0.97461,0.97461,0.97461,0.97754,0.97754,0.97754,0.97754,0.98047,0.9834,0.98633,0.98633,0.98633,0.98926,0.98926,0.98926,0.99219,0.99219,0.99512,0.99512,0.99805,0.99805,1.001,1.001,1.001,1.0039,1.0039,1.0068,1.0098,1.0098,1.0098,1.0098,1.0156,1.0156,1.0156,1.0186,1.0225,1.0225,1.0254,1.0254,1.0254,1.0254,1.0283,1.0283,1.0312,1.0283,0,0,1.1836,1.1836,1.1836,1.1787,1.1787,1.1787,1.1787,1.1787,1.1787,1.1787,1.1787,1.1787,1.1836,1.1787,1.1787,1.1748,1.1748,1.1748,1.1748,1.1709,1.1709,1.1709,1.1709,1.1709,1.1709,1.1709,1.1709,1.167,1.167,1.167,1.167,1.167,1.167,1.167,1.167,1.1631,1.1631,1.1592,1.1592,1.1592,1.1592,1.1553,1.1553,1.1553,1.1553,1.1514,1.1553,1.1553,1.1553,1.1553,1.1553,1.1553,1.1514,1.1514,1.1514,1.1514,1.1475,1.1475,1.1475,1.1475,1.1475,1.1475,1.1475,1.1475,1.1436,1.1436,1.1436,1.1436,1.1396,1.1396,1.1357,0,0,0,0.90967,0.91699,0.91455,0.91699,0.91699,0.91992,0.91699,0.85449,0.85059,0.84815,0.84815,0.84619,0.84424,0.84424,0.84424,0.8418,0.8418,0.84424,0,0,0,0,0,0,0,0.79639,0.79639,0.79443,0.79248,0.79248,0.79102,0.79102,0.79102,0.78906,0.78906,0.78906,0.78711,0.78711,0.78565,0.78565,0.78565,0.78369,0.78174,0.78369,0.78369,0.78174,0.78174,0.78174,0.78174,0.77978,0.78174,0.78027,0.77832,0.77832,0.77832,0.77832,0.77832,0.77637,0.77637,0.77832,0.77637,0.77637,0.77637,0.77637,0.77637,0.77637,0.77637,0.77637,0.77637,0.77832,0.78027,0.78027,0.78174,0.78369,0.78174,0.78174,0.78174,0.78174,0.78369,0.78369,0.78369,0.78369,0.78369,0.78369,0.78565,0.78565,0.78369,0.78369,0.78565,0.78369,0.78369,0.78369,0.78369,0.78223,0.78027,0.78027,0.77832,0.77832,0.77832,0.77832,0.77832,0.77832,0.77832,0.77832,0.77832,0.77832,0.77685,0.77685,0.77685,0.7749,0.77295,0.77295,0.77295,0.77148,0.76953,0.77148,0.76953,0.76953,0.77148,0.76953,0.76953,0.76953,0.76953,0.76807,0.76807,0.76611,0.76611,0.76611,0.76611,0.76465,0.76465,0.76465,0.76465,0.76465,0.7627,0.7627,0.76123,0.76123,0.76123,0.76123,0.76123,0.7627,0.76465,0.76611,0.76611,0.76465,0.76465,0.76465,0.7627,0.76465,0.76465,0.7627,0.76123,0.7627,0.76123,0.76123,0.76123,0.76123,0.76123,0.76123,0.76123,0.76123,0.7627,0.76465,0.76465,0.76465,0.76465,0.76465,0.76465,0.76465,0.76465,0.76465,0.76465,0.76465,0.76465,0.76465,0.76318,0.76465,0.76318,0.76318,0.76123,0.76123,0.76123,0.76123,0.75977,0.75977,0.75977,0.75977,0.75977,0.76123,0.76123,0.76123,0.76123,0.76123,0.76123,0.76123,0.76123,0.76123,0.76123,0,0,0,0,0,0,0,1.0176,1.0176,1.0176,1.0176,1.0176,1.0146,1.0146,1.0117,1.0117,1.0117,1.0117,1.0088,1.0117,1.0117,1.0117,1.0088,1.0088,1.0088,1.0088,1.0117,1.0088,1.0088,1.0088,1.0117,1.0117,1.0117,1.0088,0,0,0,0,0,0,0,0,1.9502,1.9385,1.917,1.9277,1.917,1.917,1.917,1.917,1.917,1.9062,1.917,1.917,1.917,1.917,1.9062,1.9062,1.8955,1.8955,1.8955,1.8848,1.8848,1.8848,1.875,1.875,1.875,1.875,1.875,1.875,1.875,1.875,1.8643,1.8643,1.8643,1.8643,1.8643,1.8545,1.8643,1.8545,1.8545,1.8545,1.8545,1.8545,1.8438,1.8545,1.8545,1.8438,1.8438,1.8438,1.8438,1.8438,1.8438
0.90674,0.90918,0.90918,0.90918,0.91162,0.91162,0.91162,0.91406,0.91406,0.91406,0.9165,0.91895,0.91895,0.91895,0.91895,0.92139,0.92139,0.92139,0.92139,0.92383,0.92627,0.9292,0.9292,0.9292,0.93164,0.9292,0.93164,0.93164,0.93408,0,0.93945,0.93945,0.9419,0.9419,0.9419,0.94482,0.94727,0.9502,0.95264,0.95264,0.95264,0.95264,0.95557,0.95557,0.95557,0.95557,0.95801,0.95801,0.95801,0.96094,0.96094,0.96338,0.96631,0.96631,0.96631,0.96924,0.96924,0.97217,0.97461,0.97461,0.97461,0.97754,0.97754,0.97754,0.97754,0.98047,0.98047,0.9834,0.98633,0.98633,0.98633,0.98926,0.98926,0.98926,0.99219,0.99219,0.99512,0.99512,0.99805,0.99805,1.001,1.001,1.001,1.0039,1.0039,1.0068,1.0098,1.0098,1.0098,1.0098,1.0127,1.0156,1.0156,1.0195,1.0195,1.0225,1.0254,1.0254,1.0254,1.0254,1.0283,1.0283,1.0283,1.0283,0,0,1.1836,1.1836,1.1836,1.1787,1.1748,1.1748,1.1748,1.1748,1.1748,1.1748,1.1748,1.1748,1.1748,1.1748,1.1748,1.1709,1.1709,1.1709,1.1709,1.1709,1.1709,1.1709,1.1709,1.167,1.167,1.167,1.167,1.167,1.167,1.167,1.167,1.1631,1.1631,1.1631,1.1592,1.1592,1.1592,1.1592,1.1553,1.1553,1.1553,1.1553,1.1553,1.1514,1.1514,1.1514,1.1553,1.1553,1.1553,1.1514,1.1514,1.1514,1.1514,1.1475,1.1475,1.1475,1.1436,1.1436,1.1436,1.1436,1.1436,1.1436,1.1436,1.1436,1.1436,1.1396,1.1396,1.1396,1.1396,1.1357,1.1357,0,0,0.90967,0.91211,0.91699,0.91455,0.91748,0.91748,0,0.85254,0.85254,0.84815,0.84815,0.84619,0.84619,0.84424,0.84424,0.8418,0.8418,0.8418,0.8418,0,0,0,0,0,0,0.79639,0.79639,0.79639,0.79443,0.79297,0.79102,0.79102,0.78906,0.78906,0.78906,0.78906,0.78711,0.78711,0.78565,0.78565,0.78565,0.78565,0.78369,0.78174,0.78174,0.78174,0.78174,0.78174,0.78174,0.78027,0.77832,0.77832,0.77832,0.77832,0.77637,0.77637,0.77832,0.77637,0.77637,0.77637,0.77637,0.77637,0.77637,0.77637,0.77637,0.77637,0.77637,0.77637,0.77637,0.77637,0.77832,0.78027,0.78027,0.78174,0.78174,0.78174,0.78174,0.78174,0.78174,0.78369,0.78369,0.78369,0.78369,0.78369,0.78223,0.78369,0.78369,0.78369,0.78223,0.78369,0.78369,0.78369,0.78369,0.78223,0.78223,0.78027,0.77832,0.77832,0.77832,0.77832,0.77685,0.7749,0.7749,0.77295,0.7749,0.77685,0.77685,0.77685,0.77685,0.77295,0.77295,0.77295,0.77295,0.77148,0.76953,0.76953,0.76953,0.76807,0.76953,0.76953,0.76953,0.76953,0.76807,0.76807,0.76807,0.76807,0.76611,0.76611,0.76611,0.76611,0.76465,0.76465,0.76465,0.76465,0.76465,0.7627,0.7627,0.76123,0.76123,0.76123,0.76123,0.76123,0.76123,0.76465,0.76611,0.76611,0.76465,0.76611,0.76611,0.76465,0.76465,0.76465,0.7627,0.7627,0.76465,0.7627,0.7627,0.7627,0.76123,0.7627,0.76123,0.76123,0.76123,0.76318,0.76465,0.76465,0.76465,0.76465,0.7666,0.7666,0.7666,0.7666,0.76465,0.76465,0.76465,0.76465,0.76465,0.76465,0.76465,0.76465,0.76465,0.76318,0.76318,0.76123,0.76123,0.76318,0.76807,0.76807,0.76318,0.76123,0.76318,0.76123,0.76123,0.76123,0.76123,0.76123,0.76123,0.76123,0.76123,0.76123,0.76807,0.77539,0,0,0,0,1.0146,0,1.0146,1.0117,1.0117,1.0146,1.0117,1.0117,1.0117,1.0088,1.0088,1.0088,1.0088,1.0088,1.0088,1.0088,1.0088,1.0088,1.0088,1.0088,1.0088,1.0088,1.0088,1.0088,1.0088,1.0088,1.0088,0,0,0,0,0,0,0,0,0,1.9385,1.9385,1.9277,1.9277,1.9277,1.9277,1.9277,1.917,1.9277,1.917,1.917,1.917,1.9062,1.9062,1.9062,1.8955,1.8955,1.8848,1.8848,1.8848,1.8848,1.875,1.875,1.875,1.875,1.875,1.875,1.875,1.8643,1.8643,1.8643,1.8643,1.8643,1.8545,1.8545,1.8545,1.8545,1.8545,1.8545,1.8438,1.8545,1.8438,1.8438,1.8447,1.8447,1.8447,1.8447,1.8447,1.8438,1.8438,1.8447
0.90674,0.90918,0.90918,0.91162,0.91162,0.91406,0.91406,0.91406,0.91406,0.91406,0.9165,0.91895,0.91895,0.91895,0.91895,0.92139,0.92139,0.92139,0.92139,0.92676,0.92676,0.9292,0.9292,0.9292,0.9292,0.9292,0.93164,0.93164,0.93408,0,0.93945,0.93945,0.9419,0.9419,0.94482,0.94482,0.94727,0.9502,0.95264,0.95264,0.95264,0.95264,0.95557,0.95557,0.95557,0.95557,0.95801,0.95801,0.95801,0.96094,0.96094,0.96387,0.96631,0.96631,0.96631,0.96924,0.96924,0.97217,0.97461,0.97461,0.97461,0.97754,0.97754,0.97754,0.97754,0.98047,0.98047,0.9834,0.98633,0.98633,0.98633,0.98926,0.98926,0.98926,0.99219,0.99219,0.99512,0.99512,0.99805,0.99805,1.001,1.001,1.001,1.001,1.0039,1.0068,1.0068,1.0068,1.0098,1.0098,1.0127,1.0156,1.0156,1.0195,1.0195,1.0225,1.0254,1.0254,1.0254,1.0254,1.0283,1.0283,1.0283,1.0283,0,0,1.1787,1.1787,1.1787,1.1748,1.1709,1.1709,1.1709,1.1709,1.1748,1.1748,1.1748,1.1748,1.1748,1.1709,1.1709,1.1709,1.1709,1.1709,1.167,1.167,1.167,1.167,1.167,1.1631,1.167,1.167,1.167,1.1631,1.1631,1.1631,1.1631,1.1631,1.1592,1.1592,1.1592,1.1592,1.1553,1.1553,1.1553,1.1553,1.1553,1.1553,1.1514,1.1514,1.1514,1.1514,1.1553,1.1514,1.1514,1.1514,1.1475,1.1475,1.1475,1.1475,1.1436,1.1436,1.1436,1.1436,1.1436,1.1396,1.1396,1.1396,1.1396,1.1396,1.1396,1.1396,1.1396,1.1396,1.1357,1.1357,0,0,0,0.90967,0.90967,0.91455,0.91455,0.91455,0.91504,0,0.85254,0.85059,0.84619,0.84619,0.84619,0.84424,0.84424,0.84424,0.8418,0.84424,0.8418,0,0,0,0,0,0.79834,0.79639,0.79639,0.79639,0.79639,0.79443,0.79297,0.79102,0.78906,0.78906,0.78906,0.78906,0.78711,0.78711,0.78565,0.78565,0.78565,0.78369,0.78369,0.78369,0.78174,0.78174,0.78027,0.78027,0.78027,0.78027,0.78027,0.77832,0.77832,0.77832,0.77637,0.77637,0.77637,0.77637,0.77637,0.77637,0.77637,0.77637,0.77637,0.77637,0.77637,0.77637,0.77637,0.77637,0.77637,0.77637,0.77637,0.77832,0.77832,0.77832,0.78027,0.78223,0.78223,0.78223,0.78223,0.78223,0.78369,0.78369,0.78223,0.78223,0.78369,0.78223,0.78369,0.78223,0.78223,0.78223,0.78223,0.78223,0.78223,0.78223,0.78027,0.78027,0.77832,0.77832,0.77685,0.77685,0.77685,0.7749,0.7749,0.77295,0.77344,0.77148,0.77344,0.77344,0.77344,0.77344,0.77148,0.77148,0.77148,0.77148,0.76953,0.76953,0.76953,0.76953,0.76807,0.76953,0.76953,0.76807,0.76807,0.76807,0.76807,0.76807,0.76611,0.76611,0.76611,0.76465,0.76611,0.76465,0.76465,0.76465,0.76465,0.76465,0.7627,0.7627,0.76123,0.7627,0.76123,0.76123,0.76123,0.76123,0,0.76611,0.76611,0.76611,0.7666,0.7666,0.76465,0.76465,0.76465,0.76465,0.7627,0.76465,0.76465,0.76318,0.76318,0.76318,0.76465,0.76465,0.76318,0.76318,0.76465,0.7666,0.7666,0.7666,0.7666,0.7666,0.7666,0.7666,0.7666,0.76465,0.76465,0.76465,0.76465,0.76465,0.76465,0.76465,0.7666,0.76807,0.76807,0,0.78076,0.78076,0.78076,0.77881,0.77881,0.77881,0.76318,0.76318,0.76123,0.76123,0.76123,0.76123,0.76123,0.76123,0.76123,0.76318,0.76807,0.76807,0.77002,0.77344,0,0,0,0,0,1.0117,1.0088,1.0088,1.0088,1.0088,1.0088,1.0088,1.0088,1.0088,1.0088,1.0059,1.0059,1.0059,1.0088,1.0088,1.0088,1.0059,1.0059,1.0088,1.0059,1.0059,1.0059,1.0059,1.0059,1.0059,0,0,0,0,0,0,0,0,1.9395,1.9395,1.9395,1.9277,1.9277,1.9277,1.9277,1.9277,1.917,1.9277,1.917,1.917,1.917,1.9062,1.9062,1.8955,1.8848,1.8848,1.8848,1.8848,1.875,1.875,1.875,1.875,1.875,1.875,1.875,1.875,1.875,1.8643,1.875,1.8643,1.8643,1.8643,1.8545,1.8545,1.8545,1.8545,1.8545,1.8545,1.8447,1.8447,1.8447,1.8447,1.8447,1.8447,1.8447,1.8447,1.8447,1.8447,1.8447,1.834
0.90674,0.90918,0.90918,0.91162,0.91162,0.91406,0.91406,0.91406,0.9165,0.9165,0.9165,0.91895,0.91895,0.91895,0.92139,0.92139,0.92139,0.92139,0.92383,0.92676,0.92676,0.9292,0.9292,0.9292,0.93164,0.93164,0.93164,0.93164,0.93408,0.93945,0.93945,0.93945,0.9419,0.9419,0.94482,0.94482,0.94727,0.9502,0.95264,0.95264,0.95264,0.95264,0.95557,0.95557,0.95557,0.95557,0.95801,0.95801,0.95801,0.95801,0.96094,0.96387,0.96631,0.96631,0.96631,0.96924,0.96924,0.97217,0.9751,0.9751,0.9751,0.97754,0.97754,0.98047,0.98047,0.98047,0.98047,0.9834,0.98633,0.98633,0.98633,0.98926,0.98926,0.99219,0.99219,0.99219,0.99512,0.99805,0.99805,0.99805,1.001,1.001,1.001,1.001,1.0039,1.0068,1.0068,1.0068,1.0098,1.0098,1.0156,1.0156,1.0156,1.0156,1.0195,1.0225,1.0254,1.0254,1.0254,1.0254,1.0283,1.0283,1.0283,1.0283,0,0,1.1748,1.1709,1.1709,1.1709,1.1709,1.167,1.167,1.1709,1.1709,1.1748,1.1709,1.1709,1.1709,1.1709,1.1709,1.1709,1.167,1.167,1.167,1.167,1.167,1.1631,1.1631,1.1631,1.1631,1.1631,1.1631,1.1631,1.1592,1.1592,1.1592,1.1592,1.1553,1.1553,1.1553,1.1553,1.1553,1.1553,1.1553,1.1553,1.1553,1.1514,1.1514,1.1514,1.1514,1.1475,1.1514,1.1475,1.1475,1.1475,1.1475,1.1436,1.1436,1.1436,1.1436,1.1436,1.1396,1.1396,1.1396,1.1396,1.1396,1.1396,1.1396,1.1357,1.1357,1.1357,1.1357,1.1318,1.1318,1.1318,0,0,0,0.90967,0.90967,0.90967,0.90967,0.90723,0.90527,0.90527,0.84815,0.84619,0.84619,0.84619,0.84619,0.84619,0.84424,0.84424,0.84228,0.84228,0.84228,0,0,0,0,0,0.79834,0.79834,0.79639,0.79639,0.79639,0.79443,0.79102,0.79102,0.78906,0.78906,0.78711,0.78711,0.78711,0.78565,0.78565,0.78565,0.78565,0.78369,0.78174,0.78174,0.78027,0.78027,0.78027,0.78027,0.78027,0.78027,0.77832,0.77832,0.77832,0.77832,0.77637,0.77637,0.77637,0.77637,0.77637,0.77637,0.77637,0.77637,0.77637,0.77637,0.77637,0.77637,0.77637,0.77637,0.77685,0.77685,0.77685,0.77685,0.77832,0.77832,0.78027,0.78027,0.78027,0.78027,0.78223,0.78223,0.78223,0.78223,0.78223,0.78223,0.78223,0.78223,0.78369,0.78223,0.78223,0.78027,0.78223,0.78027,0.78027,0.77832,0.77832,0.77832,0.77832,0.77685,0.77685,0.77685,0.7749,0.77344,0.77344,0.77344,0.77148,0.77344,0.77344,0.77344,0.77148,0.77344,0.77148,0.77148,0.77148,0.77148,0.76807,0.76807,0.76807,0.76807,0.76807,0.76807,0.76807,0.76611,0.76807,0.76611,0.76807,0.76611,0.76611,0.76611,0.76611,0.76465,0.76611,0.76465,0.76465,0.76465,0.76465,0.76465,0.76465,0.7627,0.7627,0.76465,0.7627,0.7627,0.76465,0.7627,0,0.77002,0.76807,0.76807,0.7666,0.7666,0.7666,0.7666,0.7666,0.76465,0.76465,0.76465,0.76465,0.76465,0.76465,0.76465,0.76465,0.76465,0.76465,0.76465,0.7666,0.7666,0.7666,0.7666,0.7666,0.7666,0.7666,0.7666,0.7666,0.7666,0.76465,0.76465,0.79541,0.79346,0.79736,0.79736,0.79541,0.79541,0.78809,0.78809,0.78809,0.78272,0.78272,0.78272,0.78076,0.78076,0.78076,0.76318,0.76318,0.76123,0.76123,0.76123,0.76123,0.76123,0.76123,0.76318,0.77002,0.77002,0.77002,0.77002,0,0,0,0,0,1.0088,1.0088,1.0088,1.0088,1.0088,1.0088,1.0088,1.0059,1.0059,1.0059,1.0059,1.0059,1.0059,1.0059,1.0059,1.0059,1.0059,1.0059,1.0059,1.0059,1.0059,1.0059,1.0059,1.0059,1.0059,1.0059,0,0,0,0,0,0,0,1.9395,1.9395,1.9395,1.917,1.917,1.917,1.917,1.917,1.917,1.917,1.917,1.9062,1.9062,1.9062,1.9062,1.8955,1.8848,1.8848,1.8848,1.875,1.875,1.875,1.875,1.875,1.875,1.875,1.875,1.875,1.8643,1.8643,1.8643,1.8643,1.8545,1.8545,1.8545,1.8545,1.8447,1.8545,1.8545,1.8447,1.8447,1.8447,1.8447,1.8447,1.8447,1.8447,1.8447,1.8447,1.8447,1.8447,1.834,1.8447
0.90674,0.90918,0.91162,0.91162,0.91162,0.91406,0.91406,0.91406,0.9165,0.9165,0.9165,0.91895,0.91895,0.91895,0.92139,0.92139,0.92139,0.92432,0.92432,0.92676,0.9292,0.9292,0.9292,0.9292,0.93164,0.93164,0.93164,0.93164,0.93408,0.93945,0.93945,0.94238,0.94238,0.94482,0.94482,0.94727,0.9502,0.95264,0.95264,0.95264,0.95264,0.95264,0.95557,0.95557,0.95557,0.95557,0.95801,0.9585,0.9585,0.9585,0.96094,0.96387,0.96631,0.96631,0.96631,0.96924,0.96924,0.97217,0.9751,0.9751,0.97754,0.97754,0.97754,0.98047,0.98047,0.97754,0.98047,0.9834,0.98633,0.98633,0.98633,0.98926,0.98926,0.99219,0.99219,0.99219,0.99512,0.99805,0.99805,1.001,1.001,1.001,1.001,1.0039,1.0039,1.0068,1.0068,1.0098,1.0098,1.0098,1.0156,1.0156,1.0156,1.0195,1.0195,1.0225,1.0225,1.0254,1.0254,1.0254,1.0254,1.0283,1.0283,1.0283,0,0,1.1709,1.1709,1.1709,1.167,1.167,1.167,1.167,1.167,1.167,1.167,1.167,1.167,1.167,1.167,1.167,1.167,1.1631,1.1592,1.1592,1.1631,1.1631,1.1631,1.1592,1.1592,1.1592,1.1592,1.1631,1.1592,1.1592,1.1592,1.1553,1.1553,1.1553,1.1514,1.1514,1.1514,1.1514,1.1514,1.1514,1.1514,1.1514,1.1514,1.1514,1.1475,1.1475,1.1436,1.1475,1.1436,1.1436,1.1436,1.1436,1.1436,1.1436,1.1436,1.1396,1.1396,1.1396,1.1396,1.1396,1.1357,1.1357,1.1357,1.1357,1.1357,1.1318,1.1318,1.1318,1.1289,1.1289,1.1289,0,0,0,0.91016,0.90772,0.90527,0.90527,0.90283,0.90039,0.89795,0.84619,0.84619,0.84619,0.84619,0.84619,0.84424,0.84424,0.84424,0.84424,0.84424,0.84424,0,0,0,0,0,0.80029,0.79834,0.79834,0.79834,0.79639,0.79639,0.79492,0.79102,0.78906,0.78906,0.78906,0.78906,0.7876,0.7876,0.78565,0.78565,0.78565,0.78369,0.78174,0.78174,0.78027,0.78027,0.78027,0.77832,0.77832,0.77832,0.77832,0.77832,0.77832,0.77637,0.77637,0.77637,0.77637,0.77832,0.77832,0.77832,0.77832,0.77832,0.77832,0.77685,0.77832,0.77685,0.77685,0.77685,0.77685,0.77685,0.77685,0.77685,0.77685,0.77832,0.77832,0.78027,0.78027,0.78027,0.78027,0.78027,0.78223,0.78223,0.78027,0.78027,0.78223,0.78027,0.78223,0.78027,0.78027,0.78027,0.78027,0.78027,0.78027,0.77832,0.77832,0.77685,0.77685,0.77685,0.7749,0.7749,0.7749,0.77344,0.77344,0.77344,0.77148,0.77344,0.77344,0.77344,0.77148,0.77148,0.77148,0.77148,0.77148,0.77002,0.76807,0.76807,0.76807,0.76807,0.76611,0.76807,0.76807,0.76807,0.76807,0.76611,0.76611,0.76611,0.76611,0.7666,0.76611,0.76611,0.76611,0.76611,0.76611,0.76465,0.76465,0.7666,0.7666,0.76465,0.76465,0.7666,0.76465,0.76465,0.7666,0.7666,0.7666,0.77002,0.76807,0.76807,0.76807,0.7666,0.7666,0.7666,0.7666,0.7666,0.7666,0.7666,0.7666,0.76465,0.7666,0.76465,0.7666,0.7666,0.7666,0.76465,0.7666,0.7666,0.7666,0.76807,0.76807,0.76807,0.76807,0.76807,0,0.79736,0.79883,0.79883,0.79736,0.79736,0.79736,0.79736,0.79541,0.79541,0.79346,0.7915,0.78809,0.78418,0.78418,0.78418,0.78272,0.78418,0.78272,0.78613,0.76318,0.76123,0.76123,0.76123,0.75977,0.75977,0.76123,0.76123,0.77197,0.77344,0.77002,0.77002,0,0,0,0,0,1.0059,1.0059,1.0059,1.0059,1.0059,1.0059,1.0059,1.0059,1.0059,1.0059,1.0059,1.0029,1.0029,1.0029,1.0029,1.0029,1.0029,1.0029,1.0059,1.0059,1.0029,1.0059,1.0029,1.0029,1.0059,1.0029,0,0,0,0,0,0,0,0,1.9277,1.9277,1.917,1.917,1.917,1.917,1.917,1.917,1.917,1.917,1.9062,1.9062,1.8955,1.8955,1.8955,1.8857,1.8857,1.875,1.875,1.875,1.875,1.875,1.8643,1.8643,1.8643,1.875,1.8643,1.8643,1.8643,1.8643,1.8643,1.8545,1.8545,1.8545,1.8545,1.8447,1.8447,1.8447,1.8447,1.8447,1.8447,1.8447,1.8447,1.8447,1.835,1.835,1.835,1.8447,1.835,1.835,1.835
0.90674,0.90674,0.90918,0.91162,0.91406,0.91406,0.91406,0.9165,0.9165,0.9165,0.91895,0.91895,0.91895,0.91895,0.92139,0.92139,0.92432,0.92432,0.92432,0.92676,0.9292,0.9292,0.9292,0.93164,0.93164,0.93164,0.93164,0.93457,0.93701,0.93945,0.94238,0.94238,0.94238,0.94482,0.94482,0.94727,0.9502,0.95264,0.95264,0.95264,0.95557,0.95264,0.95557,0.95557,0.95557,0.95557,0.9585,0.9585,0.9585,0.9585,0.96094,0.96387,0.96387,0.96631,0.96924,0.96924,0.97217,0.97217,0.9751,0.9751,0.97754,0.97754,0.97754,0.98047,0.98047,0.97803,0.98047,0.9834,0.98633,0.98633,0.98633,0.98926,0.98926,0.99219,0.99219,0.99219,0.99512,0.99805,0.99805,1.001,1.001,1.001,1.001,1.0039,1.0039,1.0068,1.0068,1.0098,1.0098,1.0098,1.0166,1.0166,1.0166,1.0195,1.0195,1.0195,1.0225,1.0254,1.0254,1.0254,1.0254,1.0254,1.0283,1.0283,0,0,1.167,1.167,1.167,1.167,1.167,1.167,1.1631,1.1631,1.167,1.1631,1.1631,1.167,1.1631,1.1631,1.1631,1.1631,1.1592,1.1592,1.1553,1.1592,1.1592,1.1553,1.1553,1.1553,1.1553,1.1553,1.1553,1.1553,1.1553,1.1553,1.1514,1.1514,1.1514,1.1514,1.1514,1.1514,1.1514,1.1514,1.1514,1.1475,1.1514,1.1475,1.1475,1.1436,1.1436,1.1396,1.1436,1.1436,1.1436,1.1436,1.1396,1.1396,1.1396,1.1396,1.1396,1.1396,1.1357,1.1357,1.1357,1.1357,1.1318,1.1318,1.1318,1.1318,1.1318,1.1289,1.1289,1.1289,1.1289,0,0,0,0,0,0,0.90283,0.90283,0.90039,0.90039,0.89795,0.84619,0.84619,0.84619,0.84619,0.84619,0.84424,0.84424,0.84424,0.84424,0.84424,0,0,0,0,0,0,0.80029,0.79834,0.79834,0.79834,0.79834,0.79688,0.79492,0.79297,0.79102,0.79102,0.78906,0.78906,0.78906,0.7876,0.78565,0.78565,0.78565,0.78369,0.78174,0.78174,0.78027,0.78027,0.78027,0.78027,0.78027,0.78027,0.78027,0.77832,0.77832,0.77832,0.77685,0.77832,0.77832,0.77832,0.77832,0.77832,0.77832,0.77832,0.77832,0.77832,0.77832,0.77832,0.77832,0.77685,0.77685,0.77685,0.77685,0.77685,0.77685,0.77832,0.77832,0.77832,0.77832,0.77832,0.78027,0.78027,0.78027,0.78027,0.77832,0.77832,0.78027,0.78027,0.78027,0.78027,0.77832,0.77832,0.77832,0.77881,0.77881,0.77881,0.77685,0.7749,0.7749,0.7749,0.7749,0.77344,0.77344,0.77344,0.77344,0.77344,0.77148,0.77148,0.77148,0.77148,0.77148,0.77148,0.77148,0.77148,0.77002,0.77002,0.76807,0.77002,0.76807,0.76807,0.76807,0.76807,0.77002,0.76807,0.76807,0.76807,0.76807,0.76807,0.76807,0.76807,0.76807,0.76807,0.76807,0.76807,0.7666,0.7666,0.7666,0.76807,0.76807,0.76807,0.7666,0.7666,0.7666,0.7666,0.76807,0.7666,0.76807,0.77148,0.76807,0.76807,0.76807,0.7666,0.7666,0.7666,0.7666,0.7666,0.7666,0.7666,0.7666,0.7666,0.7666,0.76465,0.7666,0.7666,0.7666,0.7666,0.7666,0.7666,0.7666,0.76807,0.76807,0,0.79541,0.79932,0.79736,0.80078,0.79736,0.79932,0.79932,0.79932,0.79736,0.79736,0.79736,0.79541,0.79541,0.7915,0.79004,0.78809,0.78613,0.78613,0.78613,0.78613,0.78613,0.78809,0.78809,0.78809,0.78613,0.78272,0.78613,0.78613,0.78613,0.77881,0.77881,0.77734,0.77539,0.77539,0,0,0,0,0,1.0059,1.0059,1.0059,1.0059,1.0059,1.0059,1.0059,1.0059,1.0029,1.0029,1.0029,1.0029,0.99951,1.0029,1.0029,1.0029,1,1,1,1,1,1,1,1,1.0029,1.0029,0,0,0,0,0,0,0,0,1.9277,1.9277,1.9287,1.9287,1.917,1.917,1.917,1.9062,1.917,1.9062,1.9062,1.9062,1.8955,1.8857,1.8955,1.8857,1.875,1.875,1.875,1.875,1.875,1.875,1.8643,1.8643,1.8643,1.875,1.8643,1.8643,1.8545,1.8643,1.8545,1.8545,1.8545,1.8545,1.8545,1.8447,1.8447,1.8447,1.8447,1.8447,1.8447,1.8447,1.835,1.8447,1.835,1.835,1.835,1.835,1.835,1.8242,1.8252
0.90674,0.90918,0.90918,0.91162,0.91162,0.91406,0.91406,0.91406,0.9165,0.9165,0.91895,0.91895,0.91895,0.92139,0.92139,0.92188,0.92432,0.92432,0.92432,0.92676,0.9292,0.9292,0.9292,0.93164,0.93164,0.93164,0.93164,0.93457,0.93701,0.93945,0.94238,0.94238,0.94482,0.94482,0.94482,0.94775,0.9502,0.95312,0.95312,0.95312,0.95312,0.95557,0.95557,0.95557,0.95557,0.9585,0.9585,0.9585,0.9585,0.9585,0.96094,0.96387,0.96387,0.9668,0.9668,0.96924,0.97217,0.97217,0.9751,0.9751,0.97803,0.97803,0.97803,0.98047,0.98047,0.97803,0.98047,0.98047,0.98633,0.98633,0.98633,0.98926,0.98926,0.99219,0.99219,0.99219,0.99512,0.99805,0.99805,1.001,1.001,1.001,1.0039,1.0039,1.0068,1.0068,1.0068,1.0068,1.0098,1.0098,1.0166,1.0166,1.0166,1.0195,1.0195,1.0195,1.0225,1.0225,1.0254,1.0254,1.0254,1.0254,1.0283,1.0283,1.0322,0,1.167,1.167,1.167,1.167,1.167,1.1631,1.1631,1.1631,1.1631,1.1631,1.1592,1.1592,1.1592,1.1592,1.1592,1.1592,1.1592,1.1553,1.1553,1.1553,1.1553,1.1553,1.1553,1.1553,1.1553,1.1553,1.1553,1.1553,1.1514,1.1514,1.1514,1.1475,1.1475,1.1475,1.1436,1.1475,1.1436,1.1436,1.1396,1.1396,1.1396,1.1396,1.1396,1.1357,1.1396,1.1436,1.1436,1.1396,1.1396,1.1396,1.1396,1.1396,1.1396,1.1357,1.1357,1.1357,1.1357,1.1357,1.1318,1.1318,1.1318,1.1318,1.1318,1.1318,1.1289,1.1289,1.1289,1.1289,1.1289,0,0,0,0,0,0,0.90283,0.90039,0.90039,0.89795,0.84619,0.84619,0.84619,0.84619,0.84619,0.84619,0.84619,0.84424,0.84424,0.84424,0.84424,0,0,0,0,0,0,0.8042,0.80029,0.79834,0.80029,0.79834,0.79834,0.79688,0.79297,0.79102,0.79102,0.79102,0.79102,0.78906,0.7876,0.7876,0.78565,0.78565,0.78369,0.78369,0.78223,0.78223,0.78027,0.78027,0.78027,0.78027,0.78027,0.78027,0.77832,0.77832,0.77832,0.77832,0.77832,0.77832,0.77832,0.77832,0.77832,0.77832,0.77832,0.77832,0.77832,0.77832,0.77832,0.77832,0.77685,0.77685,0.77685,0.77685,0.77685,0.77685,0.77685,0.77832,0.77832,0.77832,0.77832,0.77832,0.77832,0.77832,0.77832,0.77832,0.77832,0.77832,0.77881,0.77881,0.77881,0.77881,0.77881,0.77881,0.77881,0.77881,0.77685,0.7749,0.7749,0.7749,0.7749,0.7749,0.77344,0.77344,0.77344,0.77344,0.77344,0.77148,0.77148,0.77148,0.77148,0.77148,0.77148,0.77148,0.77002,0.77002,0.77002,0.77002,0.77002,0.77002,0.77002,0.77002,0.77002,0.77002,0.77002,0.77002,0.76807,0.76807,0.77002,0.76807,0.76807,0.76807,0.76807,0.77002,0.77002,0.77002,0.77002,0.77002,0.77148,0.77148,0.77002,0.77002,0.77002,0.77002,0.77002,0.77002,0.76807,0.77002,0.77148,0.76807,0.76807,0.76807,0.76807,0.76807,0.7666,0.7666,0.7666,0.7666,0.7666,0.7666,0.7666,0.7666,0.7666,0.7666,0.76807,0.7666,0.7666,0.76807,0.76807,0.76807,0,0.79541,0.79932,0.80078,0.79932,0.79932,0.79932,0.79932,0.79932,0.79932,0.79932,0.79736,0.79736,0.79736,0.79541,0.79346,0.7915,0.79004,0.78809,0.78613,0.78613,0.78613,0.78613,0.78809,0.78809,0.78809,0.78809,0.78809,0.78809,0.78809,0.78613,0.78613,0.78613,0.78467,0.78467,0.78613,0.78809,0,0,0,0,0,1.0059,1.0059,1.0059,1.0029,1.0059,1.0029,1.0029,1.0029,1.0029,1.0029,1,1,1,1.0029,1,1,0.99707,0.99707,0.99707,0.99707,0.99707,0.99707,0.99707,0.99707,0.99707,0.99707,1,0,0,0,0,0,0,0,1.9287,1.9287,1.9287,1.917,1.917,1.917,1.917,1.9062,1.917,1.9062,1.8955,1.8955,1.8857,1.8857,1.8857,1.8857,1.875,1.875,1.875,1.875,1.875,1.8643,1.8643,1.8643,1.8652,1.875,1.8652,1.8652,1.8545,1.8545,1.8545,1.8545,1.8545,1.8545,1.8545,1.8447,1.8447,1.8447,1.8447,1.8447,1.8447,1.8447,1.835,1.835,1.835,1.835,1.835,1.835,1.835,1.8252,1.8252
0.90674,0.90918,0.90918,0.91162,0.91406,0.91406,0.91406,0.91406,0.9165,0.9165,0.91895,0.91895,0.91895,0.92188,0.92188,0.92188,0.92432,0.92432,0.92676,0.92676,0.9292,0.9292,0.9292,0.93164,0.93164,0.93164,0.93213,0.93457,0.93701,0.93945,0.94238,0.94238,0.94482,0.94775,0.94775,0.94775,0.9502,0.95312,0.95312,0.95312,0.95312,0.95557,0.95557,0.95557,0.95557,0.9585,0.9585,0.96094,0.96094,0.96094,0.96387,0.96387,0.96387,0.9668,0.9668,0.96924,0.97217,0.9751,0.9751,0.9751,0.97803,0.97803,0.97803,0.98047,0.98047,0.97803,0.98096,0.9834,0.98633,0.98633,0.98633,0.98926,0.98926,0.99219,0.99219,0.99219,0.99512,0.99805,0.99805,1.001,1.001,1.001,1.0039,1.0039,1.0068,1.0068,1.0068,1.0068,1.0098,1.0127,1.0166,1.0166,1.0166,1.0195,1.0195,1.0195,1.0225,1.0254,1.0254,1.0254,1.0254,1.0254,1.0283,1.0322,1.0322,0,1.1631,1.167,1.167,1.167,1.1631,1.1631,1.1592,1.1592,1.1592,1.1553,1.1553,1.1553,1.1553,1.1553,1.1553,1.1553,1.1553,1.1514,1.1514,1.1514,1.1514,1.1514,1.1514,1.1514,1.1514,1.1514,1.1514,1.1514,1.1514,1.1475,1.1475,1.1475,1.1475,1.1436,1.1436,1.1436,1.1396,1.1396,1.1396,1.1357,1.1357,1.1357,1.1357,1.1318,1.1318,1.1357,1.1357,1.1357,1.1318,1.1318,1.1318,1.1318,1.1318,1.1318,1.1318,1.1318,1.1318,1.1318,1.1289,1.1289,1.1289,1.1289,1.1289,1.1289,1.1289,1.1289,1.1289,1.1289,1.125,0,0,0,0,0,0,0,0.89795,0.89551,0.89551,0.89551,0.84619,0.84863,0.84863,0.84863,0.84619,0.84619,0.84619,0.84424,0.84424,0,0.92529,0,0,0,0,0,0,0.80029,0.79834,0.80029,0.79834,0.79834,0.79688,0.79297,0.79102,0.79102,0.79102,0.79102,0.78906,0.7876,0.7876,0.78565,0.78565,0.78369,0.78369,0.78369,0.78369,0.78223,0.78223,0.78027,0.78027,0.78027,0.78027,0.78027,0.78027,0.77832,0.78027,0.78027,0.78027,0.78027,0.78027,0.78027,0.78027,0.77832,0.77832,0.78027,0.78027,0.77832,0.77832,0.77832,0.77832,0.77832,0.77832,0.77685,0.77832,0.77685,0.77832,0.77832,0.77832,0.77881,0.77881,0.77881,0.77881,0.77881,0.77881,0.77685,0.77685,0.77685,0.77881,0.77881,0.77881,0.77881,0.77881,0.77881,0.77881,0.77685,0.7749,0.77685,0.7749,0.7749,0.7749,0.77344,0.77344,0.77344,0.77344,0.77344,0.77148,0.77148,0.77148,0.77148,0.77148,0.77148,0.77148,0.77148,0.77148,0.77148,0.77002,0.77148,0.77148,0.77148,0.77148,0.77148,0.77148,0.77002,0.77148,0.77002,0.77148,0.77002,0.77002,0.76807,0.76807,0.77002,0.77002,0.77148,0.77148,0.77148,0.77148,0.77148,0.77197,0.77197,0.77197,0.77197,0.77197,0.77197,0.77002,0.76807,0.77002,0.77002,0.76807,0.76807,0.76807,0.76807,0.76807,0.76807,0.7666,0.7666,0.7666,0.7666,0.76807,0.76807,0.76807,0.7666,0.76807,0.76807,0.76855,0.76855,0,0.79346,0.79736,0.79736,0.79736,0.79932,0.79932,0.79932,0.79736,0.79932,0.79932,0.79932,0.79932,0.79932,0.79932,0.79736,0.79736,0.79736,0.79541,0.79346,0.79004,0.79004,0.78613,0.78613,0.78809,0.78809,0.78809,0.78809,0.78809,0.78809,0.78809,0.78809,0.78809,0.78809,0.78613,0.78613,0.78613,0.78613,0.78613,0.78809,0.79004,0,0,0,0,0,1.0029,1.0029,1.0029,1.0029,1.0029,1.0029,1,1,1,0.99707,0.99707,0.99707,1,0.99707,0.99707,0.99707,0.99707,0.99414,0.99707,0.99414,0.99414,0.99414,0.99414,0.99414,0.99707,0.99707,0,0,0,0,0,0,0,1.8965,1.9062,1.9062,1.8965,1.9062,1.8965,1.8965,1.9062,1.9062,1.8965,1.8965,1.8857,1.8857,1.8857,1.8857,1.875,1.875,1.8652,1.8652,1.8652,1.8652,1.8545,1.8545,1.8447,1.8545,1.8447,1.8545,1.8545,1.8545,1.8545,1.8545,1.8447,1.8545,1.8447,1.8447,1.8447,1.8447,1.8447,1.835,1.835,1.835,1.835,1.835,1.835,1.8252,1.8252,1.8252,1.8252,1.8252,1.8252,1.8252
0.90674,0.90918,0.90918,0.91162,0.91406,0.91406,0.91406,0.91406,0.9165,0.91895,0.91895,0.91895,0.92188,0.92188,0.92188,0.92432,0.92432,0.92676,0.92676,0.9292,0.9292,0.9292,0.9292,0.93213,0.93213,0.93213,0.93213,0.93457,0.93701,0.93994,0.94238,0.94238,0.94482,0.94775,0.94775,0.94775,0.9502,0.95312,0.95312,0.95312,0.95312,0.95312,0.95557,0.95557,0.95557,0.9585,0.9585,0.96094,0.96094,0.96143,0.96387,0.96387,0.9668,0.9668,0.9668,0.96973,0.97217,0.9751,0.9751,0.9751,0.97803,0.97803,0.97803,0.97803,0.97803,0.97803,0.98096,0.9834,0.98633,0.98633,0.98926,0.98926,0.98926,0.99219,0.99219,0.99219,0.99512,0.99805,0.99805,1.001,1.001,1.001,1.0039,1.0039,1.0068,1.0068,1.0068,1.0068,1.0098,1.0137,1.0166,1.0166,1.0195,1.0195,1.0195,1.0225,1.0225,1.0254,1.0254,1.0254,1.0254,1.0283,1.0283,1.0322,1.0283,0,1.167,1.167,1.167,1.1631,1.1631,1.1592,1.1592,1.1553,1.1553,1.1553,1.1553,1.1553,1.1553,1.1514,1.1553,1.1514,1.1514,1.1514,1.1475,1.1475,1.1475,1.1475,1.1475,1.1475,1.1475,1.1475,1.1475,1.1475,1.1475,1.1475,1.1475,1.1475,1.1436,1.1436,1.1396,1.1396,1.1396,1.1396,1.1357,1.1318,1.1318,1.1318,1.1318,1.1289,1.1289,1.1318,1.1318,1.1328,1.1328,1.1328,1.1289,1.1289,1.1328,1.1289,1.1289,1.1289,1.1289,1.1289,1.1289,1.125,1.125,1.125,1.125,1.125,1.1289,1.1289,1.125,1.125,1.1289,0,0,0,0,0,0,0,0.89551,0.89551,0.89551,0.89111,0.84863,0.84863,0.84863,0.84863,0.84668,0.84668,0.84668,0.84668,0.84668,0,0.92773,0.92529,0.92529,0.92529,0.92773,0,0.80029,0.80029,0.79883,0.79883,0.79883,0.79883,0.79688,0.79297,0.79102,0.79102,0.79102,0.79102,0.78955,0.7876,0.7876,0.78565,0.78565,0.78565,0.78369,0.78223,0.78223,0.78223,0.78223,0.78223,0.78027,0.78027,0.78223,0.78027,0.78027,0.78027,0.78223,0.78223,0.78223,0.78223,0.78223,0.78223,0.78223,0.78027,0.78027,0.78027,0.78027,0.78027,0.78027,0.78027,0.77832,0.77832,0.77881,0.77881,0.77881,0.77881,0.77881,0.77881,0.77881,0.77881,0.77881,0.77881,0.77881,0.77685,0.77685,0.77685,0.77685,0.77685,0.77881,0.77881,0.77881,0.77881,0.77685,0.77881,0.77881,0.77881,0.7749,0.7749,0.77685,0.7749,0.7749,0.77344,0.77344,0.77344,0.77344,0.77344,0.77344,0.77344,0.77148,0.77344,0.77148,0.77148,0.77148,0.77148,0.77148,0.77148,0.77148,0.77148,0.77148,0.77148,0.77148,0.77148,0.77344,0.77148,0.77148,0.77148,0.77148,0.77148,0.77148,0.77002,0.77002,0.77002,0.77197,0.77197,0.77197,0.77197,0.77197,0.77344,0.77344,0.77197,0.77197,0.77197,0.77197,0.77197,0.77002,0.7666,0.76807,0.76807,0.7666,0.76807,0.76807,0.76807,0.7666,0.7666,0.7666,0.7666,0.7666,0.7666,0.7666,0.76855,0.76855,0.77002,0.77344,0.78809,0.78809,0.78809,0.79541,0.79541,0.79736,0.79932,0.79932,0.79932,0.79932,0.79932,0.79932,0.80127,0.80127,0.80127,0.80127,0.80127,0.79932,0.79932,0.79932,0.79736,0.79736,0.79541,0.79199,0.79004,0.78809,0.78809,0.78809,0.78809,0.78809,0.78809,0.78809,0.78809,0.78809,0.78809,0.78809,0.78809,0.78809,0.78809,0.78613,0.78613,0.78613,0.78809,0.79004,0,0,0,0,0,1,1,1.0029,1.0029,1,1,0.99707,0.99707,0.99707,0.99414,0.99414,0.99414,0.99414,0.99414,0.99414,0.99414,0.99414,0.99414,0.99414,0.99414,0.99414,0.99414,0.99414,0.99414,0.99414,0.99414,0,0,0,0,0,0,0,1.8857,1.8857,1.8965,1.8857,1.8965,1.8965,1.8857,1.8857,1.8857,1.8857,1.8857,1.8857,1.875,1.875,1.875,1.875,1.875,1.8652,1.8652,1.8652,1.8652,1.8545,1.8545,1.8545,1.8545,1.835,1.835,1.835,1.8545,1.8545,1.8545,1.8447,1.8447,1.8447,1.8447,1.8447,1.8447,1.8447,1.835,1.835,1.835,1.835,1.835,1.835,1.8252,1.8252,1.8252,1.8252,1.8252,1.8154,1.8154
0.90674,0.90918,0.90918,0.91162,0.91162,0.91406,0.91406,0.91406,0.9165,0.91943,0.91943,0.91943,0.92188,0.92188,0.92188,0.92432,0.92432,0.92676,0.92676,0.9292,0.9292,0.9292,0.93213,0.93213,0.93213,0.93213,0.93213,0.93457,0.93701,0.93994,0.94238,0.94238,0.94482,0.94775,0.94775,0.94775,0.9502,0.9502,0.95312,0.95312,0.95312,0.95557,0.95557,0.95557,0.95557,0.9585,0.96143,0.96143,0.96143,0.96387,0.96387,0.96387,0.9668,0.9668,0.96973,0.97217,0.97217,0.9751,0.9751,0.9751,0.97803,0.97803,0.97803,0.97803,0.97803,0.97803,0.98096,0.98096,0.98389,0.98633,0.98926,0.98926,0.98926,0.99219,0.99219,0.99219,0.99512,0.99805,0.99805,1.001,1.001,1.001,1.0039,1.0039,1.0039,1.0068,1.0068,1.0068,1.0098,1.0137,1.0166,1.0166,1.0195,1.0195,1.0225,1.0225,1.0225,1.0254,1.0254,1.0254,1.0254,1.0254,1.0283,1.0283,1.0283,0,1.167,1.167,1.167,1.1631,1.1592,1.1553,1.1553,1.1514,1.1514,1.1514,1.1514,1.1514,1.1514,1.1514,1.1514,1.1514,1.1475,1.1475,1.1475,1.1436,1.1436,1.1436,1.1436,1.1436,1.1436,1.1436,1.1436,1.1436,1.1436,1.1436,1.1396,1.1436,1.1396,1.1396,1.1396,1.1396,1.1357,1.1357,1.1318,1.1289,1.1289,1.1289,1.1289,1.125,1.125,1.1289,1.1289,1.1289,1.1289,1.1289,1.1289,1.1289,1.1289,1.1289,1.1289,1.1289,1.1289,1.125,1.125,1.125,1.125,1.125,1.125,1.125,1.125,1.125,1.1211,1.1211,1.125,0,0,0,0,0,0,0,0.89111,0.89355,0.89355,0.89111,0.85059,0.85059,0.84863,0.84863,0.84863,0.84668,0.84863,0.84668,0,0.92773,0.92773,0.92529,0.92529,0.92529,0.92529,0.92285,0,0.79883,0.79883,0.79883,0,0.79883,0.79297,0.79297,0.79297,0.79102,0.79102,0.79102,0.78955,0.7876,0.7876,0.78565,0.78565,0.78565,0.78369,0.78369,0.78369,0.78223,0.78223,0.78223,0.78223,0.78223,0.78223,0.78223,0.78223,0.78223,0.78223,0.78223,0.78418,0.78418,0.78418,0.78418,0.78223,0.78223,0.78223,0.78223,0.78223,0.78027,0.78027,0.78027,0.78027,0.78027,0.78027,0.77881,0.77881,0.77881,0.77881,0.77881,0.77881,0.77881,0.77881,0.77881,0.77685,0.77685,0.77685,0.77685,0.77685,0.77881,0.77881,0.77881,0.77881,0.77881,0.77881,0.77881,0.77881,0.77881,0.77685,0.77685,0.77685,0.77685,0.77685,0.77539,0.77539,0.77344,0.77344,0.77344,0.77344,0.77344,0.77344,0.77344,0.77344,0.77344,0.77344,0.77344,0.77344,0.77148,0.77148,0.77344,0.77344,0.77344,0.77344,0.77344,0.77344,0.77344,0.77344,0.77344,0.77344,0.77197,0.77197,0.77197,0.77197,0.77197,0.77197,0.77197,0.77197,0.77197,0.77197,0.77344,0.77344,0.77197,0.77197,0.77197,0.77197,0.77197,0.77002,0.7666,0.76855,0.76855,0.7666,0.7666,0.7666,0.76855,0.7666,0.76855,0.7666,0.7666,0.76855,0.76855,0.77344,0.78809,0.78613,0.78613,0.79004,0.78809,0.79004,0.79541,0.79541,0.79541,0.79736,0.79932,0.80127,0.79932,0.80127,0.80127,0.80127,0.80322,0.80322,0.80127,0.80322,0.80127,0.80127,0.80127,0.80127,0.79932,0.79932,0.79736,0.79541,0.79346,0.79004,0.79004,0.79004,0.79004,0.79004,0.79004,0.78809,0.79004,0.79004,0.78809,0.78809,0.78809,0.78809,0.78809,0.78809,0.78809,0.78809,0.78809,0,0,0,0,0,0,0.99707,0.99707,1,1,0.99707,0.99707,0.99414,0.99414,0.99121,0.99121,0.99121,0.99121,0.99121,0.99121,0.99121,0.99121,0.99121,0.98828,0.99121,0.99121,0.99121,0.99121,0.99121,0.99121,0.99414,0.99414,0.99121,0,0,0,0,0,0,1.875,1.8857,1.8857,1.8857,1.8965,1.8857,1.8857,1.8857,1.8857,1.8857,1.875,1.875,1.875,1.875,1.875,1.875,1.8652,1.8652,1.8545,1.8652,1.8545,1.8545,1.8447,1.8447,1.8545,1.8447,1.8447,1.835,1.8447,1.8447,1.8447,1.835,1.8447,1.835,1.835,1.835,1.835,1.835,1.8252,1.8252,1.835,1.835,1.835,1.835,1.8252,1.8252,1.8252,1.8252,1.8252,1.8154,1.8154
0.90674,0.90918,0.90918,0.91162,0.91162,0.91162,0.91162,0.91406,0.91699,0.91943,0.91943,0.92188,0.92188,0.92188,0.92188,0.92432,0.92432,0.92676,0.92676,0.9292,0.9292,0.9292,0.93213,0.93213,0.93213,0.93213,0.93213,0.93457,0.93701,0.93994,0.94238,0.94238,0.94482,0.94775,0.94775,0.9502,0.9502,0.95312,0.95312,0.95312,0.95312,0.95557,0.95557,0.95557,0.9585,0.9585,0.96143,0.96143,0.96387,0.96387,0.96387,0.96387,0.9668,0.9668,0.96973,0.97217,0.97217,0.9751,0.9751,0.97803,0.97803,0.97803,0.97803,0.97803,0.97803,0.97803,0.98096,0.98096,0.98682,0.98926,0.98975,0.98975,0.99219,0.99512,0.99512,0.99512,0.99805,0.99512,0.99805,1.001,1.001,1.001,1.0039,1.0039,1.0039,1.0068,1.0068,1.0098,1.0137,1.0137,1.0166,1.0195,1.0195,1.0225,1.0225,1.0225,1.0254,1.0254,1.0254,1.0254,1.0254,1.0283,1.0283,1.0283,1.0254,1.0254,1.0254,0,1.1631,1.1592,1.1553,1.1553,1.1514,1.1514,1.1514,1.1514,1.1514,1.1475,1.1475,1.1475,1.1475,1.1436,1.1436,1.1436,1.1436,1.1396,1.1396,1.1396,1.1396,1.1396,1.1396,1.1396,1.1436,1.1396,1.1396,1.1396,1.1396,1.1396,1.1396,1.1357,1.1357,1.1357,1.1328,1.1289,1.1289,1.125,1.125,1.125,1.125,1.125,1.125,1.1289,1.1289,1.1289,1.1289,1.1289,1.1289,1.1289,1.125,1.125,1.125,1.125,1.125,1.125,1.125,1.125,1.125,1.125,1.125,1.125,1.1211,1.1211,1.1211,1.1211,0,0,0,0,0,0,0,0.89355,0.89111,0.89355,0.89355,0.85498,0.85303,0.85059,0.85059,0.85059,0.84863,0.84668,0.84863,0.84668,0,0.92529,0.92529,0.92529,0.92529,0.92529,0.92529,0.92285,0.92041,0.92285,0.90039,0.90039,0.90088,0.90283,0.79297,0.79297,0.79102,0.79102,0.79102,0.78955,0.78955,0.7876,0.78565,0.78565,0.78565,0.78418,0.78418,0.78418,0.78418,0.78418,0.78418,0.78418,0.78418,0.78418,0.78418,0.78418,0.78418,0.78223,0.78223,0.78223,0.78418,0.78418,0.78418,0.78418,0.78418,0.78418,0.78223,0.78223,0.78223,0.78223,0.78223,0.78223,0.78223,0.78223,0.78027,0.78027,0.78027,0.78027,0.78027,0.77881,0.77881,0.77881,0.78027,0.77881,0.77881,0.77881,0.77685,0.77685,0.77685,0.77881,0.77881,0.77881,0.77881,0.77881,0.77881,0.77881,0.77881,0.77881,0.77685,0.77881,0.77881,0.77881,0.77685,0.77685,0.77685,0.77685,0.77539,0.77539,0.77539,0.77539,0.77539,0.77539,0.77539,0.77539,0.77344,0.77344,0.77344,0.77344,0.77344,0.77344,0.77344,0.77344,0.77344,0.77344,0.77539,0.77344,0.77344,0.77344,0.77344,0.77344,0.77197,0.77197,0.77197,0.77197,0.77197,0.77197,0.77197,0.77197,0.77344,0.77344,0.77344,0.77344,0.77344,0.77197,0.77197,0.77197,0.77002,0.77002,0.76855,0.76855,0.7666,0.7666,0.7666,0.7666,0.7666,0,0,0,0.79004,0.79004,0.79004,0.78809,0.78809,0.78613,0.79004,0.79004,0.79004,0.7915,0.79346,0.79541,0.79932,0.80127,0.80322,0.80127,0.80322,0.80322,0.80322,0.80322,0.80322,0.80322,0.80322,0.80322,0.80322,0.80322,0.80322,0.80322,0.80127,0.79932,0.79736,0.79541,0.79199,0.79004,0.79004,0.79004,0.79004,0.79004,0.79004,0.79004,0.79004,0.78809,0.78809,0.78809,0.78809,0.78809,0.78809,0,0,0,0,0,0,0,0,0.99414,0.99414,0.99121,0.99121,0.99414,0.99414,0.99121,0.99121,0.98828,0.98828,0.98828,0.98828,0.98828,0.98828,0.98828,0.98828,0.98828,0.98828,0.98828,0.98828,0.98828,0.99121,0.98828,0.98828,0.98828,0.98828,0.98828,0.98828,0,0,0,0,0,0,0,1.8857,1.8857,1.8857,1.8857,1.8857,1.8857,1.8857,1.8857,1.875,1.875,1.875,1.875,1.875,1.875,1.8652,1.8652,1.8545,1.8545,1.8545,1.8447,1.8447,1.8447,1.835,1.8447,1.835,1.8252,1.8252,1.835,1.8447,1.835,1.835,1.835,1.835,1.835,1.835,1.8252,1.8252,1.8252,1.8252,1.835,1.8252,1.8252,1.8252,1.8252,1.8154,1.8154,1.8154,1.8154,1.8154,1.8057
0.90674,0.90674,0.90918,0.91162,0.91406,0.91406,0.91406,0.91406,0.91699,0.91943,0.91943,0.92188,0.92188,0.92188,0.92188,0.92432,0.92432,0.92676,0.92676,0.9292,0.92969,0.92969,0.93213,0.93213,0.93457,0.93457,0.93457,0.93457,0.93701,0.93994,0.94238,0.94238,0.94531,0.94775,0.94775,0.94775,0.9502,0.95312,0.95312,0.95312,0.95312,0.95605,0.95605,0.95605,0.9585,0.9585,0.96143,0.96143,0.96387,0.96387,0.96387,0.96387,0.9668,0.9668,0.96973,0.97217,0.97217,0.9751,0.9751,0.9751,0.97803,0.97803,0.97803,0.97803,0.97803,0.98096,0.98096,0.98389,0.98682,0.98975,0.98975,0.99268,0.99268,0.9956,0.9956,0.9956,0.99853,0.99853,0.99853,1.001,1.001,1.001,1.0039,1.0039,1.0068,1.0068,1.0068,1.0107,1.0137,1.0137,1.0166,1.0195,1.0195,1.0225,1.0225,1.0225,1.0254,1.0254,1.0254,1.0283,1.0254,1.0283,1.0293,1.0293,1.0293,1.0293,1.0293,0,1.1631,1.1553,1.1514,1.1514,1.1475,1.1475,1.1475,1.1475,1.1436,1.1436,1.1436,1.1436,1.1436,1.1396,1.1396,1.1396,1.1396,1.1396,1.1396,1.1396,1.1396,1.1396,1.1396,1.1357,1.1396,1.1396,1.1357,1.1396,1.1357,1.1357,1.1357,1.1357,1.1357,1.1357,1.1328,1.1289,1.125,1.125,1.125,1.125,1.125,1.125,1.1211,1.125,1.125,1.125,1.125,1.125,1.125,1.125,1.125,1.125,1.125,1.125,1.1211,1.1211,1.1211,1.1211,1.1211,1.1211,1.1211,1.1211,1.1172,1.1211,1.1172,1.1172,0,0,0,0,0,0,0,0,0.89111,0.89111,0.89111,0.85498,0.85303,0.85059,0.85059,0.85059,0.84863,0.84863,0.84863,0.84863,0,0.92285,0.92529,0.92285,0.92285,0.92285,0.92285,0.92041,0.92041,0.91797,0.90088,0.90088,0.89844,0.90088,0.90332,0.90332,0.90332,0.78955,0.78955,0.78955,0.78955,0.78565,0.78565,0.78565,0.78418,0.78418,0.78418,0.78418,0.78418,0.78418,0.78565,0.78418,0.78418,0.78418,0.78418,0.78418,0.78418,0.78418,0.78223,0.78223,0.78418,0.78418,0.78418,0.78418,0.78418,0.78418,0.78418,0.78418,0.78418,0.78418,0.78418,0.78223,0.78418,0.78223,0.78418,0.78223,0.78027,0.78027,0.78027,0.78027,0.78027,0.78027,0.78076,0.77881,0.77881,0.77881,0.77881,0.77881,0.77881,0.77881,0.78076,0.77881,0.77881,0.77881,0.77881,0.78076,0.78076,0.78076,0.78076,0.78076,0.78076,0.77881,0.77881,0.77881,0.77881,0.77881,0.77881,0.77881,0.77881,0.77685,0.77685,0.77685,0.77685,0.77685,0.77539,0.77539,0.77344,0.77344,0.77344,0.77344,0.77344,0.77344,0.77344,0.77344,0.77539,0.77539,0.77539,0.77539,0.77344,0.77344,0.77344,0.77197,0.77197,0.77197,0.77197,0.77197,0.77002,0.77197,0.77197,0.77344,0.77344,0.77344,0.77344,0,0.80469,0.80273,0.80273,0.80273,0.80322,0.80322,0.7666,0.7666,0,0.79932,0.79736,0.79541,0.79541,0.79541,0.79199,0.79199,0.79199,0.79199,0.79004,0.79199,0.79199,0.79199,0.79199,0.79346,0.79541,0.79736,0.80127,0.80322,0.80322,0.80322,0.80322,0.80322,0.80322,0.80322,0.80322,0.80322,0.80322,0.80322,0.80322,0.80322,0.80518,0.80322,0.80322,0.80127,0.79736,0.79736,0.79199,0.79199,0.79004,0.79004,0.79004,0.79004,0.79004,0.79004,0.79004,0.79004,0.79004,0.79004,0,0,0,0,0,0,0,0.99121,0.99121,0.98828,0.99121,0.99121,0.99121,0.98828,0.98828,0.99121,0.98828,0.98828,0.98828,0.98828,0.98535,0.98535,0.98828,0.98535,0.98535,0.98828,0.98535,0.98828,0.98828,0.98535,0.98535,0.98535,0.98828,0.98828,0.98535,0.98535,0.98535,0.98535,0.98535,0.99414,0,0,0,0,0,0,1.8857,1.8857,1.875,1.875,1.875,1.8857,1.8857,1.8857,1.875,1.875,1.875,1.875,1.875,1.875,1.8652,1.8652,1.8545,1.8545,1.8545,1.8447,1.8447,1.8447,1.835,1.835,1.835,1.8252,1.8154,1.8252,1.8252,1.8252,1.8252,1.8252,1.8252,1.8252,1.8252,1.8252,1.8252,1.8252,1.8252,1.8252,1.8252,1.8252,1.8252,1.8154,1.8154,1.8154,1.8057,1.8057,1.8057,1.8057
0.90674,0.90918,0.90918,0.91162,0.91455,0.91455,0.91455,0.91455,0.91455,0.91943,0.91943,0.92188,0.92188,0.92188,0.92188,0.92432,0.92432,0.92676,0.92676,0.92969,0.92969,0.92969,0.93213,0.93213,0.93457,0.93457,0.93457,0.93701,0.93994,0.94238,0.94238,0.94531,0.94775,0.94775,0.94775,0.95068,0.95068,0.95068,0.95312,0.95312,0.95312,0.95605,0.95605,0.9585,0.9585,0.9585,0.96143,0.96387,0.96387,0.96387,0.96387,0.96387,0.9668,0.9668,0.96973,0.96973,0.97266,0.9751,0.9751,0.9751,0.97803,0.97803,0.97803,0.97803,0.98096,0.98096,0.98389,0.98682,0.98975,0.98975,0.99268,0.99268,0.99268,0.9956,0.9956,0.9956,0.99853,0.99853,0.99853,0.99853,1.001,1.001,1.0039,1.0039,1.0078,1.0078,1.0107,1.0107,1.0107,1.0137,1.0166,1.0195,1.0195,1.0225,1.0225,1.0225,1.0254,1.0254,1.0254,1.0254,1.0254,1.0293,1.0293,1.0293,1.0293,1.0293,1.0254,1.0293,0,1.1553,1.1514,1.1514,1.1475,1.1475,1.1436,1.1436,1.1396,1.1436,1.1436,1.1396,1.1396,1.1396,1.1357,1.1357,1.1357,1.1357,1.1357,1.1357,1.1357,1.1357,1.1357,1.1357,1.1357,1.1357,1.1357,1.1357,1.1328,1.1357,1.1357,1.1328,1.1328,1.1328,1.1289,1.125,1.125,1.125,1.125,1.1211,1.1211,1.1211,1.1211,1.125,1.125,1.125,1.125,1.125,1.1211,1.1211,1.1211,1.1211,1.1211,1.1211,1.1211,1.1211,1.1211,1.1172,1.1172,1.1172,1.1172,1.1211,1.1172,1.1211,1.1172,1.1143,0,0,0,0,0,0,0,0,0.89111,0.89111,0.89111,0.85498,0.85303,0.85303,0.85059,0.85107,0.85107,0.84863,0.84863,0,0.92285,0.92285,0.92285,0.92285,0.92285,0.92285,0.92285,0.92041,0.91797,0.90527,0.90088,0.90088,0.89844,0.90088,0.90088,0.90088,0.90088,0.7876,0.78565,0.7876,0.78565,0.78565,0.78565,0.78418,0.78418,0.78418,0,0,0.84668,0.84668,0.78418,0.78418,0.78418,0,0,0.87305,0.87305,0.87305,0.87305,0.87305,0.78418,0.78418,0.78418,0.78418,0.78418,0.78418,0.78418,0.78418,0.78418,0.78418,0.78418,0.78418,0.78418,0.78418,0.78613,0.78418,0.78223,0.78223,0.78223,0.78076,0.78076,0.78076,0.78076,0.78076,0.78076,0.77881,0.77881,0.77881,0.78076,0.77881,0.78076,0.78076,0.78076,0.78076,0.78076,0.78076,0.78076,0.78076,0.78076,0.78076,0.78076,0.78076,0.78076,0.78076,0.77881,0.77881,0.77881,0.77881,0.77881,0.77881,0.77881,0.77881,0.77881,0.77881,0.77685,0.77685,0.77539,0.77539,0.77539,0.77539,0.77734,0.77734,0.77539,0.77734,0.77734,0.77539,0.77539,0.77539,0.77539,0.77344,0.77344,0.77344,0.77197,0.77197,0.77197,0.77002,0.77002,0.77539,0.77197,0.77734,0.77539,0,0.80859,0.80859,0.80664,0.80664,0.80859,0.80469,0.80469,0.80664,0.80469,0.80469,0.80322,0.79932,0.79736,0.79541,0.79541,0.79346,0.79346,0.79346,0.79199,0.79199,0.79199,0.79199,0.79346,0.79346,0.79346,0.79346,0.79541,0.80127,0.80322,0.80518,0.80518,0.80322,0.80518,0.80518,0.80322,0.80518,0.80518,0.80518,0.80518,0.80518,0.80518,0.80518,0.80518,0.80518,0.80518,0.80322,0.79932,0.79932,0.79541,0.79541,0.79395,0.79199,0.79199,0.79199,0.79199,0.79199,0.79199,0.79199,0.79004,0,0,0,0,0,0.99121,0.99121,0.99121,0.99121,0.99121,0.98828,0.99121,0.99121,0.99121,0.98828,0.98828,0.98828,0.98828,0.98828,0.98535,0.98535,0.98535,0.98535,0.98535,0.98535,0.98535,0.98535,0.98535,0.98535,0.98535,0.98535,0.98535,0.98535,0.98535,0.98535,0.98535,0.98535,0.98535,0.98535,0.98535,0.99121,0,0,0,0,0,0,0,1.875,1.875,1.875,1.875,1.8857,1.875,1.875,1.875,1.8652,1.8652,1.876,1.8652,1.8652,1.8652,1.8545,1.8555,1.8447,1.8447,1.8447,1.8447,1.835,1.835,1.835,1.8252,1.8154,1.8154,1.8154,1.8154,1.8154,1.8154,1.8252,1.8154,1.8252,1.8252,1.8252,1.8252,1.8154,1.8252,1.8252,1.8252,1.8154,1.8154,1.8154,1.8154,1.8154,1.8057,1.8057,1.8057,1.8057
0.90674,0.90967,0.90967,0.91211,0.91455,0.91455,0.91455,0.91455,0.91699,0.91943,0.92188,0.92188,0.92188,0.92432,0.92432,0.92432,0.92432,0.92676,0.92969,0.92969,0.92969,0.93213,0.93213,0.93457,0.93457,0.93457,0.93457,0.9375,0.93994,0.94238,0.94238,0.94531,0.94531,0.94775,0.94775,0.94775,0.95068,0.95068,0.95312,0.95312,0.95312,0.95605,0.95605,0.9585,0.9585,0.9585,0.96143,0.96387,0.96435,0.96435,0.96435,0.9668,0.9668,0.9668,0.9668,0.96973,0.97266,0.9751,0.9751,0.97803,0.97803,0.97803,0.97803,0.97803,0.98096,0.98096,0.98389,0.98682,0.98975,0.98975,0.99268,0.99268,0.99268,0.99268,0.9956,0.9956,0.99853,0.9956,0.99853,0.99853,1.001,1.001,1.001,1.0039,1.0078,1.0078,1.0107,1.0107,1.0107,1.0137,1.0195,1.0195,1.0195,1.0225,1.0225,1.0254,1.0254,1.0293,1.0293,1.0293,1.0293,1.0293,1.0293,1.0322,1.0293,1.0293,1.0293,1.0293,0,1.1553,1.1475,1.1475,1.1436,1.1436,1.1436,1.1436,1.1396,1.1396,1.1396,1.1396,1.1357,1.1357,1.1357,1.1357,1.1357,1.1328,1.1328,1.1328,1.1328,1.1357,1.1357,1.1328,1.1328,1.1328,1.1328,1.1328,1.1289,1.1289,1.1328,1.1328,1.1289,1.1289,1.125,1.125,1.125,1.1211,1.1211,1.1211,1.1211,1.1172,1.1172,1.1211,1.1211,1.1211,1.1211,1.1211,1.1211,1.1172,1.1172,1.1172,1.1172,1.1172,1.1172,1.1172,1.1172,1.1172,1.1172,1.1182,1.1182,1.1182,1.1143,1.1211,1.1182,0,0,0,0,0,0,0,0,0.896,0.89111,0.89111,0.85938,0.85498,0.85498,0.85303,0.85303,0.85107,0.85107,0.84863,0.85107,0,0.92285,0.92285,0.92285,0.92285,0.92285,0.92285,0.92041,0.92041,0.91797,0.91065,0.90332,0.90088,0.89844,0.90088,0.90088,0.90088,0.90088,0.78565,0.78565,0.78565,0.78565,0.78418,0.78418,0,0.84668,0.84863,0.84668,0.84668,0.84668,0.84668,0.84668,0.84668,0.84277,0.84277,0,0.8706,0.8706,0.86865,0.8706,0.8706,0.78418,0.78418,0.78418,0.78418,0.78418,0.78418,0.78418,0.78418,0.78418,0.78418,0.78613,0.78613,0.78613,0.78613,0.78613,0.78613,0.78418,0.78418,0.78418,0.78223,0.78223,0.78223,0.78223,0.78223,0.78223,0.78076,0.78076,0.78076,0.78076,0.78076,0.78076,0.78076,0.78076,0.78076,0.78076,0.78076,0.78223,0.78223,0.78223,0.78418,0.78418,0.78223,0.78223,0.78076,0.78076,0.78076,0.78076,0.78076,0.78076,0.77881,0.77881,0.77881,0.77881,0.77881,0.77881,0.77881,0.77881,0.77734,0.77734,0.77734,0.77734,0.77881,0.77734,0.77734,0.77881,0.77539,0.77734,0.77734,0.77539,0.77344,0.77344,0.77344,0.77344,0.77197,0.80469,0.80469,0.80469,0.80664,0.80664,0.80859,0.80859,0.80859,0.81055,0.81055,0.80859,0.80859,0.80859,0.80859,0.80518,0.80664,0.80518,0.80518,0.80322,0.80127,0.79736,0.79736,0.79541,0.79541,0.79541,0.79541,0.79346,0.79346,0.79395,0.79541,0.79541,0.79541,0.79541,0.79541,0.79932,0.80127,0.80322,0.80518,0.80518,0.80518,0.80518,0.80518,0.80518,0.80518,0.80518,0.80518,0.80713,0.80713,0.80908,0.80908,0.80713,0.80908,0.80713,0.80518,0.80322,0.79932,0.79736,0.79736,0.79395,0.79395,0.79395,0.79395,0.79395,0.7959,0.79395,0.7959,0.7959,0,0,0,0,0.99414,0.99121,0.99121,0.99121,0.99121,0.99121,0.98828,0.99121,0.98828,0.98828,0.98535,0.98535,0.98535,0.98535,0.98535,0.98535,0.98535,0.98242,0.98242,0.98535,0.98242,0.98291,0.98291,0.98291,0.98535,0.98535,0.98291,0.98291,0.98291,0.98535,0.98535,0.98535,0.98291,0.98291,0.98291,0.98291,0,0,0,0,0,0,0,0,1.875,1.875,1.875,1.876,1.876,1.876,1.876,1.876,1.8652,1.8652,1.8652,1.8652,1.8652,1.8555,1.8555,1.8447,1.8447,1.8447,1.835,1.835,1.835,1.8252,1.8252,1.8252,1.8154,1.8154,1.8154,1.8154,1.8154,1.8154,1.8252,1.8154,1.8154,1.8154,1.8154,1.8154,1.8154,1.8154,1.8154,1.8154,1.8154,1.8154,1.8154,1.8057,1.8057,1.7959,1.7959,1.7959,1.7959
0.90967,0.90967,0.90967,0.91211,0.91455,0.91455,0.91455,0.91455,0.91699,0.91943,0.91943,0.92188,0.92188,0.92188,0.92432,0.92432,0.92432,0.92676,0.92969,0.92969,0.92969,0.93213,0.93213,0.93457,0.9375,0.9375,0.9375,0.9375,0.93994,0.94238,0.94238,0.94238,0.94531,0.94531,0.94775,0.94775,0.95068,0.95068,0.95312,0.95312,0.95605,0.95605,0.9585,0.96143,0.96143,0.96143,0.96143,0.96435,0.96435,0.96435,0.96435,0.9668,0.9668,0.9668,0.9668,0.97266,0.97266,0.97266,0.9751,0.9751,0.97803,0.97803,0.97803,0.97803,0.98096,0.98096,0.98389,0.98682,0.98975,0.98975,0.99268,0.99268,0.99268,0.9956,0.9956,0.9956,0.99853,0.99853,0.99853,0.99853,0.99853,1.001,1.001,1.0049,1.0078,1.0078,1.0107,1.0107,1.0107,1.0137,1.0166,1.0225,1.0195,1.0225,1.0225,1.0254,1.0254,1.0293,1.0293,1.0293,1.0293,1.0293,1.0293,1.0322,1.0293,1.0293,1.0322,1.0322,0,0,1.1475,1.1436,1.1396,1.1396,1.1396,1.1357,1.1357,1.1396,1.1357,1.1357,1.1357,1.1328,1.1328,1.1328,1.1328,1.1328,1.1289,1.1328,1.1328,1.1328,1.1328,1.1289,1.1289,1.1289,1.1289,1.1289,1.125,1.125,1.125,1.125,1.125,1.125,1.125,1.1211,1.1211,1.1172,1.1172,1.1172,1.1172,1.1172,1.1143,1.1172,1.1172,1.1172,1.1172,1.1172,1.1172,1.1143,1.1143,1.1143,1.1143,1.1143,1.1143,1.1182,1.1182,1.1182,1.1143,1.1143,1.1143,1.1143,1.1104,1.1143,1.1143,0,0,0,0,0,0,0,0,0.896,0.89355,0.89355,0.85742,0.85498,0.85498,0.85498,0.85303,0.85303,0.85107,0.85107,0.85107,0,0.92041,0.92041,0.92041,0.92041,0.92041,0.92041,0.92041,0.91797,0.91797,0.9082,0.90088,0.90088,0.89844,0.90088,0.90088,0.90088,0.90088,0.90088,0.90088,0.84033,0.84277,0.84277,0.84668,0.84668,0.84668,0.84668,0.84668,0.84668,0.84668,0.84668,0.84668,0.84668,0.84473,0.84473,0.86621,0.8706,0.8706,0.86621,0.8706,0.86865,0.78418,0.78418,0.78613,0.78418,0.78418,0.78418,0.78418,0.78418,0.78418,0.78613,0.78613,0.78613,0.78613,0.78613,0.78613,0.78613,0.78613,0.78613,0.78418,0.78418,0.78418,0.78418,0.78418,0.78223,0.78223,0.78223,0.78223,0.78223,0.78076,0.78076,0.78076,0.78076,0.78076,0.78223,0.78076,0.78272,0.78272,0.78272,0.78418,0.78418,0.78418,0.78272,0.78418,0.78418,0.78272,0.78272,0.78272,0.78272,0.78076,0.78076,0.78076,0.78076,0.78076,0.78076,0.77881,0.77881,0.77881,0.77881,0.77881,0.77734,0.77734,0.77881,0.77734,0.77734,0.77881,0.77734,0.77734,0.77734,0.77539,0.77539,0.77539,0.77344,0.77734,0.80664,0.80859,0.80469,0.80664,0.80859,0.80859,0.80859,0.80859,0.80859,0.81055,0.81055,0.81055,0.80859,0.80859,0.80859,0.80518,0.80713,0.80518,0.80518,0.80322,0.80127,0.79736,0.79736,0.79541,0.79541,0.79541,0.79541,0.79541,0.79541,0.79541,0.79541,0.79541,0.79541,0.79541,0.79736,0.80127,0.80322,0.80518,0.80713,0.80713,0.80713,0.80713,0.80713,0.80713,0.80713,0.80713,0.80713,0.80908,0.80908,0.80908,0.81103,0.80908,0.80908,0.80713,0.80518,0.80518,0.80322,0.80127,0.80127,0.79736,0.7959,0.7959,0.7959,0.79736,0.79736,0.7959,0.79932,0.80322,0,0,0,0,0.99414,0.99121,0.99121,0.99121,0.99121,0.98828,0.98535,0.98828,0.98828,0.98828,0.98535,0.98535,0.98535,0.98535,0.98535,0.98291,0.98291,0.98291,0.98291,0.98291,0.98291,0.98291,0.98291,0.98291,0.98291,0.98291,0.97998,0.97998,0.97998,0.98291,0.98291,0.98291,0.98291,0.97998,0.97998,0.97998,0,0,0,0,0,0,0,0,1.8652,1.876,1.876,1.876,1.876,1.876,1.876,1.8652,1.8652,1.8652,1.8652,1.8555,1.8555,1.8555,1.8447,1.8447,1.8447,1.8447,1.835,1.835,1.835,1.8252,1.8252,1.8252,1.8154,1.8154,1.8154,1.8154,1.8057,1.8154,1.8252,1.8154,1.8252,1.8154,1.8154,1.8154,1.8154,1.8057,1.8154,1.8057,1.8057,1.8057,1.8057,1.8057,1.8057,1.7959,1.7871,1.7871,1.7959
0.90967,0.90967,0.91211,0.91211,0.91455,0.91455,0.91455,0.91699,0.91699,0.91943,0.91943,0.92188,0.92188,0.92188,0.92432,0.92432,0.92432,0.92725,0.92969,0.92969,0.92969,0.93213,0.93213,0.93457,0.9375,0.93457,0.93457,0.9375,0.93994,0.94238,0.94238,0.94531,0.94531,0.94531,0.94775,0.95068,0.95068,0.95068,0.95312,0.95312,0.95605,0.95605,0.9585,0.9585,0.96143,0.96143,0.96435,0.96435,0.96435,0.96435,0.96435,0.9668,0.9668,0.9668,0.96973,0.97266,0.97266,0.97559,0.97559,0.97559,0.97803,0.97803,0.97803,0.97803,0.98096,0.98389,0.98389,0.98682,0.98975,0.98975,0.99268,0.99268,0.99268,0.99268,0.9956,0.9956,0.99853,0.99853,0.99853,0.99853,1.002,1.002,1.002,1.0049,1.0078,1.0107,1.0107,1.0107,1.0107,1.0107,1.0166,1.0195,1.0195,1.0225,1.0225,1.0254,1.0254,1.0293,1.0293,1.0293,1.0293,1.0293,1.0293,1.0352,1.0352,1.0352,1.0352,1.0352,1.0352,0,1.1436,1.1396,1.1396,1.1396,1.1357,1.1357,1.1357,1.1357,1.1328,1.1328,1.1328,1.1328,1.1289,1.1289,1.1289,1.1289,1.1289,1.1289,1.1289,1.1289,1.1289,1.1289,1.125,1.125,1.125,1.125,1.125,1.1211,1.1211,1.1211,1.125,1.1211,1.1211,1.1211,1.1172,1.1172,1.1172,1.1143,1.1143,1.1143,1.1143,1.1143,1.1143,1.1143,1.1143,1.1143,1.1143,1.1104,1.1104,1.1104,1.1143,1.1143,1.1143,1.1143,1.1182,1.1182,1.1143,1.1143,1.1143,1.1143,1.1104,0,0,0,0,0,0,0,0,0,0,0.89355,0.89111,0.89111,0.85742,0.85498,0.85498,0.85303,0.85303,0.85303,0.85107,0.85107,0.85107,0,0.92041,0.92041,0.92041,0.92041,0.92041,0.92041,0.91797,0.91797,0.91065,0.90576,0.90088,0.89844,0.89844,0.90088,0.89844,0.90088,0.90088,0.89844,0.89844,0.84277,0.84473,0.84473,0.84668,0.84668,0.84912,0.84912,0.84912,0.84912,0.84912,0.84912,0.84668,0.84668,0.84668,0.84912,0.85547,0.86426,0.86865,0.86621,0.86621,0.86621,0.86621,0.78613,0.78418,0.78418,0.78418,0.78418,0.78418,0.78418,0.78613,0.78613,0.78809,0.78809,0.78809,0.78809,0.78809,0.78613,0.78613,0.78613,0.78613,0.78418,0.78613,0.78418,0.78418,0.78418,0.78418,0.78418,0.78418,0.78418,0.78272,0.78272,0.78272,0.78272,0.78272,0.78272,0.78272,0.78272,0.78418,0.78418,0.78418,0.78613,0.78418,0.78418,0.78418,0.78418,0.78418,0.78272,0.78272,0.78272,0.78272,0.78076,0.78076,0.78076,0.78076,0.78076,0.77881,0.77881,0.77881,0.77881,0.77881,0.77881,0.77881,0.77881,0.77734,0.77734,0.77734,0.77734,0.77539,0.77734,0.77539,0.77539,0.77539,0.77539,0.80518,0.80664,0.80518,0.80518,0.80664,0.80859,0.80859,0.80859,0.81055,0.81055,0.81055,0.81055,0.81055,0.80908,0.80908,0.80908,0.80713,0.80908,0.80713,0.80713,0.80518,0.80322,0.79932,0.79736,0.79736,0.79736,0.79736,0.79736,0.79541,0.79541,0.79541,0.79736,0.79736,0.79736,0.79736,0.79736,0.79932,0.80322,0.80518,0.80713,0.80908,0.80908,0.81103,0.81103,0.81103,0.81103,0.80908,0.80908,0.80908,0.81103,0.81103,0.81103,0.81103,0.81103,0.80908,0.80713,0.80518,0.80322,0.80322,0.80127,0.79932,0.79785,0.79785,0.79785,0.79785,0.79785,0.79785,0.80127,0,0,0,0,0.99414,0.99121,0.99121,0.98828,0.98828,0.99121,0.98535,0.98535,0.98535,0.98535,0.98535,0.98535,0.98291,0.98291,0.98291,0.98291,0.98291,0.98291,0.97998,0.97998,0.97998,0.97998,0.97998,0.97998,0.97705,0.97998,0.97705,0.97705,0.97998,0.97705,0.97998,0.97998,0.97998,0.97998,0.97998,0.97998,0.97998,0.97705,0,0,0,0,0,0,0,1.8652,1.8652,1.876,1.876,1.876,1.876,1.876,1.8652,1.8652,1.8555,1.8555,1.8555,1.8555,1.8447,1.8447,1.8447,1.835,1.835,1.835,1.835,1.835,1.8252,1.8252,1.8252,1.8154,1.8154,1.8154,1.8057,1.8057,1.8057,1.8154,1.8154,1.8154,1.8154,1.8154,1.8154,1.8057,1.8057,1.8057,1.8057,1.8057,1.8057,1.7969,1.7969,1.7969,1.7871,1.7871,1.7773,1.7871
0.90967,0.91211,0.91211,0.91211,0.91455,0.91455,0.91699,0.91699,0.91943,0.91943,0.91943,0.92188,0.92188,0.92188,0.92432,0.92432,0.92432,0.92725,0.92969,0.92969,0.92969,0.93213,0.93213,0.93457,0.9375,0.93457,0.9375,0.9375,0.93994,0.94287,0.94287,0.94531,0.94531,0.94531,0.94775,0.94775,0.95068,0.95068,0.95312,0.95312,0.95605,0.95605,0.9585,0.96143,0.96143,0.96143,0.96435,0.96435,0.96435,0.96435,0.96435,0.9668,0.9668,0.9668,0.96973,0.97266,0.97559,0.97559,0.97559,0.97559,0.97803,0.97803,0.97803,0.97803,0.98096,0.98389,0.98682,0.98682,0.98975,0.98975,0.98975,0.99268,0.99268,0.9956,0.9956,0.99853,0.99853,0.99853,0.99853,0.99853,1.002,1.002,1.0049,1.0078,1.0107,1.0107,1.0107,1.0107,1.0107,1.0137,1.0166,1.0195,1.0195,1.0225,1.0225,1.0264,1.0264,1.0264,1.0293,1.0293,1.0293,1.0293,1.0322,1.0352,1.0352,1.0352,1.0352,1.0352,1.0352,1.0391,0,1.1396,1.1367,1.1367,1.1367,1.1328,1.1328,1.1328,1.1328,1.1289,1.1289,1.1289,1.1289,1.125,1.1289,1.125,1.125,1.125,1.125,1.1289,1.125,1.125,1.125,1.125,1.125,1.125,1.1211,1.1211,1.1211,1.1211,1.1211,1.1172,1.1172,1.1172,1.1172,1.1143,1.1143,1.1104,1.1104,1.1104,1.1104,1.1104,1.1104,1.1104,1.1104,1.1104,1.1104,1.1104,1.1104,1.1104,1.1104,1.1143,1.1143,1.1143,1.1143,1.1143,1.1143,1.1104,1.1104,1.1064,0,0,0,0,0,0,0,0,0,0,0,0.89111,0.89111,0.88867,0.85742,0.85547,0.85547,0.85547,0.85303,0.85303,0.85303,0.85107,0.85107,0,0.91797,0.91797,0.91797,0.91797,0.91797,0.91797,0.91797,0.91553,0.9082,0.90332,0.90088,0.89844,0.896,0.89844,0.89844,0.89844,0.89844,0.89844,0.84473,0.84473,0.84668,0.84668,0.84668,0.84668,0.84912,0.84912,0.84912,0.84912,0.84912,0.84912,0.84912,0.84912,0.84912,0.85107,0.85352,0.85547,0.86621,0.86426,0.86426,0.86426,0.86426,0.86182,0.85986,0.85986,0.85986,0.78418,0.78418,0.78418,0.78613,0.78613,0.78809,0.78809,0.78613,0.78809,0.78613,0.78809,0.78613,0.78613,0.78613,0.78613,0.78613,0.78613,0.78613,0.78418,0.78418,0.78418,0.78418,0.78418,0.78418,0.78418,0.78613,0.78418,0.78418,0.78613,0.78272,0.78272,0.78418,0.78418,0.78418,0.78613,0.78613,0.78418,0.78613,0.78613,0.78418,0.78418,0.78272,0.78418,0.78272,0.78272,0.78076,0.78076,0.78076,0.78076,0.78076,0.78076,0.78076,0.78076,0.78076,0.77734,0.77881,0.77881,0.77734,0.77734,0.77734,0,0.79932,0.80127,0.80127,0.80127,0.80518,0.80713,0.80713,0.80713,0.80518,0.80713,0.80859,0.80908,0.81055,0.81055,0.8125,0.8125,0.81103,0.81103,0.81103,0.81103,0.81103,0.80908,0.80908,0.81103,0.80908,0.80713,0.80518,0.80518,0.80127,0.80127,0.79932,0.79932,0.79932,0.79932,0.79736,0.79736,0.79736,0.79736,0.79932,0.79932,0.79932,0.79932,0.80127,0.80518,0.80518,0.80713,0.81103,0.81103,0.81299,0.81299,0.81299,0.81299,0.81299,0.81299,0.81299,0.81494,0.81299,0.81299,0.81103,0.81103,0.81103,0.80908,0.80713,0.80518,0.80518,0.80322,0.80127,0.79932,0.79785,0.79932,0.79932,0.79785,0.79785,0.80127,0,0,0,0,0.99121,0.99121,0.99121,0.98535,0.98535,0.98535,0.98584,0.98291,0.98584,0.98584,0.98291,0.98291,0.98291,0.97998,0.97998,0.97998,0.97705,0.97705,0.97705,0.97412,0.97705,0.97705,0.97705,0.97705,0.97705,0.97705,0.97412,0.97705,0.97705,0.97705,0.97705,0.97705,0.97998,0.97998,0.97705,0.97705,0.97461,0.97461,0,0,0,0,0,0,0,0,1.8652,1.8652,1.8652,1.8652,1.8652,1.8652,1.8555,1.8555,1.8555,1.8555,1.8447,1.8447,1.8447,1.8447,1.835,1.835,1.835,1.8252,1.835,1.8252,1.8252,1.8252,1.8154,1.8154,1.8154,1.8057,1.8057,1.8057,1.8057,1.8154,1.8154,1.8154,1.8154,1.8154,1.8154,1.8057,1.8057,1.8057,1.7969,1.7969,1.7969,1.7871,1.7969,1.7871,1.7871,1.7773,1.7773,1.7773
0.90967,0.91211,0.91211,0.91211,0.91455,0.91455,0.91699,0.91943,0.91943,0.91943,0.92188,0.92188,0.92188,0.92432,0.92432,0.92725,0.92725,0.92725,0.92969,0.92969,0.92969,0.93213,0.93213,0.93506,0.9375,0.9375,0.9375,0.93994,0.93994,0.94287,0.94287,0.94531,0.94531,0.94531,0.94775,0.94775,0.95068,0.95312,0.95312,0.95312,0.95605,0.95605,0.95898,0.96143,0.96143,0.96143,0.96435,0.96435,0.96435,0.96435,0.96435,0.96728,0.96728,0.96728,0.96973,0.97266,0.97266,0.97559,0.97559,0.97559,0.97559,0.97852,0.97852,0.97852,0.97852,0.98389,0.98682,0.98682,0.98975,0.98975,0.98975,0.98975,0.99268,0.99268,0.9956,0.99853,0.99853,0.99853,0.99853,1.002,1.002,1.002,1.0049,1.0078,1.0078,1.0107,1.0107,1.0107,1.0107,1.0137,1.0166,1.0195,1.0195,1.0225,1.0225,1.0264,1.0264,1.0264,1.0293,1.0293,1.0293,1.0322,1.0322,1.0391,1.0391,1.0391,1.0391,1.0391,1.0391,1.0391,0,0,1.1367,1.1367,1.1328,1.1289,1.1289,1.1289,1.125,1.125,1.1289,1.1289,1.125,1.125,1.125,1.125,1.125,1.125,1.125,1.125,1.125,1.125,1.125,1.1211,1.1211,1.1211,1.1211,1.1172,1.1172,1.1182,1.1182,1.1143,1.1143,1.1143,1.1143,1.1143,1.1104,1.1104,1.1104,1.1064,1.1064,1.1104,1.1104,1.1104,1.1104,1.1064,1.1104,1.1104,1.1064,1.1104,1.1104,1.1104,1.1104,1.1104,1.1104,1.1104,1.1104,1.1035,1.0996,1.0996,0,0,0,0,0,0,0,0,0,0,0.89111,0.88916,0.88916,0.87988,0.85742,0.85742,0.85547,0.85547,0.85547,0.85303,0.85303,0.85303,0.85303,0,0.91797,0.91797,0.91797,0.91797,0.91553,0.91553,0.91553,0.91309,0.90576,0.90332,0.90088,0.89844,0.896,0.896,0.896,0.896,0.896,0.896,0.84473,0.84473,0.84473,0.84473,0.84668,0.84668,0.84912,0.84912,0.84912,0.84912,0.84912,0.84912,0.84912,0.84912,0.84912,0.85107,0.85352,0.85547,0.85986,0.86182,0.86182,0.86182,0.86182,0.86182,0.85986,0.85986,0.85986,0.85791,0.85547,0.78418,0.78613,0.78613,0.78809,0.78809,0.78613,0.78809,0.78613,0.78809,0.78613,0.78613,0.78613,0.78613,0.78613,0.78613,0.78613,0.78613,0.78418,0.78418,0.78418,0.78418,0.78418,0.78418,0.78613,0.78418,0.78613,0.78418,0.78418,0.78272,0.78272,0.78418,0.78418,0.78613,0.78613,0.78613,0.78613,0.78613,0.78613,0.78418,0.78272,0.78272,0.78272,0.78076,0.78076,0.78076,0.78076,0.78076,0.78076,0.78076,0.78076,0.78076,0.78076,0.78076,0.78076,0.78076,0,0.79932,0.79932,0.79736,0.80322,0.80322,0.80322,0.80322,0.80908,0.80713,0.80713,0.80713,0.80713,0.80713,0.80908,0.81103,0.81103,0.81299,0.81299,0.81299,0.81494,0.81299,0.81299,0.81299,0.81103,0.81103,0.80908,0.81103,0.81103,0.80908,0.80713,0.80518,0.80322,0.80322,0.80127,0.80127,0.80127,0.79932,0.79932,0.79932,0.79736,0.79932,0.79932,0.79932,0.79932,0.79932,0.80322,0.80518,0.80518,0.80713,0.81103,0.81103,0.81494,0.81494,0.81494,0.8169,0.8169,0.8169,0.8169,0.8169,0.81494,0.81494,0.81494,0.81299,0.81299,0.81103,0.81103,0.80908,0.80713,0.80518,0.80322,0.79932,0.79932,0.7998,0.80127,0.7998,0.7998,0.80127,0,0,0,0,0.98584,0.98584,0.98584,0.98291,0.98291,0.98291,0.98291,0.98291,0.98291,0.98291,0.98291,0.98291,0.97998,0.97998,0.97705,0.97705,0.97705,0.97412,0.97461,0.97461,0.97461,0.97461,0.97461,0.97461,0.97461,0.97461,0.97461,0.97461,0.97461,0.97461,0.97461,0.97461,0.97461,0.97461,0.97461,0.97461,0.97168,0.97168,0,0,0,0,0,0,0,0,1.8652,1.8652,1.8652,1.8652,1.8652,1.8555,1.8555,1.8555,1.8447,1.8447,1.8447,1.8447,1.8457,1.835,1.835,1.835,1.8252,1.8252,1.8252,1.8252,1.8252,1.8252,1.8154,1.8154,1.8154,1.8057,1.8057,1.8057,1.8057,1.8154,1.8154,1.8154,1.8057,1.8057,1.8057,1.8057,1.8057,1.7969,1.7969,1.7969,1.7871,1.7871,1.7871,1.7871,1.7871,1.7871,1.7773,1.7773
0.91211,0.91211,0.91211,0.91455,0.91455,0.91699,0.91699,0.91943,0.91943,0.91943,0.92188,0.92188,0.92188,0.9248,0.9248,0.92725,0.92725,0.92969,0.92969,0.92969,0.92969,0.93213,0.93213,0.93506,0.9375,0.9375,0.9375,0.93994,0.93994,0.94287,0.94531,0.94531,0.94531,0.94824,0.94824,0.95068,0.95068,0.95361,0.95361,0.95605,0.95605,0.95605,0.95898,0.96143,0.96143,0.96143,0.96435,0.96435,0.96435,0.96435,0.96728,0.96728,0.96728,0.96728,0.96973,0.96973,0.97266,0.97266,0.97559,0.97559,0.97559,0.97852,0.97852,0.97852,0.98096,0.98389,0.98682,0.98682,0.98682,0.98975,0.98975,0.98975,0.98975,0.99268,0.9956,0.99853,0.99853,0.99853,1.002,1.002,1.002,1.002,1.0049,1.0078,1.0107,1.0107,1.0107,1.0107,1.0107,1.0137,1.0166,1.0195,1.0195,1.0195,1.0225,1.0225,1.0264,1.0264,1.0293,1.0293,1.0293,1.0322,1.0352,1.0391,1.0391,1.0391,1.0391,1.0391,1.0391,1.0391,0,0,1.1367,1.1289,1.1289,1.125,1.125,1.125,1.125,1.125,1.125,1.125,1.125,1.1211,1.1211,1.1211,1.1211,1.1211,1.1211,1.1211,1.1211,1.1211,1.1182,1.1211,1.1182,1.1182,1.1182,1.1143,1.1143,1.1143,1.1143,1.1104,1.1104,1.1104,1.1104,1.1104,1.1104,1.1064,1.1064,1.1064,1.1064,1.1064,1.1064,1.1064,1.1064,1.1064,1.1064,1.1064,1.1064,1.1064,1.1064,1.1064,1.1064,1.1064,1.1104,1.1064,1.1064,1.0996,1.0957,1.0928,0,0,0,0,0,0,0,0,0,0,0.88672,0.88672,0.87988,0.86426,0.85986,0.85742,0.85547,0.85547,0.85547,0.85547,0.85303,0.85547,0.85303,0,0.91065,0.91065,0.91309,0.91309,0.91309,0.91309,0.91065,0.9082,0.90332,0.90088,0.89844,0.896,0.89355,0.89355,0.89404,0.89404,0.89404,0.89404,0.84668,0.84473,0.84668,0.84668,0.84668,0.84668,0.84912,0.84912,0.84912,0.84912,0.84912,0.84912,0.84912,0.85107,0.84912,0.85352,0.85547,0.85547,0.85791,0.85986,0.85986,0.85986,0.85986,0.85986,0.85986,0.85791,0.85791,0.85547,0.85547,0.85547,0.85547,0.78955,0.78955,0.78809,0.78613,0.78809,0.78613,0.78809,0.78613,0.78809,0.78613,0.78809,0.78809,0.78809,0.78613,0.78613,0.78613,0.78613,0.78418,0.78418,0.78418,0.78418,0.78613,0.78418,0.78613,0.78613,0.78418,0.78418,0.78272,0.78418,0.78467,0.78613,0.78467,0.78467,0.78613,0.78613,0.78467,0.78467,0.78272,0.78272,0.78076,0.78272,0.78076,0.78076,0.78076,0.78076,0.7793,0,0.81885,0.81885,0.8125,0.80908,0.80908,0.80518,0.80518,0.80518,0.80322,0.80322,0.80322,0.80322,0.80322,0.80322,0,0.80713,0.80908,0.80908,0.80908,0.80908,0.81103,0.81103,0.81299,0.81299,0.81299,0.81494,0.81494,0.81299,0.81299,0.81299,0.81299,0.81103,0.81103,0.81299,0.81103,0.80908,0.80713,0.80518,0.80322,0.80322,0.80322,0.80322,0.80322,0.80127,0.80322,0.80127,0.80127,0.80127,0.80127,0.80127,0.80127,0.80127,0.80322,0.80713,0.80518,0.81103,0.81299,0.81494,0.8169,0.8169,0.8169,0.81885,0.81885,0.8169,0.8169,0.8169,0.8169,0.8169,0.8169,0.81494,0.81494,0.8169,0.81494,0.81494,0.8169,0.8169,0.80518,0.80322,0.80322,0.80127,0.80127,0.7998,0,0,0,0,0.98828,0.98291,0.98291,0.98291,0.98291,0.97998,0.98291,0.98291,0.98291,0.97998,0.98291,0.97998,0.97998,0.97998,0.97705,0.97705,0.97705,0.97461,0.97461,0.97168,0.97168,0.97168,0.97168,0.97168,0.97168,0.97168,0.97168,0.97168,0.97168,0.97461,0.97461,0.97168,0.97168,0.97461,0.97461,0.97168,0.97168,0.97168,0.97168,0.96875,0.96631,0,0,0,0,0,0,0,1.8555,1.8652,1.8652,1.8652,1.8555,1.8457,1.8457,1.8457,1.8457,1.8457,1.8457,1.8457,1.835,1.835,1.835,1.8252,1.8252,1.8252,1.8252,1.8252,1.8154,1.8154,1.8154,1.8057,1.8057,1.8057,1.8057,1.8057,1.8057,1.8154,1.8154,1.8057,1.8057,1.8057,1.8057,1.8057,1.7969,1.7969,1.7969,1.7871,1.7871,1.7871,1.7871,1.7871,1.7871,1.7871,1.7773,1.7773
0.90967,0.91211,0.91211,0.91211,0.91455,0.91699,0.91699,0.91943,0.91943,0.91943,0.92236,0.92236,0.92236,0.9248,0.92725,0.92725,0.92969,0.92969,0.92969,0.93213,0.93213,0.93213,0.93213,0.93506,0.93506,0.9375,0.9375,0.93994,0.93994,0.94531,0.94531,0.94531,0.94531,0.94824,0.94824,0.95068,0.95068,0.95361,0.95361,0.95605,0.95605,0.95898,0.96143,0.96143,0.96435,0.96435,0.96435,0.96435,0.96435,0.96435,0.96728,0.96728,0.96728,0.96728,0.96973,0.96973,0.97266,0.97266,0.97559,0.97559,0.97559,0.97852,0.97852,0.97852,0.98145,0.98389,0.98682,0.98682,0.98682,0.98975,0.98975,0.98975,0.99268,0.99268,0.9956,0.99853,0.99853,0.99853,1.002,1.002,1.002,1.002,1.0049,1.0078,1.0107,1.0107,1.0107,1.0107,1.0137,1.0137,1.0166,1.0166,1.0166,1.0195,1.0225,1.0225,1.0264,1.0264,1.0264,1.0293,1.0322,1.0322,1.0391,1.0391,1.0391,1.0391,1.0391,1.0391,1.042,1.042,1.042,0,1.125,1.125,1.125,1.125,1.125,1.1211,1.1211,1.1211,1.1211,1.1211,1.1211,1.1211,1.1182,1.1182,1.1211,1.1182,1.1182,1.1182,1.1182,1.1182,1.1182,1.1143,1.1143,1.1143,1.1104,1.1104,1.1104,1.1104,1.1104,1.1064,1.1064,1.1064,1.1064,1.1064,1.1064,1.1064,1.1064,1.1035,1.1035,1.1064,1.1064,1.1064,1.1035,1.1035,1.1035,1.1035,1.1035,1.1035,1.1035,1.1035,1.1035,1.1035,1.1035,1.0996,1.0967,1.0967,1.0889,1.0889,0,0,0,0,0,0,0,0,0,0.88916,0.88672,0.88428,0.87988,0.86426,0.86182,0.85742,0.85742,0.85547,0.85742,0.85547,0.85547,0.85547,0,0.90088,0.90332,0.9082,0.91065,0.91065,0.91065,0.91065,0.91065,0.9082,0.90332,0.90088,0.89844,0.89404,0.8916,0.89404,0.89404,0.89404,0.89404,0.89404,0.84717,0.84717,0.84717,0.84717,0.84717,0.84717,0.84912,0.84912,0.84912,0.84912,0.84912,0.85107,0.85107,0.85107,0.85107,0.85352,0.85547,0.85547,0.85791,0.85791,0.85986,0.85986,0.85791,0.85986,0.85791,0.85791,0.85791,0.85547,0.85547,0.85547,0.85352,0.85352,0.78809,0.78809,0.78613,0.78613,0.78613,0.78809,0.78613,0.78809,0.78613,0.78809,0.78809,0.78809,0.78809,0.78809,0.78613,0.78613,0.78613,0.78613,0.78418,0.78418,0.78613,0.78613,0.78613,0.78613,0.78467,0.78467,0.78467,0.78467,0.78467,0.78613,0.78467,0.78613,0.78613,0.78467,0.78467,0.78467,0.78613,0.78613,0.78467,0,0.8208,0.8208,0.8208,0.82275,0.82275,0.82275,0.82275,0.8208,0.81885,0.81103,0.80908,0.80713,0.80518,0.80518,0.80518,0.80322,0.80518,0.80518,0.80518,0.80518,0.80518,0.80713,0.80908,0.80908,0.80908,0.81103,0.81299,0.81494,0.81494,0.8169,0.8169,0.8169,0.8169,0.8169,0.8169,0.8169,0.81494,0.81494,0.81299,0.81299,0.81299,0.81103,0.80908,0.80713,0.80518,0.80322,0.80322,0.80322,0.80322,0.80322,0.80322,0.80322,0.80322,0.80322,0.80322,0.80322,0.80322,0.80322,0.80518,0.80713,0.80713,0.81494,0.8169,0.8169,0.8169,0.81885,0.81885,0.81885,0.81885,0.81885,0.81885,0.81885,0.81885,0.81885,0.81885,0.81885,0.81885,0.81885,0.8169,0.8169,0.8169,0.81885,0.81885,0.82471,0.80322,0.80322,0,0,0,0,0.98291,0.98291,0.98291,0.97998,0.97998,0.97998,0.97998,0.97998,0.97998,0.97998,0.97998,0.97705,0.97998,0.97705,0.97705,0.97705,0.97705,0.97461,0.97461,0.97461,0.97168,0.97168,0.97168,0.96875,0.97168,0.97168,0.97168,0.97168,0.97168,0.96875,0.97168,0.97168,0.97168,0.97168,0.96875,0.96875,0.97168,0.96875,0.96875,0.96875,0.96631,0.96631,0.96338,0,0,0,0,0,0,0,0,1.8555,1.8555,1.8555,1.8555,1.8457,1.8457,1.8457,1.8457,1.835,1.835,1.835,1.835,1.8252,1.8252,1.8252,1.8154,1.8154,1.8154,1.8154,1.8154,1.8154,1.8154,1.8057,1.8057,1.8057,1.8057,1.8057,1.8057,1.8066,1.8066,1.8066,1.8066,1.8066,1.7969,1.7969,1.7969,1.7969,1.7871,1.7871,1.7871,1.7871,1.7871,1.7783,1.7783,1.7783,1.7783,1.7783
0.90967,0.91211,0.91211,0.91211,0.91455,0.91699,0.91943,0.91943,0.91943,0.91943,0.92236,0.92236,0.92236,0.9248,0.9248,0.92725,0.92969,0.92969,0.92969,0.93262,0.93262,0.93262,0.93262,0.93506,0.93506,0.9375,0.9375,0.94043,0.94043,0.94531,0.94531,0.94531,0.94824,0.94824,0.94824,0.95068,0.95361,0.95361,0.95361,0.95605,0.95605,0.95898,0.96143,0.96435,0.96435,0.96435,0.96435,0.96435,0.96435,0.96435,0.96728,0.96728,0.96728,0.96728,0.96973,0.96973,0.97266,0.97266,0.97559,0.97559,0.97559,0.97852,0.97852,0.98145,0.98145,0.98682,0.98682,0.98682,0.98682,0.98975,0.98975,0.98975,0.99268,0.9956,0.9956,0.99853,0.99853,0.99853,1.002,1.002,1.002,1.002,1.0049,1.0078,1.0107,1.0107,1.0107,1.0137,1.0137,1.0137,1.0166,1.0195,1.0195,1.0234,1.0234,1.0264,1.0293,1.0293,1.0293,1.0293,1.0322,1.0352,1.0391,1.0391,1.0391,1.0391,1.0391,1.0391,1.042,1.042,1.042,1.042,0,1.125,1.125,1.125,1.1211,1.1211,1.1182,1.1182,1.1182,1.1182,1.1182,1.1143,1.1143,1.1143,1.1143,1.1182,1.1143,1.1143,1.1143,1.1143,1.1143,1.1104,1.1104,1.1104,1.1104,1.1064,1.1064,1.1064,1.1064,1.1064,1.1035,1.1035,1.1064,1.1035,1.1035,1.1035,1.0996,1.0996,1.0996,1.0996,1.0996,1.0996,1.0996,1.0996,1.0996,1.0996,1.0996,1.0996,1.0996,1.0996,1.0996,1.0996,1.0996,1.0967,1.0967,1.0889,1.0889,1.0859,0,0,0,0,0,0,0,0,0,0.88916,0.88428,0.88428,0.87305,0.86621,0.86182,0.85742,0.85742,0.85742,0.85742,0.85547,0.85547,0.85547,0,0.90576,0.90576,0.9082,0.9082,0.9082,0.9082,0.9082,0.9082,0.9082,0.90332,0.90088,0.89844,0.89404,0.8916,0.89404,0.89404,0.89404,0.89404,0.84912,0.84717,0.84717,0.84717,0.84717,0.84717,0.84717,0.84717,0.84912,0.84912,0.84912,0.84912,0.85107,0.85352,0.85352,0.85352,0.85352,0.85547,0.85547,0.85791,0.85791,0.85791,0.85791,0.85791,0.85791,0.85791,0.85791,0.85547,0.85547,0.85547,0.85547,0.85352,0.85352,0.85547,0.85791,0,0,0,0.79004,0.78613,0.78809,0.78613,0.78613,0.78809,0.78809,0.78613,0.78809,0.78809,0.78613,0.78613,0.78613,0.78467,0.78467,0.78613,0.78272,0.78467,0.78613,0.78613,0.78613,0.78613,0.78613,0.78613,0,0.8208,0.82471,0.82471,0.8208,0.82471,0.82471,0.82471,0.82471,0.82471,0.82275,0.82275,0.82275,0.82275,0.82275,0.82471,0.82275,0.82275,0.82275,0.8169,0.81103,0.80908,0.80713,0.80713,0.80713,0.80518,0.80518,0.80518,0.80518,0.80713,0.80713,0.80713,0.80908,0.81103,0.80908,0.81103,0.81299,0.81494,0.8169,0.8169,0.8169,0.8169,0.8169,0.8169,0.8169,0.8169,0.8169,0.8169,0.8169,0.81494,0.81494,0.81494,0.81299,0.80908,0.80713,0.80518,0.80322,0.80518,0.80518,0.80518,0.80322,0.80322,0.80322,0.80322,0.80322,0.80322,0.80322,0.80518,0.80518,0.80713,0.80908,0.81494,0.8169,0.81885,0.81885,0.81885,0.81885,0.8208,0.8208,0.8208,0.8208,0.8208,0.8208,0.8208,0.8208,0.8208,0.8208,0.8208,0.8208,0.81885,0.81885,0.81885,0.8208,0.8208,0,0,0,0,0.98584,0.98291,0.98291,0.97998,0.97998,0.97998,0.97998,0.97998,0.97705,0.97705,0.97705,0.97705,0.97705,0.97705,0.97705,0.97705,0.97461,0.97461,0.97461,0.97461,0.97461,0.97168,0.97168,0.97168,0.96875,0.96875,0.96875,0.96875,0.96875,0.96875,0.96875,0.96875,0.96875,0.96875,0.97168,0.97168,0.96875,0.96875,0.96875,0.96875,0.96924,0.96924,0.96631,0.96631,0.96631,0.96631,0.96338,0,0,0,0,0,0,0,1.8555,1.8555,1.8457,1.8457,1.8457,1.8457,1.835,1.835,1.835,1.835,1.835,1.8252,1.8252,1.8252,1.8252,1.8154,1.8154,1.8154,1.8154,1.8154,1.8154,1.8154,1.8066,1.8154,1.8066,1.8066,1.8066,1.8066,1.8066,1.8066,1.8066,1.8066,1.7969,1.7969,1.7969,1.7969,1.7871,1.7871,1.7871,1.7783,1.7871,1.7871,1.7783,1.7783,1.7783,1.7783,1.7783
