1.0469,1.0469,1.0469,1.0469,1.0508,1.0508,1.0508,1.0508,1.0469,1.0508,1.0469,1.0508,1.0508,1.0508,1.0508,1.0508,1.0508,1.0537,1.0537,1.0537,1.0537,1.0537,1.0537,1.0576,1.0645,1.0645,1.0674,1.0713,1.0713,1.0713,1.0713,1.0713,1.0713,1.0713,1.0742,1.0742,1.0781,1.0781,1.0781,1.0811,1.0781,1.0811,1.0811,1.0811,1.0811,1.0811,1.0811,1.0811,1.0811,1.0811,1.0811,1.0811,1.085,1.085,1.085,1.085,1.085,1.085,1.085,1.0889,1.0889,1.0889,1.0957,1.0918,1.0957,1.0957,1.0957,1.0957,1.0996,1.0996,1.0996,1.0996,1.0996,1.0996,1.0996,1.0996,1.0996,1.1025,1.0996,1.0996,1.1025,1.1025,1.0996,1.1025,1.1025,1.1064,1.1064,1.1104,1.1143,1.1143,1.1143,1.1143,1.1143,1.1143,1.1143,1.1143,1.1182,1.1182,1.1143,1.1143,1.1182,1.1182,1.1182,1.1211,1.1211,1.125,1.125,1.125,1.1289,1.1289,1.1289,1.1289,1.1289,1.1289,1.1289,1.1289,1.1289,1.1289,1.1289,1.1328,1.1328,1.1328,1.1328,1.1367,1.1367,1.1406,1.1406,1.1406,1.1445,1.1406,1.1445,1.1445,1.1445,1.1445,1.1445,1.1445,1.1445,1.1445,1.1406,1.1406,1.1445,1.1445,1.1445,1.1445,1.1484,1.1523,1.1523,1.1523,1.1523,1.1562,1.1562,1.1562,1.1562,1.165,1.165,1.165,1.165,1.165,1.165,1.165,1.165,1.165,1.165,1.165,1.1689,1.1689,1.1689,1.1689,1.1729,1.1768,1.1729,1.1768,1.1768,1.1768,1.1729,1.1768,1.1729,1.1768,1.1768,1.1768,1.1768,1.1768,1.1768,1.1768,1.1768,1.1768,1.1768,1.1768,1.1768,1.1816,1.1816,1.1816,1.1816,1.1855,1.1855,1.1855,1.1895,1.1895,1.1895,1.1895,1.1895,1.1895,1.1895,1.1895,1.1943,1.1982,1.1982,1.1982,1.1982,1.1982,1.1982,1.1982,1.1982,1.1982,1.1982,1.1982,1.1982,1.1982,1.1982,1.1982,1.1982,1.1982,1.1982,1.1982,1.1982,1.2031,1.1982,1.1982,1.1982,1.1982,1.1982,1.1943,1.1943,1.1943,1.1982,1.1982,1.1982,1.1982,1.1982,1.2031,1.1982,1.1982,1.1982,1.1982,1.1943,1.1943,1.1904,1.1904,1.1904,1.1855,1.1855,1.1855,1.1816,1.1855,1.1816,1.1777,1.1777,1.1738,1.1738,1.1738,1.1738,1.1738,1.1738,1.1855,1.1904,1.1943,1.1982,1.1982,1.1943,1.1943,1.1943,1.1943,0,0,0,0,0,0,0,3.0059,3.0059,3.0332,3.0898,3.0898,3.0605,3.0625,3.0625,3.0898,3.0898,3.0898,3.0625,3.0332,0,0,0,0,0,0,0,0,0,0,0,0,0,0,0,0,0,0,0,0,0,0,0,0,0,0,2.6719,0,0,0,0,2.9531,2.9531,2.9531,2.9805,2.9805,2.9805,3.0078,3.0078,2.9805,2.9551,2.9277,2.9277,2.9277,2.9277,2.9023,2.9277,2.8789,2.9023,2.9277,2.9277,2.9805,2.9277,2.9551,2.8789,2.9023,2.9277,2.9023,2.9551,2.9551,2.9551,2.9277,2.9023,2.9023,2.9023,2.9023,2.9043,2.9023,2.8789,2.9023,2.9023,2.9023,2.9043,2.9043,2.9043,2.8789,2.8535,2.8301,2.8301,2.8301,2.8301,2.8301,2.8066,2.8301,2.8789,2.8301,2.8535,2.8301,2.8301,2.8301,2.8301,2.8535,2.8301,2.8301,2.8066,2.8535,2.8301,2.8301,2.8301,2.8301,2.8301,2.8301,2.8301,2.8301,2.8301,2.8535,2.9043,2.9043,2.8535,2.8535,2.8535,2.8535,2.8535,2.8301,2.8301,2.8301,2.8301,0,0,0,0,0,0,0,0,0,0,0,0,0,0,0,0,0,0,0,0,0,0,0,0,0,0,0,0,0,0,0,0,0,0,0,0,0,0,0,0,0,0,0,0,0,0,0,0,0,0,0,0,0,0,0,0,0,0
1.0469,1.0469,1.0469,1.0508,1.0508,1.0508,1.0508,1.0508,1.0508,1.0508,1.0508,1.0508,1.0508,1.0508,1.0508,1.0508,1.0537,1.0537,1.0537,1.0537,1.0537,1.0537,1.0537,1.0605,1.0645,1.0674,1.0674,1.0713,1.0713,1.0713,1.0713,1.0713,1.0742,1.0742,1.0742,1.0742,1.0781,1.0781,1.0781,1.0811,1.0811,1.0811,1.0811,1.0811,1.0811,1.0811,1.0811,1.0811,1.0811,1.0811,1.0811,1.085,1.085,1.085,1.085,1.0889,1.0889,1.085,1.0889,1.0918,1.0918,1.0918,1.0918,1.0918,1.0918,1.0957,1.0957,1.0957,1.0996,1.0996,1.0996,1.0996,1.0996,1.0996,1.0996,1.0957,1.0996,1.0996,1.1025,1.0996,1.1025,1.1025,1.1025,1.1025,1.1064,1.1064,1.1104,1.1143,1.1143,1.1143,1.1143,1.1143,1.1182,1.1182,1.1143,1.1143,1.1182,1.1182,1.1143,1.1143,1.1182,1.1182,1.1182,1.1211,1.1211,1.125,1.1289,1.125,1.1289,1.1289,1.1289,1.1289,1.1289,1.1289,1.1289,1.1328,1.1328,1.1328,1.1328,1.1328,1.1328,1.1367,1.1367,1.1367,1.1406,1.1406,1.1445,1.1406,1.1406,1.1406,1.1445,1.1406,1.1406,1.1445,1.1445,1.1445,1.1445,1.1445,1.1445,1.1445,1.1445,1.1445,1.1445,1.1445,1.1484,1.1523,1.1562,1.1562,1.1562,1.1611,1.1611,1.1611,1.1611,1.165,1.165,1.165,1.165,1.165,1.165,1.165,1.165,1.165,1.1689,1.1689,1.1689,1.1689,1.1729,1.1729,1.1729,1.1768,1.1768,1.1816,1.1816,1.1816,1.1816,1.1816,1.1816,1.1816,1.1816,1.1768,1.1768,1.1768,1.1768,1.1768,1.1768,1.1768,1.1768,1.1768,1.1768,1.1768,1.1816,1.1816,1.1816,1.1855,1.1855,1.1895,1.1895,1.1895,1.1943,1.1943,1.1895,1.1895,1.1895,1.1943,1.1982,1.1982,1.1982,1.1982,1.2031,1.2031,1.2031,1.1982,1.1982,1.2031,1.2031,1.2031,1.2031,1.2031,1.2031,1.1982,1.1982,1.1982,1.1982,1.2031,1.2031,1.2031,1.2031,1.2031,1.2031,1.2031,1.1982,1.1982,1.1982,1.1982,1.1982,1.2031,1.1982,1.2031,1.2031,1.2031,1.2031,1.1982,1.1982,1.1982,1.1982,1.1943,1.1943,1.1904,1.1904,1.1904,1.1904,1.1904,1.1855,1.1855,1.1855,1.1816,1.1777,1.1777,1.1738,1.1738,1.1738,1.1738,1.1738,1.1855,1.1904,1.1943,1.1992,1.2031,1.1992,1.1943,1.1943,1.1943,0,0,0,0,0,0,0,0,3.0332,3.0332,3.0898,3.0898,3.0625,3.0625,3.0625,3.0898,3.0625,3.0059,3.0059,3.0059,3.0059,0,0,0,0,3.1191,0,0,0,0,0,0,0,0,0,0,0,0,0,0,0,0,0,0,0,0,2.6934,2.7148,2.7148,2.7598,2.7598,2.9805,2.9805,2.9551,2.9805,3.0078,2.9805,3.0078,3.0078,3.0078,2.9551,2.9277,2.9277,2.9023,2.9277,2.8789,2.9023,2.8535,2.8301,2.9805,2.9805,2.9805,2.9805,2.9551,2.9277,2.9277,2.9023,2.9277,2.9297,2.9297,2.9297,2.9297,2.9043,2.9043,2.8789,2.8789,2.9043,2.9043,2.9043,2.9297,2.9043,2.9043,2.9043,2.9043,2.9043,2.8535,2.8535,2.8301,2.8535,2.8535,2.8301,2.8301,2.8301,2.8535,2.8535,2.8301,2.8301,2.8066,2.8066,2.8066,2.8789,2.8535,2.8066,2.8301,2.8066,2.8535,2.8301,2.8301,2.8066,2.8301,2.8301,2.8301,2.8301,2.8066,2.8301,2.8301,2.8555,2.8555,2.8301,2.8535,2.8535,2.8301,2.8301,2.8301,2.8301,2.8066,2.8301,2.8066,0,0,0,0,0,0,0,0,0,0,0,0,0,0,0,0,0,0,0,0,0,0,0,0,0,0,0,0,0,0,0,0,0,0,0,0,0,0,0,0,0,0,0,0,0,0,0,0,0,0,0,0,0,0,0,0,0
1.0508,1.0508,1.0508,1.0508,1.0508,1.0508,1.0508,1.0508,1.0508,1.0508,1.0508,1.0508,1.0508,1.0508,1.0508,1.0537,1.0537,1.0537,1.0537,1.0537,1.0576,1.0576,1.0576,1.0645,1.0674,1.0674,1.0674,1.0742,1.0742,1.0742,1.0742,1.0742,1.0742,1.0781,1.0781,1.0781,1.0781,1.0811,1.0781,1.0811,1.0811,1.0811,1.0811,1.0811,1.0811,1.0811,1.0811,1.0811,1.0811,1.0811,1.085,1.085,1.085,1.085,1.0889,1.0918,1.0918,1.0889,1.0889,1.0918,1.0918,1.0918,1.0918,1.0918,1.0918,1.0957,1.0957,1.0996,1.1025,1.0996,1.0996,1.0996,1.0996,1.0996,1.0996,1.0996,1.0996,1.1025,1.1025,1.1025,1.1035,1.1035,1.1035,1.1064,1.1064,1.1064,1.1143,1.1143,1.1143,1.1143,1.1143,1.1143,1.1182,1.1182,1.1143,1.1182,1.1182,1.1182,1.1182,1.1182,1.1182,1.1182,1.1221,1.1221,1.1221,1.125,1.1289,1.1289,1.1289,1.1289,1.1289,1.1289,1.1289,1.1289,1.1328,1.1328,1.1328,1.1328,1.1328,1.1328,1.1328,1.1406,1.1406,1.1367,1.1406,1.1406,1.1406,1.1406,1.1406,1.1406,1.1445,1.1445,1.1406,1.1445,1.1445,1.1445,1.1445,1.1445,1.1445,1.1445,1.1445,1.1445,1.1484,1.1484,1.1484,1.1562,1.1523,1.1562,1.1572,1.1611,1.1611,1.165,1.165,1.165,1.165,1.165,1.165,1.165,1.165,1.165,1.165,1.1689,1.1689,1.1689,1.1689,1.1689,1.1729,1.1729,1.1729,1.1768,1.1816,1.1816,1.1816,1.1855,1.1816,1.1855,1.1816,1.1816,1.1816,1.1816,1.1816,1.1816,1.1816,1.1816,1.1816,1.1777,1.1816,1.1816,1.1816,1.1816,1.1816,1.1816,1.1855,1.1855,1.1855,1.1895,1.1895,1.1895,1.1943,1.1943,1.1943,1.1943,1.1943,1.1943,1.2031,1.2031,1.2031,1.2031,1.2031,1.2031,1.2031,1.2031,1.2031,1.2031,1.2031,1.2031,1.2031,1.2031,1.2031,1.2031,1.2031,1.2031,1.2031,1.2031,1.2031,1.2031,1.2031,1.2031,1.2031,1.2031,1.2031,1.1982,1.1982,1.1982,1.1982,1.2031,1.2031,1.2031,1.2031,1.2031,1.2031,1.2031,1.2031,1.1982,1.1982,1.1982,1.1943,1.1943,1.1904,1.1904,1.1904,1.1904,1.1865,1.1865,1.1865,1.1865,1.1816,1.1777,1.1738,1.1738,1.1777,1.1738,1.1816,1.1904,1.1943,1.1992,1.1992,1.2031,1.1992,1.1992,1.1943,1.1992,0,0,0,0,0,0,0,0,3.0625,3.0625,3.0625,3.0625,3.0625,3.0625,3.0625,3.0625,3.0625,3.0078,3.0078,3.0078,3.0078,2.9805,3.0078,3.0352,3.0352,3.1191,0,0,0,0,0,0,0,0,0,0,0,0,0,0,0,0,0,0,0,0,0,2.7363,2.7363,2.8301,2.8535,2.9023,2.8789,2.9551,2.9551,2.9805,2.9805,2.9805,3.0078,2.9805,2.9805,2.9551,2.9023,2.8789,2.9023,2.8535,2.8535,2.8301,2.8301,2.8789,3.0078,3.0078,2.9805,2.9551,2.8789,2.9297,2.9043,2.9043,2.9043,2.8789,2.8789,2.9043,2.9043,2.8789,2.8789,2.8789,2.9043,2.8789,2.8789,2.8789,2.8789,2.9043,2.9043,2.9043,2.9043,2.8789,2.8535,2.8535,2.8535,2.8301,2.8301,2.8301,2.8066,2.8301,2.8535,2.8535,2.8301,2.8301,2.8066,2.8301,2.8301,2.8301,2.8066,2.8066,2.8066,2.8535,2.8301,2.8301,2.8301,2.8066,2.8066,2.8066,2.8066,2.8066,2.8301,2.8301,2.8301,2.8301,2.8301,2.8301,2.8301,2.8301,2.8301,2.8301,2.8301,2.8301,2.8066,2.8301,0,0,0,0,0,0,0,0,0,0,0,0,0,0,0,0,0,0,0,0,0,0,0,0,0,0,0,0,0,0,0,0,0,0,0,0,0,0,0,0,0,0,0,0,0,0,0,0,0,0,0,0,0,0,0,0,0
1.0508,1.0508,1.0508,1.0537,1.0537,1.0537,1.0508,1.0508,1.0508,1.0537,1.0537,1.0508,1.0537,1.0537,1.0537,1.0537,1.0537,1.0537,1.0576,1.0576,1.0576,1.0605,1.0605,1.0645,1.0674,1.0674,1.0674,1.0742,1.0742,1.0742,1.0742,1.0742,1.0742,1.0781,1.0781,1.0781,1.0811,1.0811,1.0811,1.0811,1.0811,1.085,1.085,1.085,1.0811,1.0811,1.085,1.085,1.085,1.085,1.085,1.085,1.0889,1.0889,1.0889,1.0918,1.0918,1.0918,1.0918,1.0918,1.0918,1.0918,1.0918,1.0918,1.0957,1.0957,1.0996,1.0996,1.0996,1.0996,1.0996,1.0996,1.0996,1.1035,1.1035,1.1035,1.1035,1.1035,1.1035,1.1035,1.1064,1.1035,1.1064,1.1104,1.1104,1.1104,1.1143,1.1143,1.1143,1.1182,1.1143,1.1182,1.1182,1.1221,1.1182,1.1182,1.1182,1.1182,1.1182,1.1182,1.1182,1.1221,1.1221,1.125,1.125,1.125,1.1289,1.1289,1.1289,1.1328,1.1289,1.1289,1.1289,1.1289,1.1328,1.1328,1.1328,1.1367,1.1367,1.1367,1.1406,1.1445,1.1406,1.1406,1.1406,1.1406,1.1445,1.1406,1.1445,1.1445,1.1445,1.1445,1.1445,1.1445,1.1445,1.1445,1.1445,1.1445,1.1445,1.1484,1.1484,1.1484,1.1484,1.1484,1.1484,1.1572,1.1611,1.1611,1.1611,1.1611,1.1611,1.165,1.165,1.165,1.1689,1.165,1.165,1.165,1.1689,1.1689,1.1689,1.1689,1.1689,1.1729,1.1729,1.1729,1.1729,1.1729,1.1729,1.1777,1.1777,1.1816,1.1816,1.1855,1.1855,1.1855,1.1816,1.1816,1.1816,1.1816,1.1816,1.1816,1.1816,1.1816,1.1855,1.1816,1.1816,1.1816,1.1816,1.1816,1.1816,1.1855,1.1855,1.1855,1.1855,1.1895,1.1895,1.1895,1.1943,1.1943,1.1943,1.1943,1.1943,1.1943,1.2031,1.1982,1.2031,1.2031,1.2031,1.2031,1.2031,1.1982,1.2031,1.2031,1.2031,1.2031,1.2031,1.207,1.207,1.207,1.2031,1.2031,1.2031,1.207,1.207,1.207,1.2031,1.2031,1.2031,1.2031,1.2031,1.2031,1.2031,1.2031,1.1982,1.2031,1.2031,1.2031,1.2031,1.2031,1.2031,1.2031,1.2031,1.1992,1.2031,1.1992,1.1992,1.1943,1.1943,1.1904,1.1904,1.1904,1.1904,1.1865,1.1865,1.1865,1.1816,1.1816,1.1777,1.1777,1.1816,1.1816,1.1865,1.1943,1.1943,1.1992,1.2031,1.2031,1.207,1.2031,1.2031,1.1992,0,0,0,0,0,0,0,0,3.0625,3.0625,3.0898,3.0625,3.0625,3.0625,3.0625,3.0625,3.0352,3.0078,3.0078,3.0078,2.9805,2.9805,2.9805,2.9805,2.9805,3.0078,3.0078,0,0,0,0,0,0,0,0,0,0,0,0,0,0,0,0,0,0,0,2.6934,2.7148,2.7363,2.7598,2.7832,2.9023,2.8789,2.9277,2.9277,2.9805,2.9805,3.0078,3.0078,2.9805,2.9805,2.9551,2.9023,2.9023,2.9043,2.8789,2.8789,2.8789,2.8301,2.8789,2.9043,2.9043,2.9043,2.8789,2.8789,2.9043,2.9043,2.9043,2.9043,2.8789,2.8789,2.9043,2.9043,2.8789,2.8789,2.8789,2.8789,2.8789,2.8789,2.8789,2.8789,2.9043,2.9043,2.8789,2.9043,2.8789,2.8535,2.8535,2.8535,2.8301,2.8301,2.8301,2.8066,2.8066,2.8301,2.8301,2.8301,2.8066,2.8301,2.8301,2.8301,2.8301,2.8066,2.8301,2.8301,2.8301,2.8301,2.8301,2.8301,2.8066,2.8066,2.8066,2.8301,2.8066,2.8066,2.8066,2.8066,2.8301,2.8066,2.8301,2.8301,2.8301,2.8066,2.8066,2.8066,2.8301,2.8066,2.8066,0,0,0,0,0,0,0,0,0,0,0,0,0,0,0,0,0,0,0,0,0,0,0,0,0,0,0,0,0,0,0,0,0,0,0,0,0,0,0,0,0,0,0,0,0,0,0,0,0,0,0,0,0,0,0,0,0
1.0537,1.0537,1.0537,1.0537,1.0537,1.0537,1.0508,1.0508,1.0508,1.0537,1.0537,1.0537,1.0537,1.0537,1.0537,1.0537,1.0537,1.0537,1.0576,1.0576,1.0576,1.0605,1.0605,1.0645,1.0674,1.0674,1.0674,1.0742,1.0742,1.0742,1.0742,1.0742,1.0742,1.0781,1.0781,1.0781,1.0811,1.0811,1.0811,1.0811,1.0811,1.085,1.085,1.085,1.085,1.085,1.085,1.085,1.085,1.0889,1.0889,1.0889,1.0889,1.0918,1.0918,1.0957,1.0918,1.0918,1.0918,1.0918,1.0957,1.0957,1.0957,1.0957,1.0957,1.0996,1.0996,1.0996,1.0996,1.0996,1.0996,1.1035,1.0996,1.1035,1.1035,1.1064,1.1064,1.1064,1.1064,1.1064,1.1064,1.1064,1.1064,1.1104,1.1104,1.1104,1.1143,1.1143,1.1182,1.1182,1.1182,1.1182,1.1182,1.1221,1.1221,1.1182,1.1182,1.1182,1.1182,1.1182,1.1182,1.1221,1.126,1.126,1.1289,1.1289,1.1289,1.1289,1.1289,1.1328,1.1328,1.1289,1.1328,1.1328,1.1367,1.1328,1.1328,1.1328,1.1367,1.1406,1.1406,1.1406,1.1406,1.1406,1.1406,1.1406,1.1445,1.1445,1.1445,1.1445,1.1445,1.1445,1.1445,1.1484,1.1484,1.1484,1.1484,1.1484,1.1484,1.1484,1.1484,1.1484,1.1484,1.1484,1.1523,1.1572,1.1611,1.1611,1.1611,1.1611,1.165,1.165,1.165,1.165,1.165,1.165,1.165,1.1689,1.1689,1.1689,1.1689,1.1689,1.1729,1.1729,1.1729,1.1729,1.1777,1.1816,1.1777,1.1777,1.1816,1.1816,1.1816,1.1855,1.1855,1.1855,1.1855,1.1816,1.1816,1.1855,1.1855,1.1855,1.1855,1.1855,1.1855,1.1816,1.1816,1.1816,1.1816,1.1855,1.1855,1.1855,1.1904,1.1904,1.1904,1.1943,1.1943,1.1943,1.1943,1.1943,1.1982,1.1943,1.1943,1.1943,1.2031,1.2031,1.2031,1.2031,1.2031,1.2031,1.2031,1.2031,1.2031,1.2031,1.2031,1.2031,1.2031,1.2031,1.207,1.207,1.207,1.2031,1.207,1.207,1.207,1.207,1.207,1.207,1.2031,1.2031,1.2031,1.2031,1.2031,1.2031,1.2031,1.2031,1.2031,1.2031,1.2031,1.2031,1.2031,1.2031,1.2031,1.2031,1.2031,1.2031,1.1992,1.1943,1.1943,1.1904,1.1904,1.1904,1.1904,1.1904,1.1865,1.1865,1.1865,1.1865,1.1816,1.1816,1.1816,1.1816,1.1816,1.1943,1.1943,1.2031,1.2031,1.2031,1.2031,1.1992,1.2031,1.1943,0,0,0,0,0,0,0,0,3.0625,3.0898,3.0898,3.0625,3.0625,3.0625,3.0625,3.0625,3.0078,3.0078,3.0078,3.0078,2.9805,2.9805,2.9805,2.9805,2.9551,2.9805,2.9551,0,0,0,0,0,0,0,0,0,0,0,0,0,0,0,0,0,0,0,2.6719,2.6719,2.6934,2.6934,2.8535,2.8789,2.9043,2.9043,2.9043,2.9297,2.9297,2.9551,2.9805,2.9805,2.9551,2.9297,2.9043,2.9043,2.8789,2.8789,2.8789,2.8789,2.8535,2.8789,2.9043,2.9297,2.9297,2.9043,2.8789,2.8789,2.9043,2.8789,2.8789,2.8789,2.8789,2.9043,2.9043,2.8789,2.8789,2.8789,2.8789,2.8789,2.8535,2.8535,2.8535,2.8789,2.9043,2.8789,2.8789,2.8789,2.8535,2.8535,2.8066,2.8301,2.8301,2.8066,2.8066,2.8066,2.8301,2.8555,2.8301,2.8066,2.8066,2.8301,2.8301,2.8301,2.8066,2.8066,2.8066,2.8301,2.8301,2.8066,2.8066,2.8066,2.8066,2.8301,2.8301,2.8066,2.8066,2.7832,2.8066,2.8066,2.7832,2.7832,2.7832,2.7832,2.8066,2.7832,2.7832,2.7617,2.7617,2.7617,0,0,0,0,0,0,0,0,0,0,0,0,0,0,0,0,0,0,0,0,0,0,0,0,0,0,0,0,0,0,0,0,0,0,0,0,0,0,0,0,0,0,0,0,0,0,0,0,0,0,0,0,0,0,0,0,0
1.0537,1.0537,1.0537,1.0537,1.0537,1.0537,1.0537,1.0537,1.0537,1.0537,1.0537,1.0537,1.0537,1.0576,1.0576,1.0576,1.0576,1.0576,1.0605,1.0605,1.0576,1.0605,1.0605,1.0645,1.0674,1.0645,1.0674,1.0742,1.0742,1.0742,1.0742,1.0742,1.0781,1.0781,1.0781,1.0811,1.0811,1.0811,1.085,1.085,1.085,1.085,1.085,1.085,1.085,1.085,1.085,1.085,1.085,1.085,1.0889,1.0889,1.0918,1.0918,1.0918,1.0957,1.0957,1.0918,1.0918,1.0918,1.0918,1.0957,1.0957,1.0957,1.0996,1.0996,1.0996,1.0996,1.1035,1.0996,1.1035,1.1035,1.1035,1.1035,1.1035,1.1064,1.1104,1.1104,1.1104,1.1104,1.1104,1.1064,1.1104,1.1104,1.1104,1.1104,1.1143,1.1143,1.1182,1.1182,1.1182,1.1182,1.1182,1.1221,1.1221,1.1221,1.1182,1.1221,1.1221,1.1221,1.1221,1.1221,1.126,1.126,1.1289,1.1289,1.1328,1.1289,1.1289,1.1328,1.1328,1.1328,1.1328,1.1328,1.1367,1.1367,1.1367,1.1367,1.1367,1.1406,1.1406,1.1445,1.1406,1.1445,1.1445,1.1445,1.1445,1.1445,1.1445,1.1445,1.1484,1.1484,1.1484,1.1484,1.1484,1.1484,1.1484,1.1484,1.1484,1.1484,1.1484,1.1484,1.1484,1.1533,1.1572,1.1611,1.1611,1.1611,1.165,1.1611,1.165,1.165,1.165,1.165,1.165,1.165,1.165,1.1689,1.1689,1.1689,1.1689,1.1729,1.1729,1.1729,1.1729,1.1729,1.1816,1.1816,1.1777,1.1777,1.1816,1.1816,1.1855,1.1855,1.1855,1.1855,1.1855,1.1855,1.1855,1.1855,1.1855,1.1855,1.1855,1.1855,1.1855,1.1855,1.1855,1.1816,1.1816,1.1816,1.1855,1.1855,1.1904,1.1904,1.1943,1.1943,1.1943,1.1943,1.1982,1.1982,1.1982,1.1982,1.1982,1.1982,1.2031,1.2031,1.2031,1.2031,1.2031,1.2031,1.2031,1.2031,1.2031,1.2031,1.2031,1.2031,1.2031,1.2031,1.207,1.207,1.2031,1.2031,1.207,1.207,1.207,1.207,1.207,1.207,1.207,1.2031,1.2031,1.2031,1.2031,1.2031,1.2031,1.2031,1.2031,1.2031,1.2031,1.2031,1.2031,1.2031,1.2031,1.2031,1.2031,1.2031,1.1992,1.1992,1.1943,1.1904,1.1904,1.1904,1.1904,1.1904,1.1865,1.1865,1.1865,1.1865,1.1816,1.1816,1.1865,1.1816,1.1816,1.1904,1.1943,1.1992,1.208,1.208,1.208,1.2031,1.208,1.2031,0,0,0,0,0,0,0,0,3.0898,3.0898,3.0625,3.0625,3.0625,3.0625,3.0625,3.0352,3.0352,3.0352,3.0352,3.0078,2.9805,2.9805,3.0078,2.9805,2.9805,2.9805,2.9805,0,0,3.1191,3.0898,0,0,0,0,0,0,0,0,0,0,0,0,0,0,0,2.6719,2.6934,2.6934,2.6934,2.6934,2.8789,2.8789,2.8789,2.8789,2.9043,2.9043,2.9297,2.9043,2.9043,2.9043,2.9043,2.9043,2.8789,2.8789,2.8535,2.8535,2.8535,2.8789,2.8789,2.9043,2.9297,2.9297,2.9043,2.8789,2.9043,2.8789,2.9043,2.8789,2.8535,2.8789,2.9043,2.8789,2.8535,2.8535,2.8535,2.8789,2.8535,2.8535,2.8301,2.8555,2.8789,2.8789,2.8789,2.9043,2.8789,2.8555,2.8555,2.8301,2.8301,2.8066,2.8066,2.8301,2.8066,2.8301,2.8555,2.8301,2.8066,2.8066,2.8301,2.8301,2.8301,2.8066,2.8066,2.8066,2.8301,2.8301,2.8301,2.8066,2.8066,2.8301,2.8301,2.8301,2.8066,2.8066,2.7832,2.8066,2.7832,2.7832,2.7617,2.7832,2.7832,2.7832,2.7832,2.7617,2.7617,2.7617,2.7383,0,0,0,0,0,0,0,0,0,0,0,0,0,0,0,0,0,0,0,0,0,0,0,0,0,0,0,0,0,0,0,0,0,0,0,0,0,0,0,0,0,0,0,0,0,0,0,0,0,0,0,0,0,0,0,0,0
1.0537,1.0537,1.0537,1.0537,1.0537,1.0576,1.0547,1.0576,1.0576,1.0576,1.0576,1.0576,1.0576,1.0576,1.0605,1.0605,1.0605,1.0605,1.0605,1.0605,1.0605,1.0645,1.0645,1.0645,1.0674,1.0674,0,1.0742,1.0781,1.0781,1.0781,1.0781,1.082,1.082,1.082,1.082,1.082,1.082,1.085,1.085,1.085,1.085,1.085,1.085,1.085,1.085,1.0889,1.0889,1.085,1.0889,1.0918,1.0918,1.0918,1.0918,1.0918,1.0957,1.0957,1.0957,1.0957,1.0957,1.0957,1.0957,1.0957,1.0957,1.0996,1.0996,1.1035,1.1035,1.1035,1.0996,1.1035,1.1035,1.1035,1.1035,1.1064,1.1035,1.1104,1.1104,1.1104,1.1104,1.1104,1.1064,1.1104,1.1143,1.1104,1.1104,1.1143,1.1182,1.1182,1.1182,1.1182,1.1182,1.1221,1.126,1.126,1.1221,1.1221,1.1221,1.1221,1.1221,1.1221,1.126,1.126,1.1289,1.1299,1.1299,1.1299,1.1299,1.1299,1.1328,1.1328,1.1328,1.1328,1.1328,1.1367,1.1367,1.1406,1.1406,1.1406,1.1445,1.1445,1.1445,1.1445,1.1445,1.1445,1.1484,1.1484,1.1484,1.1484,1.1484,1.1484,1.1484,1.1484,1.1484,1.1484,1.1533,1.1533,1.1533,1.1533,1.1533,1.1533,1.1533,1.1533,1.1572,1.1572,1.1611,1.165,1.165,1.165,1.165,1.165,1.165,1.1611,1.165,1.165,1.165,1.165,1.1689,1.1689,1.1689,1.1729,1.1777,1.1729,1.1729,1.1777,1.1777,1.1816,1.1816,1.1816,1.1816,1.1855,1.1855,1.1855,1.1855,1.1855,1.1855,1.1855,1.1855,1.1855,1.1855,1.1855,1.1855,1.1855,1.1855,1.1855,1.1855,1.1855,1.1855,1.1855,1.1855,1.1904,1.1904,1.1904,1.1904,1.1982,1.1982,1.1982,1.1982,1.1982,1.1982,1.1982,1.1982,1.1982,1.1982,1.2031,1.2031,1.2031,1.2031,1.2031,1.2031,1.2031,1.2031,1.2031,1.207,1.207,1.207,1.2031,1.2031,1.207,1.207,1.207,1.207,1.207,1.207,1.207,1.207,1.207,1.207,1.207,1.207,1.207,1.2031,1.207,1.207,1.207,1.207,1.207,1.2031,1.207,1.207,1.207,1.2031,1.2031,1.2031,1.2031,1.2031,1.2031,1.1992,1.1992,1.1943,1.1943,1.1904,1.1904,1.1904,1.1904,1.1865,1.1865,1.1904,1.1865,1.1865,1.1865,1.1816,1.1865,1.1943,1.1992,1.1992,1.208,1.208,1.208,1.208,1.208,1.2031,1.2031,0,0,0,0,0,0,0,0,3.0625,3.0625,3.0625,3.0352,3.0625,3.0625,3.0352,3.0352,3.0352,3.0352,3.0078,2.9805,2.9805,2.9805,2.9805,2.9805,2.9805,2.9551,2.9277,2.8789,0,0,0,0,0,0,0,0,0,0,0,0,0,0,0,0,0,2.6934,2.6934,2.6934,2.8535,2.8789,2.8789,2.8789,2.8789,2.8789,2.8789,2.9043,2.9043,2.9043,2.8789,2.8789,2.8789,2.8789,2.8535,2.8301,2.8535,2.8301,2.8535,2.8301,2.8535,2.9297,2.9805,2.9805,2.9043,2.8789,2.9043,2.8789,2.9043,2.8535,2.8535,2.8789,2.8789,2.8535,2.8555,2.8301,2.8555,2.8555,2.8555,2.8301,2.8555,2.8555,2.8555,2.8555,2.8555,2.8555,2.8555,2.8555,2.8555,2.8066,2.8301,2.8066,2.8066,2.8066,2.8066,2.8066,2.8301,2.8301,2.8066,2.8066,2.8301,2.8301,2.8066,2.8066,2.7832,2.7832,2.8066,2.8066,2.8301,2.8066,2.8066,2.8301,2.8301,2.8301,2.8066,2.8066,2.7832,2.7832,2.7832,2.7617,2.7617,2.7617,2.7617,2.7617,2.7617,2.7617,2.7383,2.7617,2.7383,0,0,0,0,0,0,0,0,0,0,0,0,0,0,0,0,0,0,0,0,0,0,0,0,0,0,0,0,0,0,0,0,0,0,0,0,0,0,0,0,0,0,0,0,0,0,0,0,0,0,0,0,0,0,0,0,0
1.0547,1.0547,1.0547,1.0576,1.0576,1.0576,1.0576,1.0605,1.0605,1.0605,1.0605,1.0605,1.0605,1.0605,1.0645,1.0645,1.0645,1.0645,1.0645,1.0645,1.0645,1.0674,1.0674,1.0645,1.0674,1.0674,1.0713,1.0781,1.082,1.082,1.082,1.082,1.082,1.082,1.082,1.082,1.085,1.085,1.085,1.085,1.085,1.085,1.085,1.085,1.085,1.085,1.0889,1.0889,1.085,1.0889,1.0918,1.0928,1.0928,1.0928,1.0957,1.0957,1.0957,1.0957,1.0957,1.0957,1.0957,1.0957,1.0996,1.0996,1.0996,1.1035,1.1035,1.1035,1.1035,1.1035,1.1035,1.1064,1.1035,1.1064,1.1064,1.1064,1.1104,1.1104,1.1104,1.1104,1.1143,1.1104,1.1143,1.1143,1.1143,1.1143,1.1182,1.1182,1.1182,1.1221,1.1221,1.1221,1.1221,1.126,1.126,1.126,1.126,1.126,1.126,1.126,1.126,1.126,1.1299,1.1299,1.1299,1.1299,1.1328,1.1299,1.1299,1.1299,1.1328,1.1338,1.1338,1.1338,1.1367,1.1406,1.1406,1.1406,1.1445,1.1445,1.1445,1.1484,1.1484,1.1494,1.1494,1.1533,1.1533,1.1494,1.1533,1.1484,1.1484,1.1494,1.1494,1.1494,1.1533,1.1533,1.1533,1.1533,1.1572,1.1572,1.1572,1.1572,1.1572,1.1611,1.1611,1.165,1.165,1.165,1.165,1.165,1.165,1.165,1.165,1.165,1.165,1.1689,1.1689,1.1689,1.1729,1.1729,1.1729,1.1777,1.1777,1.1777,1.1777,1.1777,1.1816,1.1816,1.1816,1.1816,1.1855,1.1855,1.1855,1.1855,1.1855,1.1855,1.1855,1.1855,1.1855,1.1855,1.1855,1.1855,1.1855,1.1855,1.1904,1.1904,1.1855,1.1855,1.1904,1.1904,1.1904,1.1904,1.1943,1.1943,1.1982,1.1982,1.1982,1.1982,1.1982,1.1982,1.2031,1.1982,1.1982,1.2031,1.207,1.2031,1.2031,1.2031,1.207,1.207,1.2031,1.207,1.207,1.207,1.207,1.207,1.207,1.207,1.207,1.207,1.207,1.207,1.207,1.207,1.207,1.2119,1.207,1.2119,1.207,1.2119,1.207,1.207,1.207,1.207,1.207,1.208,1.208,1.208,1.208,1.208,1.208,1.2031,1.2031,1.2031,1.2031,1.2031,1.2031,1.2031,1.1992,1.1943,1.1943,1.1904,1.1904,1.1904,1.1904,1.1904,1.1904,1.1904,1.1904,1.1904,1.1904,1.1865,1.1865,1.2168,1.208,1.208,1.208,1.208,1.2119,1.208,1.2031,1.2031,1.2031,1.2168,0,0,0,0,0,0,0,0,3.0078,3.0352,3.0352,3.0352,3.0352,3.0352,3.0352,3.0352,3.0078,3.0352,2.9805,2.9805,2.9805,2.9805,2.9805,2.9805,2.9805,2.9551,2.9551,0,0,0,0,0,0,0,0,0,0,0,0,0,0,0,2.8535,2.6719,2.6934,2.6934,2.7148,2.7148,2.8535,2.8535,2.8789,2.8789,2.8789,2.8789,2.9043,2.9043,2.9043,2.8789,2.8789,2.8535,2.8789,2.8535,2.8535,2.8535,2.8301,2.8301,2.8535,2.8789,2.9043,2.9297,2.9551,2.9551,2.8789,2.9043,2.9043,2.8789,2.8555,2.8555,2.8066,2.8555,2.8555,2.8301,2.8066,2.8301,2.8301,2.8301,2.8301,2.8301,2.8555,2.8555,2.8301,2.8301,2.8301,2.8555,2.8555,2.8301,2.8066,2.8066,2.7832,2.8066,2.8066,2.8066,2.8066,2.8301,2.8301,2.8301,2.8301,2.8301,2.8066,2.8066,2.7832,2.7832,2.7832,2.8066,2.8066,2.8301,2.8301,2.8066,2.8066,2.8066,2.8066,2.7832,2.8066,2.7832,2.7832,2.7617,2.7617,2.7617,2.7617,2.7617,2.7617,2.7617,2.7383,2.7383,2.7383,2.7383,2.7383,0,0,0,0,0,0,0,0,0,0,0,0,0,0,0,0,0,0,0,0,0,0,0,0,0,0,0,0,0,0,0,0,0,0,0,0,0,0,0,0,0,0,0,0,0,0,0,0,0,0,0,0,0,0,0,0
1.0547,1.0547,1.0547,1.0576,1.0576,1.0576,1.0605,1.0605,1.0645,1.0645,1.0645,1.0645,1.0645,1.0645,1.0645,1.0645,1.0645,1.0645,1.0645,1.0674,1.0645,1.0674,1.0674,1.0674,1.0674,1.0674,1.0742,1.0781,1.082,1.082,1.082,1.082,1.082,1.085,1.085,1.085,1.085,1.085,1.085,1.085,1.085,1.085,1.085,1.085,1.085,1.085,1.0889,1.0889,1.0889,1.0928,1.0928,1.0928,1.0957,1.0957,1.0957,1.0957,1.0957,1.0957,1.0957,1.0957,1.0996,1.0996,1.0996,1.0996,1.0996,1.1035,1.1035,1.1035,1.1035,1.1064,1.1035,1.1035,1.1035,1.1064,1.1064,1.1064,1.1064,1.1104,1.1104,1.1104,1.1143,1.1104,1.1143,1.1143,1.1143,1.1143,1.1182,1.1221,1.1221,1.1221,1.1182,1.1182,1.1221,1.126,1.126,1.126,1.126,1.126,1.126,1.126,1.1299,1.126,1.1299,1.1299,1.1299,1.1338,1.1338,1.1338,1.1338,1.1338,1.1338,1.1338,1.1338,1.1338,1.1406,1.1406,1.1406,1.1445,1.1445,1.1455,1.1455,1.1494,1.1494,1.1494,1.1533,1.1533,1.1533,1.1533,1.1533,1.1533,1.1533,1.1533,1.1533,1.1533,1.1533,1.1572,1.1533,1.1572,1.1572,1.1572,1.1611,1.1611,1.1611,1.1611,1.1611,1.165,1.165,1.165,1.165,1.165,1.165,1.165,1.165,1.1689,1.1689,1.1689,1.1689,1.1689,1.1729,1.1729,1.1777,1.1777,1.1777,1.1816,1.1816,1.1816,1.1816,1.1816,1.1816,1.1816,1.1855,1.1855,1.1855,1.1855,1.1855,1.1855,1.1855,1.1855,1.1855,1.1904,1.1904,1.1904,1.1904,1.1904,1.1904,1.1943,1.1904,1.1943,1.1943,1.1943,1.1943,1.1943,1.1943,1.1943,1.1982,1.1982,1.1982,1.1982,1.2031,1.2031,1.2031,1.2031,1.2031,1.2031,1.207,1.2031,1.2031,1.207,1.207,1.207,1.207,1.207,1.207,1.207,1.207,1.207,1.207,1.207,1.207,1.207,1.207,1.207,1.207,1.2119,1.207,1.2119,1.2119,1.2119,1.2119,1.2119,1.208,1.208,1.208,1.208,1.208,1.208,1.208,1.208,1.208,1.208,1.208,1.208,1.208,1.208,1.2031,1.2031,1.2031,1.2031,1.2031,1.2031,1.1943,1.1943,1.1904,1.1904,1.1904,1.1904,1.1904,1.1904,1.1904,1.1904,1.1904,1.1865,1.1865,1.2168,1.2168,1.2119,1.2119,1.2119,1.2119,1.208,1.208,1.208,1.2168,0,0,0,0,0,0,0,0,0,2.9805,3.0352,3.0078,3.0352,3.0352,3.0352,3.0078,3.0078,2.9805,3.0078,2.9805,2.9805,2.9805,2.9805,2.9805,2.9805,2.9805,2.9551,2.9551,0,0,0,0,0,0,0,0,0,0,0,0,0,0,0,2.8535,2.8535,2.6934,2.7148,2.7383,2.8789,2.8789,2.8535,2.8789,2.8789,2.8789,2.8789,2.9043,2.9043,2.9043,2.9043,2.8789,2.8789,2.8789,2.8789,2.8555,2.8555,2.8301,2.8555,2.8789,2.8789,2.8789,2.9297,2.9551,2.9297,2.8789,2.9043,2.8789,2.8789,2.8789,2.8555,2.8066,2.8066,2.8066,2.8066,2.8066,2.8066,2.8066,2.8301,2.8301,2.8066,2.8555,2.8301,2.8066,2.8066,2.8066,2.8555,2.8555,2.8301,2.8066,2.7832,2.7832,2.8066,2.7832,2.7832,2.8066,2.8301,2.8301,2.8301,2.8301,2.8301,2.8066,2.7832,2.7832,2.7832,2.7832,2.8066,2.8066,2.8301,2.832,2.8066,2.8066,2.8066,2.8066,2.7832,2.7832,2.7617,2.7832,2.7617,2.7383,2.7617,2.7617,2.7617,2.7617,2.7617,2.7383,2.7383,2.7383,2.7168,2.7383,0,0,0,0,0,0,0,0,0,0,0,0,0,0,0,0,0,0,0,0,0,0,0,0,0,0,0,0,0,0,0,0,0,0,0,0,0,0,0,0,0,0,0,0,0,0,0,0,0,0,0,0,0,0,0,0
1.0547,1.0547,1.0547,1.0605,1.0605,1.0605,1.0605,1.0645,1.0645,1.0645,1.0645,1.0645,1.0645,1.0645,1.0674,1.0645,1.0645,1.0645,1.0674,1.0674,1.0674,1.0674,1.0674,1.0684,1.0684,1.0752,1.0752,1.082,1.082,1.082,1.082,1.082,1.082,1.085,1.085,1.085,1.085,1.085,1.085,1.085,1.0889,1.0889,1.0889,1.0889,1.0889,1.0889,1.0928,1.0928,1.0928,1.0928,1.0928,1.0957,1.0957,1.0957,1.0957,1.0957,1.0957,1.0957,1.0996,1.0996,1.0996,1.0996,1.1035,1.1035,1.1035,1.1064,1.1064,1.1064,1.1064,1.1064,1.1074,1.1074,1.1074,1.1074,1.1074,1.1074,1.1104,1.1104,1.1104,1.1143,1.1143,1.1143,1.1143,1.1182,1.1182,1.1182,1.1221,1.126,1.126,1.126,1.126,1.1182,1.126,1.126,1.126,1.1299,1.1299,1.1299,1.1299,1.1299,1.1299,1.1299,1.1299,1.1299,1.1299,1.1338,1.1338,1.1338,1.1338,1.1338,1.1338,1.1338,1.1338,1.1377,1.1416,1.1416,1.1416,1.1455,1.1455,1.1455,1.1455,1.1494,1.1494,1.1533,1.1533,1.1533,1.1533,1.1533,1.1533,1.1533,1.1572,1.1533,1.1533,1.1572,1.1572,1.1572,1.1611,1.1611,1.1611,1.1611,1.1611,1.1611,1.1611,1.1611,1.1611,1.165,1.165,1.165,1.1689,1.165,1.165,1.165,1.1689,1.1689,1.1729,1.1729,1.1729,1.1729,1.1777,1.1777,1.1777,1.1816,1.1816,1.1816,1.1816,1.1816,1.1855,1.1855,1.1816,1.1855,1.1855,1.1855,1.1855,1.1855,1.1855,1.1904,1.1904,1.1855,1.1904,1.1904,1.1904,1.1904,1.1904,1.1904,1.1943,1.1943,1.1943,1.1943,1.1943,1.1943,1.1943,1.1943,1.1992,1.1992,1.1992,1.1992,1.1992,1.1992,1.2031,1.2031,1.2031,1.2031,1.2031,1.2031,1.207,1.207,1.207,1.207,1.207,1.207,1.207,1.2119,1.2119,1.2119,1.2119,1.2119,1.2119,1.208,1.207,1.207,1.208,1.208,1.2119,1.2119,1.2119,1.2119,1.2119,1.2119,1.2119,1.2119,1.2119,1.2119,1.2119,1.2119,1.208,1.208,1.2119,1.2119,1.208,1.208,1.208,1.208,1.208,1.208,1.2031,1.2031,1.2031,1.2031,1.2031,1.2031,1.1992,1.1953,1.1953,1.1953,1.1953,1.1953,1.1904,1.1953,1.1904,1.1904,1.1904,1.1904,1.1904,1.2119,1.2119,1.2119,1.2119,1.2119,1.2119,1.2119,1.2119,1.2168,1.2168,1.2168,0,0,0,0,0,0,0,2.9805,2.9805,3.0352,3.0078,3.0352,3.0352,3.0352,3.0078,3.0078,2.9805,3.0352,3.0078,2.9805,3.0352,3.0078,2.9805,2.9551,2.9551,2.9551,2.9551,0,2.9805,2.9805,0,0,0,0,0,0,0,0,0,0,0,0,2.8301,2.8535,2.7148,2.7383,2.7598,2.8535,2.8535,2.8535,2.8789,2.8535,2.8789,2.8555,2.8789,2.9043,2.9043,2.8789,2.8555,2.8555,2.8555,2.8789,2.8555,2.8555,2.8555,2.8789,2.8555,2.8555,2.8555,2.8555,2.8555,2.8789,2.8789,2.9043,2.8789,2.8789,2.8555,2.8066,2.8066,2.8066,2.8066,2.8066,2.8066,2.8066,2.8066,2.8066,2.8066,2.7832,2.8066,2.8066,2.7832,2.8066,2.8066,2.8066,2.8066,2.8066,2.8066,2.8066,2.7617,2.7832,2.7832,2.7832,2.8066,2.8066,2.8066,2.8066,2.8066,2.8066,2.7832,2.7832,2.7832,2.7617,0,2.8066,2.832,2.832,2.832,2.8066,2.8066,2.8066,2.8066,2.7852,2.7852,2.7617,2.7852,2.7383,2.7617,2.7617,2.7383,2.7617,2.7617,2.7617,2.7383,2.7383,2.7383,2.7168,2.7383,2.7168,0,0,0,0,0,0,0,0,0,0,0,0,0,0,0,0,0,0,0,0,0,0,0,0,0,0,0,0,0,0,0,0,0,0,0,0,0,0,0,0,0,0,0,0,0,0,0,0,0,0,0,0,0,0,0
1.0547,1.0576,1.0576,1.0605,1.0615,1.0615,1.0645,1.0645,1.0645,1.0645,1.0674,1.0674,1.0674,1.0674,1.0674,1.0684,1.0684,1.0684,1.0684,1.0684,1.0684,1.0713,1.0713,1.0713,1.0752,1.0752,1.0781,1.082,1.082,1.082,1.082,1.082,1.082,1.085,1.085,1.085,1.0889,1.085,1.085,1.085,1.0889,1.0889,1.0889,1.0928,1.0928,1.0928,1.0928,1.0928,1.0928,1.0928,1.0928,1.0957,1.0957,1.0957,1.0996,1.0957,1.0996,1.0996,1.0996,1.0996,1.1035,1.1035,1.1035,1.1035,1.1035,1.1074,1.1074,1.1074,1.1074,1.1074,1.1074,1.1074,1.1074,1.1074,1.1074,1.1074,1.1104,1.1104,1.1143,1.1143,1.1143,1.1143,1.1143,1.1182,1.1182,1.1221,1.1221,1.126,1.126,1.126,1.126,1.126,1.126,1.1299,1.126,1.126,1.1299,1.1299,1.1299,1.1299,1.1299,1.1299,1.1338,1.1338,1.1338,1.1338,1.1338,1.1338,1.1338,1.1338,1.1338,1.1338,1.1338,1.1416,1.1416,1.1416,1.1455,1.1455,1.1455,1.1455,1.1494,1.1494,1.1494,1.1533,1.1533,1.1533,1.1533,1.1572,1.1572,1.1572,1.1572,1.1533,1.1572,1.1572,1.1611,1.1611,1.1611,1.1611,1.1611,1.1611,1.165,1.165,1.165,1.165,1.165,1.1689,1.1689,1.1689,1.1689,1.1689,1.1689,1.1689,1.1738,1.1777,1.1777,1.1777,1.1777,1.1777,1.1777,1.1738,1.1777,1.1777,1.1816,1.1816,1.1816,1.1855,1.1855,1.1855,1.1816,1.1855,1.1904,1.1904,1.1904,1.1904,1.1904,1.1904,1.1943,1.1904,1.1904,1.1943,1.1904,1.1943,1.1943,1.1943,1.1943,1.1943,1.1943,1.1992,1.1992,1.1992,1.1992,1.1992,1.1992,1.1992,1.1992,1.1992,1.1992,1.2031,1.2031,1.2031,1.2031,1.2031,1.2031,1.2031,1.207,1.208,1.208,1.208,1.2119,1.2119,1.2119,1.2168,1.2168,1.2119,1.2119,1.2119,1.2119,1.2119,1.2119,1.208,1.208,1.2119,1.2119,1.2119,1.208,1.2119,1.2168,1.2168,1.2168,1.2168,1.2119,1.2119,1.2119,1.2119,1.2119,1.2119,1.2119,1.2119,1.2119,1.2119,1.208,1.208,1.208,1.208,1.208,1.208,1.208,1.2031,1.2031,1.2031,1.1992,1.1992,1.1992,1.1992,1.1992,1.1953,1.1953,1.1953,1.1953,1.1953,1.1953,1.1953,1.1953,1.2119,1.2119,1.2119,1.2119,1.2119,1.208,1.208,1.208,1.2119,1.2119,1.2168,0,0,0,0,0,0,0,0,2.9805,3.0078,3.0078,3.0078,3.0078,3.0078,3.0078,3.0352,3.0352,3.0078,3.0078,2.9805,2.9805,3.0078,2.9805,2.9297,2.9551,2.9551,2.9297,2.9551,2.9297,2.9551,0,0,0,0,0,0,0,0,0,0,0,0,2.8535,2.7598,2.7598,2.7598,2.8066,2.8555,2.8555,2.8301,2.8555,2.8555,2.8301,2.8301,2.8555,2.8789,2.8789,2.8555,2.8555,2.8555,2.8555,2.8555,2.8555,2.8555,2.8555,2.8555,2.8555,2.8555,2.8301,2.8301,2.8301,2.8555,2.8301,2.8555,2.8555,2.8301,2.8066,2.8066,2.8066,2.8066,2.8066,2.8066,2.8066,2.8301,2.8301,2.7832,2.8066,2.8066,2.8066,2.7832,2.8066,2.8066,2.8066,2.8066,2.8066,2.8066,2.8066,2.7832,2.7617,2.7832,2.7832,2.7832,2.7832,2.7832,2.8066,2.8066,2.8066,2.7852,2.7852,2.7617,2.7383,2.7383,2.7852,2.8086,2.8086,2.832,2.8066,2.7852,2.8066,2.8066,2.7852,2.7852,2.7852,2.7617,2.7617,2.7617,2.7617,2.7852,2.7617,2.7617,2.7617,2.7617,2.7383,2.7383,2.7383,2.7168,2.7168,2.7168,0,0,0,0,0,0,0,0,0,0,0,0,0,0,0,0,0,0,0,0,0,0,0,0,0,0,0,0,0,0,0,0,0,0,0,0,0,0,0,0,0,0,0,0,0,0,0,0,0,0,0,0,0,0,0
1.0576,1.0576,1.0576,1.0615,1.0615,1.0615,1.0645,1.0645,1.0645,1.0684,1.0684,1.0684,1.0684,1.0684,1.0684,1.0684,1.0684,1.0713,1.0684,1.0684,1.0713,1.0713,1.0752,1.0752,1.0781,1.0781,1.0781,1.082,1.082,1.082,1.085,1.082,1.085,1.085,1.085,1.085,1.0889,1.0889,1.0889,1.0889,1.0889,1.0889,1.0928,1.0928,1.0928,1.0957,1.0928,1.0928,1.0928,1.0957,1.0957,1.0957,1.0996,1.0996,1.0996,1.0996,1.1035,1.1035,1.0996,1.1035,1.1035,1.1074,1.1035,1.1035,1.1074,1.1074,1.1074,1.1074,1.1074,1.1074,1.1074,1.1074,1.1074,1.1074,1.1074,1.1074,1.1104,1.1104,1.1104,1.1104,1.1143,1.1143,1.1143,1.1182,1.1182,1.1221,1.126,1.126,1.1299,1.1299,1.1299,1.1299,1.1299,1.1299,1.1299,1.1299,1.1299,1.1299,1.1299,1.1338,1.1338,1.1338,1.1338,1.1338,1.1338,1.1338,1.1338,1.1338,1.1338,1.1338,1.1338,1.1338,1.1377,1.1416,1.1455,1.1455,1.1455,1.1455,1.1494,1.1494,1.1494,1.1494,1.1494,1.1572,1.1572,1.1572,1.1533,1.1572,1.1572,1.1572,1.1572,1.1533,1.1572,1.1572,1.1572,1.1572,1.1611,1.1611,1.1611,1.1611,1.165,1.165,1.165,1.165,1.165,1.1689,1.1689,1.1689,1.1689,1.1689,1.1689,1.1689,1.1738,1.1777,1.1777,1.1816,1.1777,1.1816,1.1816,1.1816,1.1816,1.1816,1.1816,1.1855,1.1855,1.1855,1.1855,1.1855,1.1855,1.1855,1.1904,1.1904,1.1904,1.1904,1.1943,1.1943,1.1943,1.1943,1.1904,1.1943,1.1943,1.1943,1.1943,1.1943,1.1992,1.1992,1.1992,1.1992,1.1992,1.1992,1.1992,1.1992,1.1992,1.1992,1.1992,1.1992,1.1992,1.2031,1.2031,1.2031,1.1992,1.2031,1.2031,1.2031,1.208,1.208,1.208,1.208,1.208,1.2119,1.2119,1.2168,1.2168,1.2168,1.2168,1.2207,1.2168,1.2207,1.2119,1.2119,1.2119,1.2168,1.2168,1.2168,1.2168,1.2168,1.2207,1.2168,1.2207,1.2168,1.2168,1.2168,1.2119,1.2119,1.2119,1.2119,1.2168,1.2119,1.2119,1.2119,1.2119,1.208,1.208,1.208,1.208,1.208,1.208,1.208,1.2031,1.2031,1.2031,1.2031,1.2031,1.2031,1.2031,1.1992,1.1992,1.1992,1.1992,1.1992,1.1953,1.1953,1.1992,1.208,1.2119,1.2119,1.2119,1.2119,1.2119,1.2119,1.2119,1.2168,1.2168,1.2168,0,0,0,0,0,0,0,0,2.9805,3.0078,3.0078,3.0078,3.0352,3.0078,3.0078,3.0078,2.9805,2.9805,2.9805,2.9551,2.9805,2.9805,2.9551,2.9297,2.9551,2.9297,2.9297,2.9551,2.9297,2.9551,2.9297,2.9297,2.9297,2.9297,2.9043,2.9043,0,2.9043,0,0,0,2.8555,2.8066,2.7832,2.7832,2.7832,2.8066,2.8301,2.8301,2.8301,2.8301,2.8301,2.8301,2.8301,2.8555,2.8789,2.8555,2.8555,2.8301,2.8555,2.8555,2.8555,2.8555,2.8555,2.8301,2.8301,2.8301,2.8301,2.8301,2.8301,2.8301,2.8301,0,2.8789,2.8555,2.8555,2.7832,2.8066,2.8066,2.8066,2.8066,2.8066,2.8555,2.8555,2.8301,2.7832,2.8066,2.7832,2.8066,2.7832,2.7832,2.8066,2.8066,2.8066,2.8066,2.7832,2.7832,2.7832,2.7617,2.7852,2.7852,2.7617,2.7852,2.7852,2.7852,2.7852,2.7617,2.7617,2.7617,2.7617,2.7383,2.7617,2.7852,2.7852,2.8086,2.8086,2.8086,2.7852,2.8086,2.8086,2.7852,2.7852,2.7852,2.7617,2.7617,2.7617,2.7617,2.7852,2.7617,2.7617,2.7383,2.7617,2.7383,2.7383,2.7168,2.7168,2.7168,0,0,0,0,0,0,0,0,0,0,0,0,0,0,0,0,0,0,0,0,0,0,0,0,0,0,0,0,0,0,0,0,0,0,0,0,0,0,0,0,0,0,0,0,0,0,0,0,0,0,0,0,0,0,0,0
1.0576,1.0615,1.0615,1.0645,1.0645,1.0645,1.0645,1.0645,1.0684,1.0684,1.0684,1.0684,1.0684,1.0684,1.0684,1.0684,1.0713,1.0713,1.0713,1.0713,1.0752,1.0752,1.0752,1.0752,1.0781,1.0781,1.0781,1.082,1.082,1.085,1.085,1.085,1.085,1.085,1.085,1.0889,1.0928,1.0889,1.0928,1.0928,1.0928,1.0928,1.0928,1.0957,1.0957,1.0957,1.0957,1.0957,1.0957,1.0957,1.0996,1.0996,1.0996,1.0996,1.0996,1.0996,1.0996,1.1035,1.1035,1.1074,1.1074,1.1074,1.1074,1.1074,1.1074,1.1104,1.1104,1.1104,1.1104,1.1104,1.1074,1.1104,1.1074,1.1074,1.1074,1.1074,1.1104,1.1104,1.1104,1.1104,1.1143,1.1143,1.1143,1.1182,1.1182,1.1221,1.126,1.126,1.1299,1.1299,1.1299,1.1299,1.1299,1.1299,1.1299,1.1338,1.1338,1.1338,1.1338,1.1338,1.1377,1.1338,1.1338,1.1338,1.1338,1.1338,1.1338,1.1338,1.1338,1.1338,1.1377,1.1338,1.1416,1.1416,1.1455,1.1455,1.1455,1.1455,1.1494,1.1494,1.1494,1.1494,1.1533,1.1533,1.1572,1.1572,1.1533,1.1572,1.1572,1.1572,1.1572,1.1572,1.1572,1.1572,1.1611,1.1611,1.1611,1.1611,1.165,1.165,1.165,1.165,1.165,1.1689,1.165,1.1689,1.1689,1.1689,1.1738,1.1738,1.1738,1.1777,1.1777,1.1777,1.1777,1.1816,1.1816,1.1816,1.1816,1.1816,1.1816,1.1816,1.1816,1.1816,1.1855,1.1855,1.1855,1.1855,1.1855,1.1904,1.1904,1.1904,1.1904,1.1943,1.1943,1.1943,1.1992,1.1943,1.1943,1.1943,1.1943,1.1943,1.1992,1.1992,1.1992,1.1992,1.1992,1.1992,1.1992,1.1992,1.1992,1.1992,1.1992,1.1992,1.1992,1.2031,1.2031,1.2031,1.2031,1.2031,1.2031,1.2031,1.2031,1.2031,1.2119,1.2119,1.2119,1.2119,1.2119,1.2119,1.2168,1.2207,1.2207,1.2207,1.2207,1.2207,1.2207,1.2207,1.2168,1.2168,1.2207,1.2168,1.2207,1.2168,1.2168,1.2207,1.2207,1.2207,1.2207,1.2207,1.2207,1.2207,1.2168,1.2168,1.2168,1.2168,1.2168,1.2168,1.2119,1.2119,1.2119,1.208,1.208,1.208,1.208,1.208,1.208,1.208,1.208,1.208,1.2031,1.2031,1.2031,1.2031,1.2031,1.2031,1.2031,1.2031,1.1992,1.1992,1.1992,1.1992,1.208,1.2119,1.2119,1.2119,1.2119,1.2119,1.2119,1.2119,1.2119,1.2168,1.2168,0,0,0,0,0,0,0,0,0,2.9805,3.0078,3.0078,3.0078,3.0078,2.9805,2.9805,3.0078,2.9551,2.9551,2.9824,2.9551,2.9551,2.9551,2.9551,2.9043,2.9297,2.9297,2.9297,2.9551,2.9297,2.9551,2.9551,2.9297,2.9297,2.9043,2.8789,2.8789,2.8789,2.9043,2.9043,0,2.8301,2.8301,2.8301,2.8066,2.7832,2.7832,2.8301,2.8301,2.8555,2.8066,2.8301,2.8301,2.8301,2.8301,2.8555,2.8789,2.8555,2.8301,2.8301,2.8555,2.8555,2.8555,2.8555,2.8555,2.8555,2.8301,2.8301,2.8301,2.8301,2.8066,2.8066,2.8066,0,2.8789,2.8066,2.7832,2.7832,2.7832,2.7832,2.8066,2.8066,2.8066,2.8066,2.832,2.7832,2.7832,2.7832,2.7617,2.8066,2.7832,2.7832,2.8066,2.8066,2.8066,2.8066,2.7852,2.7852,2.7852,2.7617,2.7617,2.7617,2.7617,2.7852,2.7852,2.7617,2.7617,2.7617,2.7617,2.7617,2.7617,2.7617,2.7383,2.7617,2.7852,2.8086,2.8086,2.8086,2.7852,2.8086,2.8086,2.7852,2.7852,2.7852,2.7617,2.7617,2.7852,2.7852,2.7617,2.7383,2.7383,2.7383,2.7617,2.7383,2.7383,2.7168,2.7168,2.7168,0,0,0,0,0,0,0,0,0,0,0,0,0,0,0,0,0,0,0,0,0,0,0,0,0,0,0,0,0,0,0,0,0,0,0,0,0,0,0,0,0,0,0,0,0,0,0,0,0,0,0,0,0,0,0,0
1.0615,1.0615,1.0615,1.0645,1.0645,1.0645,1.0645,1.0684,1.0684,1.0684,1.0684,1.0684,1.0684,1.0713,1.0713,1.0713,1.0713,1.0713,1.0752,1.0752,1.0752,1.0752,1.0752,1.0781,1.0781,1.082,1.082,1.085,1.082,1.085,1.085,1.085,1.085,1.085,1.0889,1.0928,1.0928,1.0928,1.0928,1.0928,1.0957,1.0957,1.0957,1.0957,1.0957,1.0957,1.0957,1.0957,1.0957,1.0957,1.0996,1.0996,1.0996,1.1035,1.1035,1.1074,1.1074,1.1074,1.1074,1.1074,1.1074,1.1074,1.1074,1.1104,1.1074,1.1104,1.1104,1.1104,1.1104,1.1104,1.1104,1.1104,1.1074,1.1113,1.1113,1.1104,1.1104,1.1104,1.1143,1.1143,1.1143,1.1143,1.1182,1.1182,1.1221,1.1221,1.126,1.1299,1.1299,1.1299,1.1299,1.1299,1.1299,1.1299,1.1338,1.1338,1.1338,1.1338,1.1338,1.1338,1.1377,1.1377,1.1377,1.1338,1.1377,1.1377,1.1338,1.1338,1.1338,1.1377,1.1377,1.1416,1.1416,1.1455,1.1455,1.1455,1.1455,1.1455,1.1494,1.1494,1.1494,1.1494,1.1533,1.1533,1.1572,1.1572,1.1572,1.1572,1.1572,1.1572,1.1572,1.1611,1.1611,1.1611,1.1611,1.1611,1.165,1.165,1.165,1.165,1.165,1.165,1.1689,1.1689,1.1689,1.1738,1.1738,1.1738,1.1777,1.1777,1.1777,1.1777,1.1816,1.1816,1.1816,1.1777,1.1816,1.1816,1.1816,1.1816,1.1855,1.1816,1.1855,1.1855,1.1855,1.1865,1.1865,1.1865,1.1865,1.1904,1.1904,1.1904,1.1904,1.1943,1.1943,1.1943,1.1992,1.1943,1.1943,1.1992,1.1943,1.1992,1.1992,1.1992,1.1992,1.1992,1.1992,1.1992,1.2031,1.1992,1.1992,1.1992,1.2031,1.2031,1.2031,1.2031,1.2031,1.2031,1.208,1.208,1.2031,1.2031,1.208,1.2031,1.2119,1.2119,1.2119,1.2119,1.2168,1.2168,1.2168,1.2207,1.2207,1.2207,1.2207,1.2207,1.2207,1.2207,1.2168,1.2168,1.2207,1.2207,1.2207,1.2168,1.2168,1.2168,1.2207,1.2207,1.2207,1.2207,1.2207,1.2207,1.2207,1.2207,1.2207,1.2168,1.2168,1.2119,1.2168,1.2168,1.2119,1.2119,1.208,1.208,1.208,1.208,1.208,1.208,1.208,1.208,1.208,1.208,1.208,1.208,1.2041,1.2041,1.2041,1.2041,1.2041,1.2041,1.1992,1.1992,1.2041,1.2119,1.2119,1.2119,1.2119,1.2129,1.2129,1.2129,1.2129,1.2129,1.2129,0,0,0,0,0,0,0,0,2.9805,2.9805,3.0078,3.0078,2.9824,2.9824,2.9551,2.9551,2.9824,2.9551,2.9551,2.9824,2.9824,2.9824,2.9824,2.9551,2.9043,2.9043,2.9043,2.9043,2.9297,2.9043,2.9297,2.9297,2.9297,2.9043,2.9043,2.8789,2.8789,2.8789,2.8789,2.8789,2.8789,2.8066,2.8301,2.8301,2.8066,2.7832,2.7832,2.8066,2.8301,2.8301,2.8066,2.8301,2.8301,2.8301,2.8301,2.8301,2.8789,2.8555,2.8301,2.8555,2.8789,2.8555,2.8555,2.8555,2.8555,2.8301,2.8301,2.8301,2.8066,2.832,2.832,2.832,2.8066,2.8555,2.832,2.8066,2.7832,2.7832,2.7832,2.7852,2.7852,2.8066,2.8066,2.8066,2.8066,2.7852,2.7852,2.8066,2.7617,2.8066,2.7852,2.7852,2.8066,2.7852,2.7852,2.7852,2.7852,2.7852,2.7852,2.7617,2.7617,2.7617,2.7617,2.7852,2.7617,2.7617,2.7617,2.7617,2.7383,2.7383,2.7383,2.7383,2.7383,2.7617,2.7617,2.7852,2.7852,2.7852,2.7617,2.7852,2.8086,2.7852,2.7852,2.7617,2.7402,2.7402,2.7852,2.7852,2.7852,2.7617,2.7383,2.7402,2.7402,2.7402,2.7168,2.7168,2.7168,2.7168,0,0,0,0,0,0,0,0,0,0,0,0,0,0,0,0,0,0,0,0,0,0,0,0,0,0,0,0,0,0,0,0,0,0,0,0,0,0,0,0,0,0,0,0,0,0,0,0,0,0,0,0,0,0,0,0
1.0615,1.0645,1.0645,1.0645,1.0645,1.0645,1.0684,1.0684,1.0684,1.0684,1.0684,1.0684,1.0684,1.0713,1.0752,1.0752,1.0752,1.0752,1.0752,1.0752,1.0781,1.0781,1.0781,1.0781,1.0781,1.082,1.082,1.085,1.082,1.085,1.085,1.085,1.0859,1.0889,1.0928,1.0928,1.0957,1.0928,1.0957,1.0957,1.0957,1.0957,1.0957,1.0957,1.0957,1.0957,1.0957,1.0967,1.0967,1.0996,1.0996,1.1035,1.1035,1.1035,1.1074,1.1074,1.1104,1.1104,1.1074,1.1104,1.1104,1.1104,1.1104,1.1104,1.1074,1.1074,1.1113,1.1113,1.1113,1.1113,1.1113,1.1113,1.1113,1.1113,1.1113,1.1113,1.1113,1.1113,1.1143,1.1143,1.1143,1.1143,1.1182,1.1182,1.1221,1.1221,1.126,1.1299,1.1299,1.1299,1.1299,1.1299,1.1299,1.1299,1.1338,1.1338,1.1338,1.1338,1.1338,1.1377,1.1416,1.1416,1.1377,1.1377,1.1377,1.1377,1.1377,1.1377,1.1377,1.1416,1.1416,1.1416,1.1455,1.1455,1.1494,1.1494,1.1455,1.1494,1.1494,1.1494,1.1494,1.1533,1.1533,1.1533,1.1572,1.1572,1.1572,1.1611,1.1611,1.1611,1.1611,1.1611,1.1611,1.1611,1.1611,1.1611,1.165,1.165,1.165,1.165,1.1689,1.1689,1.1689,1.1699,1.1699,1.1738,1.1738,1.1777,1.1777,1.1777,1.1816,1.1816,1.1816,1.1816,1.1816,1.1816,1.1816,1.1816,1.1865,1.1865,1.1865,1.1865,1.1865,1.1865,1.1865,1.1865,1.1865,1.1865,1.1904,1.1943,1.1943,1.1943,1.1943,1.1943,1.1943,1.1992,1.1992,1.1992,1.1992,1.1992,1.1992,1.1992,1.1992,1.2031,1.2031,1.1992,1.1992,1.1992,1.2031,1.2031,1.1992,1.1992,1.2031,1.2031,1.2031,1.2031,1.2031,1.2031,1.208,1.208,1.208,1.2119,1.2119,1.208,1.2119,1.2119,1.2119,1.2119,1.2168,1.2168,1.2168,1.2207,1.2207,1.2207,1.2256,1.2256,1.2207,1.2207,1.2207,1.2207,1.2207,1.2207,1.2207,1.2207,1.2207,1.2207,1.2207,1.2207,1.2256,1.2207,1.2207,1.2256,1.2207,1.2207,1.2207,1.2207,1.2207,1.2207,1.2168,1.2168,1.2168,1.2119,1.2119,1.2119,1.208,1.208,1.208,1.208,1.208,1.208,1.208,1.208,1.208,1.208,1.208,1.2041,1.2041,1.2041,1.2041,1.2041,1.1992,1.1992,1.2041,1.2129,1.208,1.2129,1.2129,1.2129,1.2129,1.2129,1.2129,0,0,0,0,0,0,0,0,0,0,2.9824,2.9824,3.0078,3.0078,2.9824,2.9551,2.9551,2.9551,2.9551,2.9297,2.9297,2.9551,2.9297,2.9551,2.9551,2.9551,2.9297,2.9043,2.9043,2.9043,2.9043,2.9297,2.9297,2.9297,2.9297,2.9297,2.9043,2.8789,2.8789,2.8789,2.8789,2.9043,2.8789,2.8066,2.8066,2.8066,2.8066,2.8066,2.8066,2.8301,2.8301,2.8301,2.8066,2.8555,2.8301,2.8301,2.8301,2.8555,2.8789,2.8789,2.8555,2.8789,2.8789,2.8789,2.8789,2.8555,2.8555,2.832,2.832,2.832,2.832,2.832,2.832,2.8066,2.8066,2.8809,2.8066,2.8066,2.8066,2.7852,2.8086,2.8086,2.7852,2.8086,2.7852,2.8086,2.8086,2.7852,2.7852,2.7852,2.7852,2.7852,2.7617,2.7617,2.7383,2.7852,2.7852,2.7852,2.7852,2.7852,2.7617,2.7852,2.7852,2.7852,2.7617,2.7617,2.7617,2.7617,2.7617,2.7168,2.7383,2.7383,2.7383,2.7383,2.7168,2.7383,2.7168,2.7168,2.7168,2.7402,2.7402,2.7402,2.7617,2.7617,2.7617,2.7852,2.7852,2.8086,2.8086,2.7852,0,0,2.7852,2.7402,2.7402,2.7402,2.7168,2.7168,2.6953,2.7168,0,0,0,0,0,0,0,0,0,0,0,0,0,0,0,0,0,0,0,0,0,0,0,0,0,0,0,0,0,0,0,0,0,0,0,0,0,0,0,0,0,0,0,0,0,0,0,0,0,0,0,0,0,0,0,0
1.0645,1.0645,1.0645,1.0645,1.0645,1.0684,1.0684,1.0684,1.0684,1.0684,1.0684,1.0713,1.0713,1.0752,1.0752,1.0752,1.0752,1.0752,1.0752,1.0781,1.0781,1.0781,1.0781,1.0781,1.082,1.082,1.082,1.0859,1.082,1.0859,1.0859,1.0889,1.0889,1.0889,1.0957,1.0928,1.0957,1.0957,1.0957,1.0957,1.0967,1.0967,1.0967,1.0967,1.0967,1.0967,1.0967,1.0967,1.0996,1.0996,1.0996,1.1035,1.1074,1.1035,1.1074,1.1074,1.1104,1.1104,1.1113,1.1113,1.1113,1.1113,1.1113,1.1113,1.1113,1.1113,1.1113,1.1113,1.1113,1.1113,1.1113,1.1113,1.1113,1.1113,1.1113,1.1113,1.1113,1.1113,1.1143,1.1143,1.1182,1.1182,1.1221,1.1221,1.126,1.126,1.1299,1.1299,1.1299,1.1299,1.1299,1.1338,1.1338,1.1338,1.1338,1.1377,1.1377,1.1377,1.1377,1.1338,1.1416,1.1377,1.1416,1.1377,1.1377,1.1377,1.1377,1.1377,1.1416,1.1416,1.1416,1.1455,1.1455,1.1455,1.1494,1.1494,1.1494,1.1494,1.1533,1.1533,1.1494,1.1533,1.1533,1.1533,1.1572,1.1611,1.1572,1.1611,1.1611,1.1611,1.1611,1.1611,1.1611,1.1611,1.1611,1.1611,1.165,1.165,1.165,1.1699,1.1699,1.1699,1.1738,1.1738,1.1738,1.1777,1.1777,1.1777,1.1777,1.1816,1.1816,1.1816,1.1816,1.1816,1.1816,1.1865,1.1816,1.1816,1.1865,1.1865,1.1865,1.1865,1.1865,1.1865,1.1865,1.1865,1.1865,1.1904,1.1904,1.1943,1.1943,1.1943,1.1943,1.1943,1.1992,1.1992,1.1992,1.1992,1.1992,1.2031,1.2031,1.2031,1.2031,1.2031,1.2031,1.2031,1.1992,1.2031,1.2031,1.2031,1.2031,1.2031,1.2031,1.2031,1.2031,1.2031,1.2031,1.208,1.2119,1.2119,1.2119,1.2119,1.2119,1.208,1.2119,1.2119,1.2168,1.2119,1.2168,1.2207,1.2207,1.2207,1.2207,1.2207,1.2256,1.2256,1.2207,1.2207,1.2207,1.2207,1.2207,1.2207,1.2207,1.2207,1.2207,1.2207,1.2256,1.2256,1.2256,1.2256,1.2256,1.2256,1.2256,1.2207,1.2256,1.2207,1.2207,1.2207,1.2207,1.2217,1.2168,1.2168,1.2119,1.2119,1.2119,1.2129,1.2129,1.2119,1.208,1.208,1.2119,1.2119,1.208,1.208,1.208,1.208,1.208,1.2041,1.2041,1.2041,1.1992,1.1992,1.2041,1.208,1.208,1.2129,1.2129,1.2129,1.2168,1.2168,1.2168,0,0,0,0,0,0,0,0,2.9551,2.9551,2.9824,2.9824,3.0078,3.0078,2.9824,2.9551,2.9551,2.9551,2.9551,2.9043,2.9043,2.9297,2.9297,2.9551,2.9551,2.9551,2.9297,2.9297,2.9297,2.9043,2.9297,2.9297,2.9297,2.9297,2.9297,2.9043,2.9043,2.8789,2.8789,2.8555,2.8789,2.9297,2.8555,2.7832,2.7832,2.7832,2.7832,2.7832,2.7832,2.8066,2.8066,2.8301,2.8301,2.8301,2.8301,2.832,2.832,2.832,2.8789,2.8555,2.832,2.8555,2.8789,2.8789,2.8809,2.8555,2.832,2.8066,2.832,2.832,2.832,2.832,2.832,2.8086,2.8086,2.832,2.832,2.8086,2.8086,2.7852,2.8086,2.8086,2.8086,2.8086,2.7852,2.8086,2.7852,2.7617,2.7617,2.7852,2.7617,2.7617,2.7617,2.7383,2.7383,2.7617,2.7617,2.7852,2.7852,2.7852,2.7617,2.7617,2.7617,2.7617,2.7852,2.7617,2.7617,2.7617,2.7383,2.7168,2.7383,2.7383,2.6953,2.6953,2.6953,2.7168,2.7168,2.7168,2.6953,2.6953,2.7168,2.7402,2.7402,2.7617,2.7617,2.7852,2.7852,2.8086,0,0,0,0,0,0,0,2.7402,2.7168,2.7168,2.6953,2.7168,0,0,0,0,0,0,0,0,0,0,0,0,0,0,0,0,0,0,0,0,0,0,0,0,0,0,0,0,0,0,0,0,0,0,0,0,0,0,0,0,0,0,0,0,0,0,0,0,0,0,0,0,0,0,0,0
1.0645,1.0684,1.0645,1.0684,1.0684,1.0684,1.0684,1.0684,1.0684,1.0684,1.0713,1.0713,1.0713,1.0752,1.0752,1.0781,1.0752,1.0781,1.0781,1.0781,1.0781,1.082,1.082,1.082,1.082,1.082,1.082,1.0859,1.0859,1.0859,1.0889,1.0889,1.0889,1.0928,1.0967,1.0967,1.0967,1.0967,1.0967,1.0967,1.0967,1.0967,1.0967,1.0967,1.0967,1.0967,1.0967,1.0996,1.0996,1.0996,1.1035,1.1074,1.1074,1.1074,1.1074,1.1113,1.1113,1.1113,1.1113,1.1113,1.1113,1.1113,1.1113,1.1113,1.1074,1.1113,1.1113,1.1113,1.1113,1.1113,1.1143,1.1143,1.1143,1.1143,1.1143,1.1143,1.1143,1.1143,1.1143,1.1143,1.1182,1.1182,1.1221,1.126,1.126,1.126,1.1299,1.1299,1.1338,1.1338,1.1338,1.1338,1.1338,1.1338,1.1377,1.1377,1.1416,1.1416,1.1416,1.1416,1.1416,1.1416,1.1416,1.1416,1.1377,1.1377,1.1377,1.1416,1.1416,1.1416,1.1455,1.1455,1.1455,1.1494,1.1494,1.1533,1.1494,1.1494,1.1572,1.1572,1.1533,1.1572,1.1533,1.1572,1.1572,1.1611,1.1611,1.1611,1.1611,1.1611,1.1611,1.165,1.1611,1.1611,1.1611,1.165,1.165,1.1699,1.1699,1.1738,1.1738,1.1738,1.1738,1.1738,1.1738,1.1777,1.1816,1.1816,1.1816,1.1816,1.1816,1.1816,1.1816,1.1865,1.1816,1.1865,1.1865,1.1865,1.1865,1.1865,1.1865,1.1865,1.1865,1.1865,1.1865,1.1865,1.1904,1.1904,1.1943,1.1943,1.1992,1.1992,1.1992,1.1992,1.1992,1.1992,1.1992,1.1992,1.1992,1.2031,1.2031,1.2031,1.2031,1.2031,1.2031,1.2031,1.2031,1.2031,1.2031,1.2031,1.2031,1.2031,1.2031,1.2031,1.2031,1.2031,1.2031,1.208,1.2119,1.2119,1.2119,1.2119,1.2119,1.208,1.2119,1.2119,1.2168,1.2119,1.2168,1.2207,1.2207,1.2256,1.2256,1.2256,1.2256,1.2256,1.2256,1.2256,1.2207,1.2207,1.2207,1.2207,1.2207,1.2207,1.2207,1.2207,1.2256,1.2256,1.2256,1.2256,1.2256,1.2256,1.2256,1.2217,1.2256,1.2217,1.2217,1.2217,1.2217,1.2217,1.2217,1.2168,1.2168,1.2168,1.2129,1.2168,1.2168,1.2168,1.2129,1.2168,1.2168,1.2129,1.2129,1.208,1.208,1.208,1.208,1.2041,1.2041,1.2041,1.2041,1.1992,1.2041,1.208,1.2129,1.2129,1.2129,1.2129,1.2168,1.2168,0,0,0,0,0,0,0,0,0,2.9551,2.9551,2.9551,2.9551,2.9551,2.9551,2.9551,2.9297,2.9297,2.9551,2.9551,2.9297,2.9297,2.9297,2.9551,2.9551,2.9297,2.9297,2.9043,2.9043,2.9043,2.9043,2.9043,2.9297,2.9297,2.9551,2.9297,2.9297,2.9297,2.8789,2.8789,2.8789,2.8789,2.8789,2.8066,2.7832,2.7832,2.7832,2.7832,2.7832,2.8066,2.832,2.832,2.832,2.832,2.8555,2.832,2.832,2.832,2.8555,2.8809,2.8555,2.832,2.832,2.832,2.8555,2.8555,2.8555,2.832,2.8086,2.832,2.8809,2.8555,2.832,2.8086,2.8086,2.8086,2.8809,2.832,2.832,2.832,2.8086,2.8086,2.8086,2.8086,2.7852,2.7852,2.8086,2.7852,2.7852,2.7617,2.7617,2.7617,2.7617,2.7383,2.7383,2.7383,2.7383,2.7383,2.7617,2.7617,2.7383,2.7617,2.7617,2.7383,2.7617,2.7617,2.7617,2.7617,2.7617,2.7402,2.7168,2.7402,2.7168,2.7168,2.6953,2.6953,2.7168,2.7168,2.6953,2.6953,2.6953,2.6953,2.6953,2.7168,2.7402,2.7852,2.7852,2.7617,2.7852,0,0,0,0,0,0,0,2.7402,2.7168,2.6953,2.6953,0,0,0,0,0,0,0,0,0,0,0,0,0,0,0,0,0,0,0,0,0,0,0,0,0,0,0,0,0,0,0,0,0,0,0,0,0,0,0,0,0,0,0,0,0,0,0,0,0,0,0,0,0,0,0,0,0
1.0645,1.0684,1.0684,1.0684,1.0684,1.0684,1.0684,1.0713,1.0684,1.0713,1.0713,1.0752,1.0752,1.0752,1.0752,1.0752,1.0781,1.0781,1.0781,1.0781,1.0781,1.082,1.082,1.082,1.082,1.082,1.082,1.0859,1.0859,1.0889,1.0889,1.0889,1.0928,1.0967,1.0967,1.0967,1.0967,1.0967,1.0967,1.0967,1.0996,1.0996,1.0967,1.0967,1.0967,1.0996,1.0996,1.0996,1.0996,1.1035,1.1035,1.1074,1.1113,1.1113,1.1113,1.1113,1.1113,1.1113,1.1113,1.1113,1.1113,1.1113,1.1113,1.1113,1.1074,1.1113,1.1113,1.1113,1.1113,1.1143,1.1143,1.1143,1.1143,1.1143,1.1143,1.1143,1.1143,1.1152,1.1152,1.1182,1.1221,1.1221,1.126,1.126,1.1299,1.1299,1.1338,1.1338,1.1338,1.1338,1.1338,1.1338,1.1338,1.1377,1.1377,1.1416,1.1416,1.1416,1.1455,1.1455,1.1455,1.1455,1.1416,1.1416,1.1416,1.1416,1.1416,1.1416,1.1455,1.1455,1.1455,1.1494,1.1494,1.1494,1.1494,1.1533,1.1494,1.1533,1.1533,1.1572,1.1533,1.1572,1.1572,1.1572,1.1611,1.1611,1.1611,1.1611,1.1611,1.1611,1.1611,1.165,1.165,1.1611,1.165,1.165,1.1699,1.1699,1.1738,1.1738,1.1738,1.1738,1.1738,1.1738,1.1738,1.1816,1.1816,1.1816,1.1816,1.1865,1.1816,1.1816,1.1816,1.1865,1.1816,1.1865,1.1865,1.1865,1.1865,1.1865,1.1865,1.1865,1.1904,1.1865,1.1865,1.1865,1.1943,1.1943,1.1943,1.1992,1.1992,1.1992,1.1992,1.1992,1.1992,1.1992,1.2031,1.2031,1.2031,1.2031,1.2031,1.2031,1.208,1.2031,1.2031,1.2031,1.2031,1.2031,1.2031,1.2031,1.2031,1.2031,1.2031,1.208,1.2031,1.2031,1.208,1.2119,1.2119,1.2119,1.2168,1.2119,1.2119,1.2119,1.2119,1.2207,1.2168,1.2168,1.2168,1.2207,1.2256,1.2256,1.2256,1.2256,1.2305,1.2256,1.2256,1.2256,1.2256,1.2207,1.2207,1.2256,1.2207,1.2256,1.2217,1.2217,1.2256,1.2256,1.2256,1.2256,1.2256,1.2256,1.2256,1.2256,1.2256,1.2256,1.2256,1.2217,1.2217,1.2217,1.2217,1.2217,1.2217,1.2217,1.2168,1.2168,1.2168,1.2217,1.2217,1.2217,1.2168,1.2168,1.2168,1.2129,1.208,1.2129,1.208,1.208,1.2041,1.208,1.2041,1.2041,1.2041,1.208,1.208,1.2129,1.2168,1.2129,1.2217,1.2168,0,0,0,0,0,0,0,0,2.9297,2.9297,2.9551,2.9551,2.9297,2.9297,2.9297,2.9297,2.9297,2.9297,2.9297,2.9551,2.9043,2.9043,2.9297,2.9297,2.9297,2.9297,2.9297,2.9043,2.9043,2.9043,2.9043,2.9297,2.9297,2.9297,2.9297,2.9297,2.9297,2.9297,2.8789,2.8789,2.8789,2.8555,2.832,2.7832,2.7832,2.7832,2.7617,2.7617,2.7383,2.8066,2.8066,2.8066,2.8066,2.832,2.8555,2.832,2.8086,2.8086,2.8086,2.8555,2.832,2.832,2.832,2.832,2.832,2.832,2.8809,2.832,2.8086,2.832,2.832,2.8086,2.8086,2.8086,2.8086,2.8086,2.8809,2.8555,2.8555,2.8555,2.8086,2.8086,2.8086,2.7852,2.7383,2.7617,2.7852,2.7617,2.7383,2.7617,2.8086,2.8086,2.7617,2.7402,2.7402,2.7402,2.7617,2.7852,2.7402,2.7168,2.6953,2.7402,2.7402,2.7402,2.7617,2.7402,2.7617,2.7617,2.7617,2.7617,2.7168,2.7402,2.7402,2.7168,2.6953,2.6953,2.7168,2.7168,2.6953,2.6738,2.6523,2.6738,2.6953,2.6738,0,2.7617,2.7617,2.7617,0,0,0,0,0,0,0,0,0,0,2.6953,0,0,0,0,0,0,0,0,0,0,0,0,0,0,0,0,0,0,0,0,0,0,0,0,0,0,0,0,0,0,0,0,0,0,0,0,0,0,0,0,0,0,0,0,0,0,0,0,0,0,0,0,0,0,0,0,0,0
1.0645,1.0684,1.0684,1.0684,1.0684,1.0684,1.0684,1.0713,1.0713,1.0713,1.0684,1.0752,1.0752,1.0781,1.0752,1.0752,1.0781,1.0781,1.0781,1.082,1.082,1.082,1.082,1.082,1.082,1.0859,1.0859,1.0889,1.0889,1.0889,1.0928,1.0928,1.0928,1.0967,1.0967,1.0967,1.0967,1.0967,1.0967,1.0996,1.0996,1.0996,1.0996,1.0996,1.0996,1.0996,1.0996,1.0996,1.1035,1.1035,1.1074,1.1074,1.1113,1.1113,1.1113,1.1113,1.1113,1.1113,1.1113,1.1113,1.1143,1.1113,1.1113,1.1113,1.1113,1.1113,1.1143,1.1143,1.1143,1.1143,1.1182,1.1182,1.1152,1.1152,1.1182,1.1152,1.1182,1.1152,1.1152,1.1182,1.1221,1.1221,1.126,1.126,1.1299,1.1299,1.1338,1.1338,1.1338,1.1338,1.1377,1.1338,1.1377,1.1377,1.1377,1.1416,1.1416,1.1416,1.1455,1.1455,1.1455,1.1455,1.1455,1.1455,1.1455,1.1455,1.1455,1.1455,1.1455,1.1494,1.1494,1.1494,1.1494,1.1533,1.1533,1.1533,1.1533,1.1572,1.1572,1.1572,1.1572,1.1572,1.1611,1.1611,1.1611,1.1611,1.1611,1.1611,1.1611,1.1611,1.165,1.165,1.165,1.1611,1.165,1.165,1.1699,1.1699,1.1738,1.1738,1.1738,1.1738,1.1738,1.1777,1.1777,1.1816,1.1816,1.1816,1.1816,1.1816,1.1816,1.1865,1.1865,1.1865,1.1865,1.1865,1.1865,1.1865,1.1865,1.1865,1.1865,1.1865,1.1865,1.1865,1.1904,1.1904,1.1943,1.1943,1.1943,1.1992,1.1992,1.1992,1.2031,1.2031,1.2031,1.2031,1.2031,1.2031,1.2031,1.208,1.208,1.208,1.208,1.208,1.2031,1.208,1.2031,1.208,1.208,1.208,1.208,1.208,1.208,1.208,1.208,1.208,1.208,1.2119,1.2168,1.2168,1.2168,1.2168,1.2168,1.2168,1.2207,1.2207,1.2207,1.2207,1.2207,1.2207,1.2256,1.2256,1.2256,1.2256,1.2305,1.2305,1.2256,1.2256,1.2256,1.2256,1.2256,1.2256,1.2256,1.2256,1.2256,1.2256,1.2256,1.2305,1.2305,1.2305,1.2305,1.2256,1.2256,1.2256,1.2256,1.2217,1.2256,1.2217,1.2256,1.2217,1.2217,1.2217,1.2217,1.2217,1.2217,1.2217,1.2217,1.2217,1.2217,1.2217,1.2217,1.2217,1.2168,1.2168,1.2129,1.2129,1.2129,1.208,1.208,1.208,1.2041,1.2041,1.2041,1.208,1.208,1.2129,1.2129,1.2168,1.2217,1.2168,1.2129,0,0,0,0,0,0,0,2.9551,2.9297,2.9297,2.9297,2.9297,2.9297,2.9297,2.9297,2.9297,2.9297,2.9551,2.9551,2.9297,2.9297,2.9297,2.9297,2.9551,2.9551,2.9043,2.9043,2.9297,2.9297,2.9297,2.9297,2.9297,2.9297,2.9043,2.9043,2.9043,2.9043,2.8809,2.8809,2.8555,2.832,2.8066,2.7852,2.7852,2.7852,2.7852,2.832,2.8086,2.8555,2.8086,2.8086,2.832,2.832,2.832,2.832,2.8086,2.8086,2.8086,2.832,2.8086,2.8086,2.8555,2.8555,2.8555,2.832,2.8809,2.832,2.8086,2.8086,2.7852,2.8086,2.8086,2.8086,2.8086,2.832,2.8555,2.8555,2.8555,2.8555,2.8086,2.8086,2.7852,2.7383,2.7617,2.7617,2.7852,2.7617,2.7402,2.7852,2.7852,2.8086,2.7617,2.7168,2.7168,2.7402,2.7402,2.7402,2.7168,2.7168,2.6953,2.7168,2.7402,2.7402,2.7402,2.7402,2.7402,2.7617,2.7617,2.7402,2.7168,2.7168,2.7168,2.7168,2.6953,2.6953,2.7168,2.6953,2.6953,2.6738,2.6523,2.6328,2.6523,2.6523,0,0,2.7617,0,0,0,0,0,0,0,0,0,0,0,0,0,0,0,0,0,0,0,0,0,0,0,0,0,0,0,0,0,0,0,0,0,0,0,0,0,0,0,0,0,0,0,0,0,0,0,0,0,0,0,0,0,0,0,0,0,0,0,0,0,0,0,0,0,0,0,0,0,0
1.0645,1.0684,1.0684,1.0684,1.0684,1.0684,1.0713,1.0713,1.0713,1.0713,1.0713,1.0752,1.0781,1.0781,1.0781,1.0781,1.0781,1.0781,1.082,1.082,1.082,1.082,1.082,1.082,1.0859,1.0859,1.0859,1.0889,1.0889,1.0928,1.0967,1.0967,1.0967,1.0967,1.0967,1.0967,1.0967,1.0967,1.0967,1.0996,1.0996,1.0996,1.0996,1.0996,1.0996,1.0996,1.1035,1.1035,1.1035,1.1074,1.1074,1.1074,1.1113,1.1113,1.1113,1.1143,1.1113,1.1113,1.1113,1.1113,1.1143,1.1143,1.1113,1.1113,1.1113,1.1152,1.1152,1.1152,1.1152,1.1182,1.1221,1.1221,1.1182,1.1182,1.1182,1.1182,1.1182,1.1182,1.1182,1.1221,1.126,1.126,1.1299,1.1299,1.1299,1.1299,1.1338,1.1338,1.1377,1.1377,1.1377,1.1377,1.1416,1.1377,1.1416,1.1416,1.1416,1.1455,1.1455,1.1455,1.1455,1.1455,1.1455,1.1455,1.1494,1.1494,1.1494,1.1494,1.1455,1.1494,1.1494,1.1494,1.1494,1.1533,1.1533,1.1572,1.1572,1.1572,1.1572,1.1572,1.1572,1.1572,1.1611,1.1611,1.1611,1.1611,1.1611,1.1611,1.1611,1.165,1.165,1.165,1.166,1.166,1.166,1.166,1.1699,1.1699,1.1738,1.1738,1.1738,1.1738,1.1777,1.1777,1.1777,1.1816,1.1816,1.1816,1.1816,1.1865,1.1865,1.1865,1.1865,1.1865,1.1865,1.1865,1.1865,1.1865,1.1865,1.1865,1.1865,1.1865,1.1904,1.1865,1.1865,1.1904,1.1904,1.1953,1.1953,1.1992,1.1992,1.1992,1.1992,1.2031,1.2031,1.2031,1.2031,1.2031,1.2031,1.208,1.208,1.208,1.208,1.208,1.2119,1.2119,1.2119,1.2119,1.2119,1.2119,1.2119,1.2119,1.2119,1.2119,1.2119,1.2119,1.2119,1.2119,1.2168,1.2168,1.2168,1.2168,1.2168,1.2168,1.2207,1.2207,1.2207,1.2207,1.2207,1.2207,1.2256,1.2256,1.2256,1.2256,1.2305,1.2305,1.2256,1.2256,1.2256,1.2256,1.2256,1.2256,1.2256,1.2256,1.2256,1.2305,1.2305,1.2344,1.2344,1.2305,1.2305,1.2256,1.2256,1.2256,1.2256,1.2256,1.2256,1.2256,1.2256,1.2256,1.2256,1.2217,1.2217,1.2217,1.2217,1.2217,1.2217,1.2217,1.2217,1.2217,1.2217,1.2217,1.2217,1.2168,1.2168,1.2129,1.2129,1.208,1.208,1.208,1.2041,1.2041,1.2041,1.208,1.2129,1.2129,1.2168,1.2168,1.2256,1.2168,1.2168,1.2168,1.2129,0,0,0,0,0,0,2.9551,2.9297,2.9551,2.9297,2.9297,2.9297,2.9297,2.9297,2.9297,2.9297,2.9297,2.9043,2.9297,2.9043,2.9043,2.9297,2.9297,2.9043,2.9043,2.9297,2.8789,2.8809,2.9043,2.9297,2.957,2.8809,2.9043,2.9043,2.8809,2.8809,2.8809,2.8555,2.832,2.8086,2.8086,2.7852,2.7852,2.7617,2.8086,2.8555,2.8555,2.832,2.8086,2.832,2.832,2.832,2.8086,2.7852,2.7852,2.8086,2.832,2.8086,2.8086,2.832,2.832,2.8086,2.8086,2.832,2.8086,2.7852,2.7617,2.7617,2.7617,2.7617,2.7852,2.832,2.832,2.8555,2.8555,2.8555,2.8555,2.8086,2.7852,2.7852,2.7617,2.7617,2.7402,2.7168,2.7402,2.7168,2.7168,2.8086,2.8086,2.7617,2.7168,2.7402,2.7402,2.7402,2.7402,2.7168,2.7168,2.6953,2.6953,2.7168,2.7168,2.7168,2.7402,2.7402,2.7402,2.7402,2.7402,2.7168,2.7402,2.7402,2.7168,2.6738,2.6953,2.6953,2.6953,2.6953,2.6738,2.6328,2.6113,2.5918,0,0,0,0,0,0,0,0,0,0,0,0,0,0,0,0,0,0,0,0,0,0,0,0,0,0,0,0,0,0,0,0,0,0,0,0,0,0,0,0,0,0,0,0,0,0,0,0,0,0,0,0,0,0,0,0,0,0,0,0,0,0,0,0,0,0,0,0,0,0,0,0,0,0
1.0684,1.0684,1.0684,1.0684,1.0713,1.0713,1.0713,1.0752,1.0713,1.0752,1.0752,1.0791,1.0791,1.0791,1.0791,1.0791,1.082,1.082,1.082,1.082,1.082,1.082,1.0859,1.0859,1.0859,1.0859,1.0859,1.0889,1.0889,1.0928,1.0967,1.0967,1.0967,1.0967,1.0967,1.0967,1.0996,1.0996,1.0996,1.0996,1.0996,1.0996,1.0996,1.0996,1.0996,1.0996,1.1035,1.1074,1.1074,1.1074,1.1074,1.1113,1.1113,1.1143,1.1143,1.1152,1.1152,1.1152,1.1152,1.1152,1.1152,1.1152,1.1152,1.1113,1.1113,1.1152,1.1182,1.1182,1.1182,1.1182,1.1221,1.1221,1.1182,1.1182,1.1221,1.1221,1.1221,1.1221,1.126,1.126,1.126,1.126,1.126,1.1299,1.1299,1.1338,1.1377,1.1377,1.1377,1.1377,1.1416,1.1416,1.1416,1.1416,1.1416,1.1455,1.1455,1.1455,1.1455,1.1455,1.1455,1.1494,1.1455,1.1494,1.1494,1.1494,1.1494,1.1494,1.1494,1.1494,1.1494,1.1533,1.1533,1.1533,1.1572,1.1572,1.1572,1.1611,1.1572,1.1611,1.1611,1.1611,1.1611,1.1611,1.166,1.166,1.166,1.166,1.166,1.166,1.1699,1.166,1.166,1.166,1.166,1.1699,1.1699,1.1738,1.1738,1.1738,1.1777,1.1738,1.1777,1.1777,1.1777,1.1816,1.1816,1.1865,1.1816,1.1865,1.1865,1.1865,1.1865,1.1904,1.1904,1.1904,1.1904,1.1865,1.1865,1.1865,1.1865,1.1865,1.1904,1.1904,1.1904,1.1904,1.1953,1.1953,1.1992,1.1992,1.1992,1.1992,1.2031,1.2031,1.2031,1.2031,1.2031,1.208,1.2031,1.208,1.2119,1.2119,1.2119,1.2119,1.2119,1.2119,1.2119,1.2119,1.2119,1.2119,1.2168,1.2168,1.2168,1.2168,1.2119,1.2168,1.2119,1.2168,1.2168,1.2168,1.2168,1.2168,1.2168,1.2168,1.2217,1.2256,1.2217,1.2256,1.2256,1.2256,1.2256,1.2256,1.2305,1.2305,1.2305,1.2305,1.2305,1.2305,1.2256,1.2256,1.2256,1.2256,1.2256,1.2305,1.2305,1.2305,1.2344,1.2344,1.2344,1.2354,1.2305,1.2305,1.2305,1.2256,1.2256,1.2256,1.2256,1.2256,1.2256,1.2256,1.2256,1.2256,1.2217,1.2217,1.2217,1.2217,1.2217,1.2217,1.2217,1.2217,1.2217,1.2217,1.2217,1.2217,1.2168,1.2168,1.2129,1.2129,1.208,1.208,1.208,1.208,1.208,1.2129,1.2129,1.2217,1.2305,1.2266,1.2266,1.2217,1.2217,1.2168,1.2168,0,0,0,0,0,0,0,0,2.9043,2.9297,2.9297,2.9297,2.9043,2.9043,2.9043,2.9297,2.9297,2.9043,2.9043,2.9043,2.8809,2.8809,2.9297,2.9043,2.9043,2.9297,2.9043,2.9043,2.9043,2.9043,2.9297,2.8809,2.8809,2.8809,2.8809,2.8809,2.8555,2.832,2.8086,2.8086,2.8086,2.7852,2.7852,2.7852,2.7852,2.8555,2.8555,2.832,2.832,2.8555,2.832,2.832,2.832,2.8086,2.8086,2.8086,2.832,2.832,2.832,2.832,2.832,2.8086,2.8086,2.8086,2.7852,2.7852,2.7383,2.7402,2.7402,2.7617,2.7617,2.8086,2.832,2.8555,2.832,2.8555,2.8555,2.832,2.7852,2.7402,2.7617,2.7617,2.7617,2.7168,2.7402,2.7168,2.7168,2.832,2.8086,2.7402,2.7168,2.7402,2.7402,2.7402,2.7168,2.7168,2.7168,2.7168,2.6953,2.7168,2.6953,2.6953,2.7402,2.7402,2.7402,2.7168,2.7402,2.7168,2.7402,2.7168,2.6953,2.6738,2.6738,2.6953,2.6953,2.6738,2.6523,2.6328,2.6113,2.6328,0,0,0,0,0,0,0,0,0,0,0,0,0,0,0,0,0,0,0,0,0,0,0,0,0,0,0,0,0,0,0,0,0,0,0,0,0,0,0,0,0,0,0,0,0,0,0,0,0,0,0,0,0,0,0,0,0,0,0,0,0,0,0,0,0,0,0,0,0,0,0,0,0,0
1.0684,1.0684,1.0684,1.0684,1.0713,1.0713,1.0713,1.0752,1.0752,1.0791,1.0791,1.0791,1.082,1.082,1.082,1.082,1.0859,1.082,1.0859,1.0859,1.0859,1.0859,1.0859,1.0889,1.0859,1.0889,1.0889,1.0928,1.0928,1.0967,1.0967,1.0967,1.0967,1.0967,1.0967,1.0967,1.0967,1.0996,1.0967,1.0967,1.0996,1.0996,1.0996,1.0996,1.0996,1.1035,1.1035,1.1074,1.1113,1.1113,1.1113,1.1113,1.1113,1.1152,1.1152,1.1152,1.1152,1.1152,1.1152,1.1152,1.1152,1.1152,1.1152,1.1152,1.1152,1.1182,1.1182,1.1221,1.1182,1.1221,1.126,1.126,1.1221,1.1221,1.1221,1.1221,1.126,1.126,1.126,1.126,1.1299,1.1299,1.1299,1.1299,1.1299,1.1338,1.1377,1.1377,1.1377,1.1416,1.1416,1.1416,1.1416,1.1416,1.1455,1.1455,1.1455,1.1455,1.1455,1.1455,1.1494,1.1494,1.1494,1.1494,1.1494,1.1494,1.1533,1.1494,1.1533,1.1533,1.1533,1.1572,1.1572,1.1572,1.1572,1.1611,1.1572,1.1611,1.1611,1.1611,1.1611,1.1611,1.1611,1.166,1.166,1.166,1.166,1.166,1.166,1.166,1.166,1.166,1.166,1.1699,1.1699,1.1699,1.1699,1.1738,1.1777,1.1777,1.1777,1.1777,1.1777,1.1777,1.1777,1.1865,1.1826,1.1865,1.1865,1.1865,1.1865,1.1904,1.1904,1.1953,1.1953,1.1904,1.1904,1.1904,1.1904,1.1865,1.1865,1.1865,1.1904,1.1904,1.1904,1.1953,1.1953,1.1992,1.1992,1.1992,1.1992,1.1992,1.2031,1.2031,1.2031,1.2031,1.208,1.208,1.208,1.2119,1.2119,1.2119,1.2119,1.2119,1.2119,1.2119,1.2119,1.2119,1.2119,1.2168,1.2168,1.2168,1.2168,1.2168,1.2168,1.2168,1.2168,1.2168,1.2168,1.2217,1.2168,1.2217,1.2217,1.2217,1.2256,1.2256,1.2256,1.2256,1.2256,1.2256,1.2256,1.2305,1.2305,1.2305,1.2305,1.2344,1.2305,1.2305,1.2305,1.2305,1.2305,1.2305,1.2305,1.2305,1.2354,1.2305,1.2354,1.2354,1.2354,1.2354,1.2354,1.2305,1.2305,1.2256,1.2305,1.2256,1.2305,1.2256,1.2305,1.2256,1.2256,1.2256,1.2256,1.2256,1.2256,1.2217,1.2217,1.2217,1.2217,1.2217,1.2217,1.2217,1.2217,1.2217,1.2217,1.2168,1.2168,1.2129,1.208,1.208,1.208,1.208,1.208,1.2129,1.2168,1.2217,1.2266,1.2305,1.2305,1.2217,1.2217,1.2217,0,0,0,0,0,0,0,0,2.9297,2.9297,2.9297,2.9043,2.9297,2.9297,2.9043,2.9297,2.9297,2.9297,2.9043,2.9043,2.9043,2.8809,2.9043,2.9297,2.9043,2.957,2.957,2.957,2.9297,2.9297,2.9297,2.957,2.9297,2.8809,2.8809,2.8555,2.8555,2.8555,2.8555,2.832,2.832,2.7852,2.7852,2.7852,0,0,2.8809,2.8809,2.8555,2.8555,2.8555,2.8555,2.8555,2.8555,2.8086,2.7852,2.7852,2.8555,2.832,2.832,2.832,2.832,2.8086,2.8086,2.8086,2.7852,2.7852,2.7617,2.7617,2.7617,2.7617,2.8086,2.8086,2.832,2.8555,2.832,2.8555,2.7852,2.7852,2.7852,2.7617,2.7402,2.7617,2.7402,2.7168,2.7168,2.7168,2.7402,2.7617,2.7617,2.7617,2.7402,2.7402,2.7402,2.7402,2.7168,2.7168,2.7168,2.7168,2.6953,2.6953,2.6953,2.6738,2.6953,2.6953,2.6523,2.7168,2.7168,2.7188,2.7188,2.6953,2.6953,2.6738,2.6523,2.6953,2.6953,2.6738,2.6523,2.6113,2.6113,2.6328,0,0,0,0,0,0,0,0,0,0,0,0,0,0,0,0,0,0,0,0,0,0,0,0,0,0,0,0,0,0,0,0,0,0,0,0,0,0,0,0,0,0,0,0,0,0,0,0,0,0,0,0,0,0,0,0,0,0,0,0,0,0,0,0,0,0,0,0,0,0,0,0,0,0
1.0684,1.0684,1.0713,1.0684,1.0752,1.0752,1.0752,1.0752,1.0791,1.0791,1.0791,1.0791,1.082,1.082,1.082,1.082,1.0859,1.082,1.0859,1.0859,1.0859,1.0859,1.0889,1.0889,1.0889,1.0889,1.0889,1.0928,1.0967,1.0967,1.0967,1.0967,1.0967,1.0967,1.0967,1.0996,1.0996,1.0996,1.0967,1.1006,1.1006,1.1006,1.1006,1.1006,1.1006,1.1006,1.1035,1.1074,1.1074,1.1113,1.1113,1.1113,1.1113,1.1152,1.1152,1.1152,1.1152,1.1152,1.1152,1.1152,1.1152,1.1152,1.1152,1.1152,1.1152,1.1182,1.1221,1.1221,1.1221,1.1221,1.126,1.126,1.1221,1.1221,1.1221,1.1221,1.126,1.126,1.126,1.126,1.1299,1.1299,1.1299,1.1299,1.1338,1.1377,1.1416,1.1377,1.1416,1.1416,1.1416,1.1416,1.1455,1.1416,1.1455,1.1455,1.1455,1.1494,1.1494,1.1494,1.1494,1.1494,1.1494,1.1494,1.1494,1.1494,1.1533,1.1533,1.1572,1.1572,1.1533,1.1572,1.1572,1.1611,1.1572,1.1611,1.1611,1.1611,1.1611,1.1611,1.1611,1.1611,1.1621,1.166,1.166,1.166,1.166,1.166,1.1699,1.1699,1.1699,1.1699,1.1738,1.1699,1.1699,1.1738,1.1738,1.1738,1.1777,1.1777,1.1777,1.1777,1.1826,1.1826,1.1777,1.1865,1.1865,1.1865,1.1865,1.1904,1.1904,1.1904,1.1904,1.1953,1.1953,1.1953,1.1953,1.1904,1.1904,1.1865,1.1865,1.1865,1.1953,1.1953,1.1904,1.1953,1.1953,1.1992,1.1992,1.1992,1.1992,1.1992,1.2031,1.2031,1.2031,1.2041,1.208,1.2119,1.2119,1.2168,1.2168,1.2168,1.2168,1.2168,1.2168,1.2168,1.2168,1.2168,1.2168,1.2168,1.2168,1.2168,1.2168,1.2168,1.2168,1.2168,1.2217,1.2217,1.2217,1.2217,1.2217,1.2217,1.2217,1.2217,1.2256,1.2256,1.2256,1.2256,1.2256,1.2305,1.2256,1.2344,1.2344,1.2344,1.2344,1.2354,1.2354,1.2305,1.2305,1.2305,1.2305,1.2305,1.2305,1.2305,1.2354,1.2305,1.2354,1.2354,1.2354,1.2354,1.2354,1.2354,1.2305,1.2305,1.2305,1.2305,1.2305,1.2305,1.2305,1.2256,1.2305,1.2256,1.2256,1.2256,1.2256,1.2217,1.2256,1.2256,1.2217,1.2266,1.2217,1.2217,1.2217,1.2217,1.2217,1.2168,1.2168,1.2129,1.2129,1.208,1.208,1.208,1.209,1.2129,1.2168,1.2266,1.2266,1.2266,1.2305,1.2266,1.2266,1.2217,0,0,0,0,0,0,0,0,2.957,2.9297,2.9297,2.9297,2.9297,2.9297,2.9043,2.9297,2.9297,2.9297,2.9043,2.9297,2.9043,2.8809,2.8809,2.9297,2.9043,2.9297,2.957,2.957,2.9297,2.9043,2.9043,2.9316,2.9062,2.8555,2.8809,2.8555,2.8555,2.8555,2.8555,2.832,2.8086,2.7852,2.7852,0,0,0,2.8809,2.8809,2.8555,2.8555,2.832,2.8555,2.832,2.8555,2.8086,2.8086,2.8086,2.8555,2.832,2.832,2.832,2.832,2.8086,2.8086,2.7852,2.7852,2.7852,2.7617,2.7617,2.7617,2.7617,0,2.832,2.7617,2.8555,2.832,2.7852,2.7852,2.7617,2.7617,2.7617,2.7402,2.7402,2.7168,2.6953,2.6953,2.6953,2.6953,2.7402,2.7617,2.7617,2.7402,2.7402,2.7402,2.7402,2.7168,2.7168,2.7168,2.7168,2.6953,2.6953,2.7188,2.6738,2.6738,2.6738,2.6523,2.7188,2.6953,2.7188,2.6953,2.6953,2.6738,2.6738,2.6543,2.6738,2.6738,2.6543,2.6543,2.6328,2.6328,2.6328,0,0,0,0,0,0,0,0,0,0,0,0,0,0,0,0,0,0,0,0,0,0,0,0,0,0,0,0,0,0,0,0,0,0,0,0,0,0,0,0,0,0,0,0,0,0,0,0,0,0,0,0,0,0,0,0,0,0,0,0,0,0,0,0,0,0,0,0,0,0,0,0,0,0
1.0684,1.0684,1.0723,1.0723,1.0752,1.0752,1.0752,1.0791,1.0791,1.0791,1.082,1.082,1.082,1.082,1.082,1.082,1.0859,1.0859,1.0859,1.0889,1.0889,1.0889,1.0898,1.0898,1.0928,1.0928,1.0928,1.0967,1.0967,1.0967,1.0967,1.0967,1.0967,1.1006,1.1006,1.1006,1.1006,1.1006,1.1006,1.1006,1.1006,1.1006,1.1006,1.1006,1.1006,1.1035,1.1074,1.1074,1.1113,1.1113,1.1113,1.1113,1.1152,1.1152,1.1152,1.1152,1.1152,1.1152,1.1152,1.1152,1.1152,1.1152,1.1152,1.1152,1.1152,1.1191,1.1221,1.126,1.1221,1.126,1.126,1.126,1.126,1.126,1.126,1.126,1.126,1.126,1.126,1.1299,1.1299,1.1299,1.1299,1.1338,1.1338,1.1377,1.1416,1.1416,1.1416,1.1416,1.1416,1.1455,1.1455,1.1455,1.1455,1.1455,1.1494,1.1494,1.1533,1.1533,1.1533,1.1494,1.1494,1.1494,1.1494,1.1494,1.1533,1.1572,1.1572,1.1572,1.1572,1.1572,1.1611,1.1611,1.1611,1.1611,1.1621,1.1621,1.1621,1.1621,1.1621,1.166,1.166,1.166,1.166,1.1699,1.1699,1.1699,1.1738,1.1738,1.1738,1.1738,1.1738,1.1738,1.1738,1.1738,1.1777,1.1777,1.1777,1.1777,1.1826,1.1826,1.1826,1.1826,1.1826,1.1865,1.1865,1.1904,1.1865,1.1904,1.1904,1.1904,1.1953,1.1953,1.1953,1.1953,1.1953,1.1904,1.1904,1.1904,1.1904,1.1904,1.1904,1.1953,1.1953,1.1953,1.1953,1.1992,1.1992,1.1992,1.1992,1.1992,1.2041,1.2041,1.2041,1.208,1.208,1.2119,1.2119,1.2168,1.2168,1.2168,1.2168,1.2168,1.2168,1.2168,1.2168,1.2168,1.2168,1.2168,1.2168,1.2168,1.2168,1.2168,1.2168,1.2168,1.2168,1.2217,1.2217,1.2217,1.2256,1.2217,1.2217,1.2256,1.2305,1.2305,1.2305,1.2305,1.2305,1.2354,1.2305,1.2354,1.2354,1.2354,1.2354,1.2393,1.2354,1.2354,1.2354,1.2305,1.2305,1.2305,1.2305,1.2305,1.2354,1.2354,1.2354,1.2354,1.2354,1.2354,1.2354,1.2354,1.2354,1.2305,1.2305,1.2305,1.2354,1.2305,1.2305,1.2305,1.2305,1.2305,1.2266,1.2266,1.2266,1.2266,1.2266,1.2266,1.2266,1.2217,1.2217,1.2217,1.2217,1.2217,1.2217,1.2217,1.2168,1.2168,1.2178,1.2129,1.209,1.209,1.2129,1.2178,1.2266,1.2305,1.2266,1.2266,1.2266,1.2266,1.2266,1.2266,0,0,0,0,0,0,0,0,2.957,2.957,2.9297,2.9043,2.9297,2.9043,2.9043,2.9297,2.9316,2.9316,2.9062,2.9316,2.9062,2.9062,2.8809,2.8809,2.8809,2.9824,2.9824,2.9062,2.9316,2.9062,2.8809,2.9062,2.9062,2.8555,2.8809,2.8555,2.832,2.832,2.8555,2.8555,2.7852,2.7852,0,0,0,0,2.9062,2.8809,2.8555,2.832,2.832,2.832,2.832,2.8086,2.7852,2.7852,0,2.832,2.832,2.832,2.832,2.832,2.8086,2.8086,2.7852,2.7852,2.7852,2.7617,2.7617,2.7617,2.7617,2.8086,2.7617,2.8086,2.7852,2.7852,2.7852,2.7852,2.7852,2.7402,2.7402,2.7402,2.7617,2.6953,2.6738,2.6953,2.6953,2.6953,2.7402,2.7617,2.7617,2.7402,2.7402,2.7617,2.7188,2.7188,2.7188,2.7188,2.7188,2.6953,2.6953,2.7188,2.7188,2.6953,2.6543,2.6543,2.6953,2.6953,2.6953,2.6953,2.6953,2.6738,2.6543,2.6543,2.6738,2.6738,2.6738,0,0,0,0,0,0,0,0,0,0,0,0,0,0,0,0,0,0,0,0,0,0,0,0,0,0,0,0,0,0,0,0,0,0,0,0,0,0,0,0,0,0,0,0,0,0,0,0,0,0,0,0,0,0,0,0,0,0,0,0,0,0,0,0,0,0,0,0,0,0,0,0,0,0,0,0,0,0
1.0723,1.0723,1.0723,1.0752,1.0752,1.0752,1.0752,1.0791,1.0791,1.082,1.082,1.082,1.082,1.082,1.082,1.082,1.0859,1.0859,1.0859,1.0898,1.0898,1.0898,1.0928,1.0928,1.0928,1.0928,1.0928,1.0967,1.1006,1.0967,1.1006,1.1006,1.1006,1.1006,1.1006,1.1006,1.1006,1.1006,1.1006,1.1006,1.1006,1.1006,1.1006,1.1006,1.1035,1.1035,1.1074,1.1113,1.1113,1.1113,1.1113,1.1152,1.1152,1.1152,1.1152,1.1152,1.1152,1.1191,1.1191,1.1191,1.1191,1.1191,1.1191,1.1191,1.1152,1.1221,1.126,1.126,1.126,1.126,1.126,1.126,1.126,1.126,1.126,1.126,1.1299,1.1299,1.1299,1.1299,1.1338,1.1299,1.1338,1.1338,1.1377,1.1377,1.1416,1.1416,1.1416,1.1416,1.1416,1.1455,1.1455,1.1455,1.1494,1.1494,1.1533,1.1533,1.1533,1.1533,1.1533,1.1533,1.1533,1.1533,1.1533,1.1533,1.1572,1.1572,1.1621,1.1621,1.1572,1.1621,1.1621,1.1621,1.1621,1.1621,1.1621,1.1621,1.1621,1.166,1.166,1.166,1.1699,1.1699,1.1699,1.1738,1.1738,1.1738,1.1738,1.1738,1.1738,1.1777,1.1777,1.1738,1.1738,1.1777,1.1777,1.1777,1.1777,1.1777,1.1826,1.1826,1.1826,1.1826,1.1826,1.1865,1.1865,1.1904,1.1904,1.1904,1.1904,1.1953,1.1953,1.1992,1.1953,1.1953,1.1953,1.1953,1.1953,1.1953,1.1904,1.1953,1.1953,1.1953,1.1953,1.1992,1.1992,1.1992,1.1992,1.2041,1.1992,1.1992,1.2041,1.208,1.208,1.208,1.2129,1.2168,1.2129,1.2168,1.2168,1.2168,1.2168,1.2168,1.2168,1.2168,1.2168,1.2168,1.2168,1.2168,1.2168,1.2168,1.2217,1.2168,1.2168,1.2168,1.2168,1.2217,1.2217,1.2217,1.2256,1.2256,1.2256,1.2256,1.2305,1.2305,1.2354,1.2305,1.2305,1.2354,1.2354,1.2354,1.2354,1.2354,1.2354,1.2393,1.2393,1.2354,1.2354,1.2354,1.2354,1.2354,1.2354,1.2354,1.2354,1.2354,1.2354,1.2393,1.2393,1.2354,1.2393,1.2354,1.2393,1.2354,1.2354,1.2354,1.2354,1.2305,1.2305,1.2305,1.2354,1.2305,1.2305,1.2266,1.2266,1.2266,1.2266,1.2266,1.2266,1.2217,1.2266,1.2217,1.2217,1.2217,1.2217,1.2217,1.2217,1.2178,1.2178,1.2178,1.2178,1.2178,1.2178,1.2266,1.2305,1.2305,1.2305,1.2266,1.2305,1.2266,1.2266,1.2305,0,0,0,0,0,0,0,0,2.957,2.957,2.9316,2.9316,2.9316,2.9062,2.9316,2.9316,2.9062,2.9062,2.9062,2.9062,2.9062,2.8809,2.8809,2.8809,2.8809,2.8809,2.9062,2.9062,2.9062,2.9062,2.8809,2.8809,2.8555,2.8555,2.8809,2.8555,2.8555,2.832,2.8555,0,2.8086,0,0,0,0,0,0,2.9062,2.8555,2.8086,2.8086,2.8086,2.8086,2.7852,2.7852,2.7852,2.8086,2.8086,2.8086,2.7852,2.8086,2.8086,2.7852,2.7852,2.7617,2.7617,2.7617,2.7402,2.7617,2.7402,2.7402,2.7402,2.7402,2.7617,2.7617,2.8086,2.8086,2.7852,2.7402,2.7617,2.7402,2.7168,2.7168,2.6953,2.6953,2.6953,2.6953,2.6953,2.6953,2.7188,2.7188,2.6738,2.7402,2.7402,2.7188,2.7188,2.7188,2.7188,2.7188,2.6953,2.7188,2.7188,2.7188,2.6953,2.6543,2.7188,2.6953,2.6738,2.6738,2.6738,2.6738,2.6738,2.6543,2.6328,0,0,0,0,0,0,0,0,0,0,0,0,0,0,0,0,0,0,0,0,0,0,0,0,0,0,0,0,0,0,0,0,0,0,0,0,0,0,0,0,0,0,0,0,0,0,0,0,0,0,0,0,0,0,0,0,0,0,0,0,0,0,0,0,0,0,0,0,0,0,0,0,0,0,0,0,0,0,0,0,0
1.0723,1.0752,1.0752,1.0752,1.0752,1.0752,1.0791,1.0791,1.082,1.082,1.082,1.082,1.082,1.0859,1.082,1.0859,1.0898,1.0859,1.0898,1.0898,1.0928,1.0898,1.0928,1.0928,1.0928,1.0967,1.0928,1.1006,1.1006,1.1006,1.1006,1.1006,1.1006,1.1006,1.1006,1.1006,1.1006,1.1006,1.1006,1.1006,1.1035,1.1006,1.1006,1.1035,1.1035,1.1074,1.1074,1.1113,1.1113,1.1152,1.1152,1.1152,1.1152,1.1152,1.1152,1.1152,1.1191,1.1191,1.1221,1.1191,1.1191,1.1221,1.1191,1.1191,1.1191,1.126,1.126,1.126,1.126,1.126,1.126,1.126,1.126,1.126,1.126,1.1299,1.1299,1.1299,1.1299,1.1299,1.1299,1.1338,1.1338,1.1338,1.1377,1.1377,1.1416,1.1416,1.1455,1.1455,1.1455,1.1455,1.1455,1.1494,1.1494,1.1533,1.1572,1.1533,1.1533,1.1533,1.1533,1.1533,1.1533,1.1533,1.1533,1.1533,1.1572,1.1572,1.1621,1.1621,1.1621,1.1621,1.166,1.166,1.1621,1.1621,1.1621,1.166,1.166,1.166,1.166,1.1699,1.1699,1.1738,1.1738,1.1738,1.1738,1.1738,1.1738,1.1738,1.1738,1.1777,1.1777,1.1738,1.1738,1.1777,1.1777,1.1777,1.1826,1.1826,1.1826,1.1826,1.1826,1.1826,1.1826,1.1904,1.1904,1.1904,1.1904,1.1953,1.1953,1.1953,1.1992,1.1992,1.1992,1.1953,1.1992,1.1992,1.1953,1.1953,1.1953,1.1953,1.1953,1.1992,1.1992,1.1992,1.1992,1.2041,1.2041,1.2041,1.2041,1.2041,1.208,1.208,1.208,1.208,1.2129,1.2129,1.2168,1.2168,1.2168,1.2168,1.2168,1.2168,1.2168,1.2168,1.2168,1.2168,1.2217,1.2168,1.2217,1.2217,1.2217,1.2217,1.2217,1.2217,1.2217,1.2217,1.2217,1.2217,1.2305,1.2256,1.2256,1.2256,1.2354,1.2354,1.2354,1.2354,1.2354,1.2393,1.2393,1.2393,1.2354,1.2354,1.2354,1.2393,1.2393,1.2393,1.2393,1.2393,1.2393,1.2393,1.2393,1.2354,1.2393,1.2393,1.2393,1.2393,1.2393,1.2393,1.2393,1.2393,1.2393,1.2393,1.2393,1.2393,1.2393,1.2354,1.2354,1.2354,1.2354,1.2354,1.2305,1.2305,1.2305,1.2266,1.2266,1.2266,1.2266,1.2266,1.2266,1.2266,1.2266,1.2217,1.2217,1.2217,1.2217,1.2217,1.2217,1.2217,1.2178,1.2178,1.2217,1.2305,1.2305,1.2305,1.2305,1.2305,1.2305,1.2305,1.2266,1.2266,0,0,0,0,0,0,0,0,2.957,2.957,2.9316,2.9062,2.8809,2.8809,2.9062,2.8809,2.9062,2.9062,2.8809,2.9062,2.8809,2.8809,2.8809,2.8809,2.8809,2.9062,2.9062,2.9062,2.9062,2.9062,2.8809,2.8555,2.8555,2.8555,2.8809,2.8555,2.8555,2.832,2.832,2.832,0,0,0,0,0,0,0,2.8809,2.8555,2.8086,2.8086,2.7852,2.7852,2.7852,2.7852,2.7617,2.8086,2.832,2.7852,2.7617,2.7617,2.7617,2.7617,2.7617,2.7168,2.7168,2.7402,2.7402,2.7617,2.7617,2.7617,2.7852,2.7617,2.7617,2.7188,2.7852,2.8086,2.7852,2.7188,2.7617,2.7637,2.7852,2.7188,2.7188,2.6953,2.6953,2.6953,2.6738,2.6738,2.6543,2.6543,2.6738,2.7188,2.6953,2.7188,2.7188,2.7188,2.6953,2.6953,2.6953,2.7188,2.6953,2.6953,2.6973,2.6543,2.6973,2.6758,2.6543,2.6543,2.6758,2.6328,2.6758,2.6543,2.6543,0,0,0,0,0,0,0,0,0,0,0,0,0,0,0,0,0,0,2.3398,2.3398,2.3398,2.3398,2.3398,0,0,0,0,0,0,0,0,0,0,0,0,0,0,0,0,0,0,0,0,0,0,0,0,0,0,0,0,0,0,0,0,0,0,0,0,0,0,0,0,0,0,0,0,0,0,0,0,0,0,0,0,0,0,0,0,0,0
1.0752,1.0752,1.0752,1.0791,1.0791,1.0791,1.0791,1.0791,1.082,1.082,1.082,1.082,1.082,1.0859,1.082,1.0859,1.0898,1.0898,1.0898,1.0928,1.0928,1.0928,1.0928,1.0928,1.0928,1.0967,1.0967,1.1006,1.1006,1.1006,1.1006,1.1006,1.1006,1.1035,1.1035,1.1035,1.1006,1.1035,1.1035,1.1035,1.1035,1.1035,1.1035,1.1035,1.1035,1.1074,1.1074,1.1113,1.1152,1.1152,1.1152,1.1152,1.1191,1.1191,1.1191,1.1191,1.1221,1.1221,1.1221,1.1221,1.1221,1.1221,1.1221,1.126,1.126,1.126,1.126,1.1299,1.126,1.126,1.126,1.1299,1.1299,1.126,1.1299,1.1299,1.1299,1.1299,1.1299,1.1299,1.1338,1.1338,1.1338,1.1416,1.1377,1.1377,1.1416,1.1455,1.1455,1.1455,1.1494,1.1494,1.1494,1.1494,1.1533,1.1533,1.1533,1.1572,1.1572,1.1572,1.1572,1.1533,1.1572,1.1572,1.1572,1.1572,1.1572,1.1621,1.1621,1.1621,1.1621,1.1621,1.166,1.166,1.166,1.1621,1.1621,1.166,1.166,1.166,1.1699,1.1738,1.1738,1.1738,1.1738,1.1738,1.1738,1.1738,1.1738,1.1738,1.1738,1.1738,1.1738,1.1738,1.1738,1.1777,1.1787,1.1787,1.1826,1.1826,1.1826,1.1865,1.1865,1.1865,1.1865,1.1904,1.1904,1.1953,1.1953,1.1953,1.1953,1.1992,1.1992,1.1992,1.1992,1.1992,1.1992,1.1992,1.1992,1.1953,1.1953,1.1953,1.1992,1.1992,1.1992,1.1992,1.1992,1.2041,1.2041,1.2041,1.2041,1.208,1.208,1.208,1.208,1.2129,1.2129,1.2168,1.2168,1.2168,1.2168,1.2168,1.2168,1.2168,1.2168,1.2168,1.2217,1.2217,1.2217,1.2217,1.2217,1.2217,1.2217,1.2217,1.2217,1.2217,1.2217,1.2217,1.2217,1.2256,1.2305,1.2256,1.2256,1.2305,1.2354,1.2354,1.2354,1.2393,1.2354,1.2393,1.2393,1.2393,1.2393,1.2393,1.2393,1.2393,1.2393,1.2393,1.2393,1.2393,1.2393,1.2393,1.2393,1.2393,1.2393,1.2393,1.2393,1.2393,1.2393,1.2393,1.2393,1.2393,1.2402,1.2402,1.2402,1.2402,1.2402,1.2402,1.2402,1.2354,1.2402,1.2354,1.2354,1.2305,1.2305,1.2305,1.2305,1.2266,1.2266,1.2266,1.2266,1.2266,1.2266,1.2266,1.2217,1.2266,1.2217,1.2217,1.2217,1.2217,1.2217,1.2178,1.2217,1.2305,1.2305,1.2305,1.2305,1.2305,1.2305,1.2305,1.2266,0,0,0,0,0,0,0,0,0,2.9062,2.9062,2.8809,2.8809,2.8555,2.8809,2.8809,2.8809,2.9062,2.8809,2.8809,2.9062,2.8809,2.8809,2.8809,2.8809,2.957,2.9062,2.9062,2.9062,2.9062,2.8809,2.8555,2.8555,2.8086,2.832,2.8555,2.8555,2.832,2.832,2.8086,0,0,0,0,0,0,0,0,0,2.832,2.8086,2.7852,2.7852,2.7852,2.7852,2.7617,2.7617,2.8086,2.832,2.8086,2.7617,2.7617,2.7617,2.7402,2.7402,2.6953,2.7188,2.7188,2.7402,2.7617,2.7617,2.7617,2.7852,2.7637,2.7637,2.7402,2.7402,2.7402,2.7852,2.7188,2.7188,2.7188,2.7188,2.6953,2.6953,2.6738,2.6738,2.6738,2.6738,2.6738,2.6738,2.6738,2.6953,2.7188,2.6953,2.7188,2.7188,2.6973,2.6973,2.6973,2.6543,2.6543,2.6758,2.6758,2.6328,2.6328,2.6328,2.6328,2.6543,2.6328,0,2.6758,2.6758,2.6543,2.6543,0,0,0,0,0,0,0,0,0,0,0,0,0,0,0,0,0,0,2.3555,2.3555,2.3555,2.3555,2.3555,0,0,0,0,0,0,0,0,0,0,0,0,0,0,0,0,0,0,0,0,0,0,0,0,0,0,0,0,0,0,0,0,0,0,0,0,0,0,0,0,0,0,0,0,0,0,0,0,0,0,0,0,0,0,0,0,0,0
1.0791,1.0791,1.0791,1.0791,1.0791,1.0791,1.0791,1.0791,1.082,1.082,1.082,1.082,1.0859,1.0859,1.082,1.0859,1.0898,1.0898,1.0898,1.0928,1.0928,1.0928,1.0928,1.0928,1.0967,1.0967,1.0967,1.1006,1.1006,1.1006,1.1035,1.1006,1.1035,1.1035,1.1035,1.1035,1.1035,1.1035,1.1035,1.1035,1.1035,1.1045,1.1045,1.1045,1.1074,1.1074,1.1074,1.1113,1.1152,1.1152,1.1152,1.1152,1.1191,1.1191,1.1191,1.123,1.123,1.126,1.126,1.126,1.126,1.126,1.126,1.126,1.126,1.126,1.1299,1.1299,1.126,1.1299,1.1299,1.1338,1.1299,1.1299,1.1299,1.1299,1.1338,1.1299,1.1338,1.1338,1.1377,1.1377,1.1377,1.1377,1.1377,1.1377,1.1455,1.1455,1.1455,1.1494,1.1494,1.1494,1.1494,1.1494,1.1533,1.1533,1.1572,1.1572,1.1572,1.1621,1.1572,1.1572,1.1582,1.1582,1.1582,1.1582,1.1582,1.1621,1.1621,1.1621,1.1621,1.1621,1.166,1.166,1.166,1.166,1.166,1.166,1.1699,1.1699,1.1738,1.1738,1.1738,1.1738,1.1738,1.1738,1.1738,1.1738,1.1738,1.1738,1.1787,1.1738,1.1738,1.1738,1.1787,1.1787,1.1787,1.1826,1.1826,1.1865,1.1865,1.1865,1.1865,1.1904,1.1904,1.1953,1.1953,1.1953,1.1992,1.1992,1.1992,1.1992,1.1992,1.1992,1.1992,1.1992,1.1992,1.1992,1.1992,1.1992,1.1992,1.1992,1.1992,1.1992,1.1992,1.2041,1.2041,1.2041,1.2041,1.208,1.208,1.208,1.2129,1.2129,1.2129,1.2129,1.2168,1.2168,1.2168,1.2168,1.2168,1.2168,1.2168,1.2168,1.2168,1.2168,1.2217,1.2217,1.2217,1.2217,1.2217,1.2217,1.2217,1.2217,1.2217,1.2217,1.2217,1.2217,1.2256,1.2305,1.2305,1.2305,1.2305,1.2305,1.2393,1.2393,1.2393,1.2393,1.2393,1.2393,1.2393,1.2393,1.2393,1.2393,1.2393,1.2393,1.2393,1.2402,1.2402,1.2402,1.2402,1.2402,1.2402,1.2402,1.2402,1.2441,1.2441,1.2441,1.2402,1.2402,1.2402,1.2402,1.2402,1.2402,1.2402,1.2402,1.2402,1.2402,1.2402,1.2402,1.2402,1.2402,1.2354,1.2354,1.2354,1.2354,1.2354,1.2305,1.2305,1.2266,1.2305,1.2266,1.2266,1.2266,1.2266,1.2266,1.2217,1.2217,1.2217,1.2217,1.2217,1.2178,1.2178,1.2266,1.2305,1.2305,1.2305,1.2305,1.2354,1.2314,1.2314,0,0,0,0,0,0,0,0,2.9062,2.9062,2.8809,2.8809,2.8555,2.832,2.8555,2.8555,2.8555,2.8809,2.8809,2.8809,2.8809,2.8809,2.8809,2.8809,2.8809,2.9062,2.9062,2.9062,2.9062,2.8809,2.8809,2.8555,2.8574,2.8086,2.832,2.8574,2.8574,2.8086,2.7852,2.7852,0,0,0,0,0,0,0,0,0,2.832,2.7852,2.7852,2.7617,2.7617,2.7617,2.7617,2.7617,2.7852,2.832,2.8086,2.7617,2.7402,2.7402,2.7402,2.7402,2.7402,2.7188,2.7637,2.7637,2.7637,2.7637,2.7852,2.7852,2.7852,2.8086,2.7852,2.7402,2.7852,2.7852,2.7402,2.7402,2.7402,2.7188,2.6973,2.6973,2.6758,2.6758,2.6758,2.6758,2.6758,2.6758,2.6543,2.6758,2.6758,2.6543,2.6543,2.6328,2.6328,2.6543,2.6543,2.6328,2.6543,2.6543,2.6758,2.6758,2.6328,2.6973,2.6758,2.6543,2.6328,2.6758,2.6758,2.6758,2.6543,2.6328,0,0,0,0,0,0,0,0,0,0,0,0,0,0,0,2.4062,2.3887,2.3887,2.3555,2.3555,2.3555,2.3555,2.3555,0,0,0,0,0,0,0,0,0,0,0,0,0,0,0,0,0,0,0,0,0,0,0,0,0,0,0,0,0,0,0,0,0,0,0,0,0,0,0,0,0,0,0,0,0,0,0,0,0,0,0,0,0,0,0,0,0,0
1.0791,1.0791,1.0791,1.0791,1.0791,1.0791,1.0791,1.082,1.082,1.082,1.082,1.0859,1.0898,1.0898,1.0898,1.0898,1.0898,1.0928,1.0928,1.0928,1.0928,1.0928,1.0967,1.0967,1.0967,1.0967,1.0967,1.1006,1.1006,1.1035,1.1035,1.1035,1.1035,1.1045,1.1045,1.1045,1.1045,1.1045,1.1045,1.1045,1.1045,1.1045,1.1045,1.1074,1.1074,1.1113,1.1113,1.1113,1.1152,1.1152,1.1152,1.1191,1.1191,1.123,1.123,1.123,1.126,1.126,1.126,1.126,1.1299,1.1299,1.126,1.126,1.126,1.1299,1.1299,1.1338,1.1338,1.1338,1.1338,1.1377,1.1377,1.1377,1.1338,1.1338,1.1338,1.1338,1.1377,1.1377,1.1377,1.1377,1.1377,1.1377,1.1416,1.1416,1.1455,1.1494,1.1494,1.1494,1.1494,1.1494,1.1494,1.1494,1.1533,1.1533,1.1582,1.1621,1.1621,1.1621,1.1621,1.1621,1.1621,1.1621,1.1621,1.1621,1.166,1.1621,1.166,1.166,1.166,1.166,1.166,1.166,1.166,1.166,1.166,1.1699,1.1699,1.1738,1.1738,1.1787,1.1787,1.1787,1.1738,1.1787,1.1787,1.1738,1.1787,1.1738,1.1787,1.1787,1.1787,1.1787,1.1787,1.1826,1.1826,1.1826,1.1865,1.1865,1.1865,1.1865,1.1865,1.1914,1.1914,1.1953,1.1953,1.1992,1.1992,1.1992,1.1992,1.1992,1.1992,1.1992,1.1992,1.1992,1.1992,1.1992,1.1992,1.1992,1.1992,1.1992,1.1992,1.2041,1.2041,1.208,1.208,1.208,1.208,1.208,1.2129,1.2129,1.2129,1.2129,1.2129,1.2168,1.2168,1.2168,1.2168,1.2217,1.2168,1.2168,1.2168,1.2168,1.2168,1.2217,1.2217,1.2217,1.2217,1.2217,1.2217,1.2256,1.2217,1.2217,1.2217,1.2256,1.2256,1.2256,1.2256,1.2305,1.2305,1.2305,1.2305,1.2305,1.2393,1.2393,1.2393,1.2393,1.2393,1.2393,1.2402,1.2402,1.2402,1.2402,1.2402,1.2402,1.2402,1.2402,1.2402,1.2441,1.2441,1.2441,1.2441,1.2441,1.2441,1.2441,1.2441,1.2441,1.2441,1.2402,1.2441,1.2441,1.2441,1.2441,1.2441,1.2402,1.2402,1.2402,1.2402,1.2402,1.2402,1.2402,1.2402,1.2354,1.2402,1.2354,1.2354,1.2305,1.2305,1.2305,1.2305,1.2266,1.2305,1.2266,1.2266,1.2266,1.2266,1.2266,1.2266,1.2217,1.2217,1.2217,1.2217,1.2266,1.2314,1.2314,1.2314,1.2314,1.2354,1.2314,1.2314,1.2314,0,0,0,0,0,0,0,2.9316,2.9062,2.8809,2.8809,2.8809,2.832,2.832,2.832,2.8555,2.8809,2.8809,2.8555,2.8809,2.8809,2.8555,2.8555,2.8555,2.8809,2.8809,2.8574,2.8809,2.8809,2.8809,2.8574,2.832,2.8086,2.8086,2.832,2.8086,2.8086,2.8086,2.7852,2.7852,2.7852,0,0,2.8574,2.8809,0,0,2.8574,2.832,2.7617,2.7617,2.7617,2.7617,2.7402,0,2.7617,2.7852,2.8086,2.8086,2.7637,2.7637,2.7637,2.7402,2.7402,2.7188,2.6953,2.7188,2.7402,2.7402,2.7402,2.7637,2.7637,2.7637,2.7637,2.7637,2.7402,2.7852,2.8086,2.7402,2.7402,2.7402,2.7188,2.6973,2.6973,2.6758,2.6758,2.6758,2.6758,2.6758,2.6543,2.6543,2.6758,2.6328,2.6328,2.6133,2.6328,2.6328,2.6328,2.6328,2.6328,2.6543,2.6543,2.6543,2.6973,2.6973,2.6973,2.6758,2.6758,2.6543,2.6758,2.6758,2.6758,2.6543,0,0,0,0,0,0,0,0,0,0,0,0,0,0,0,0,0,0,2.3555,2.3555,2.3555,2.3555,2.3555,0,0,0,0,0,0,0,0,0,0,0,0,0,0,0,0,0,0,0,0,0,0,0,0,0,0,0,0,0,0,0,0,0,0,0,0,0,0,0,0,0,0,0,0,0,0,0,0,0,0,0,0,0,0,0,0,0,0,0
1.0791,1.0791,1.0791,1.0791,1.082,1.082,1.082,1.082,1.082,1.082,1.0859,1.0859,1.0859,1.083,1.0898,1.0898,1.0928,1.0928,1.0928,1.0928,1.0928,1.0928,1.0967,1.0967,1.0967,1.0967,1.0967,1.1006,1.1006,1.1074,1.1045,1.1045,1.1074,1.1045,1.1074,1.1045,1.1045,1.1045,1.1074,1.1045,1.1074,1.1074,1.1074,1.1074,1.1113,1.1113,1.1113,1.1152,1.1152,1.1152,1.1152,1.1191,1.123,1.123,1.123,1.123,1.126,1.126,1.126,1.127,1.1299,1.1299,1.1299,1.1299,1.1299,1.1299,1.1338,1.1338,1.1338,1.1377,1.1377,1.1377,1.1377,1.1377,1.1377,1.1338,1.1377,1.1338,1.1377,1.1377,1.1377,1.1377,1.1416,1.1416,1.1416,1.1416,1.1455,1.1494,1.1494,1.1494,1.1494,1.1494,1.1494,1.1494,1.1533,1.1533,1.1582,1.1582,1.1621,1.1621,1.1621,1.1621,1.1621,1.1621,1.1621,1.166,1.166,1.166,1.166,1.166,1.166,1.166,1.166,1.166,1.166,1.1699,1.166,1.1699,1.1738,1.1787,1.1787,1.1787,1.1787,1.1787,1.1787,1.1787,1.1787,1.1787,1.1787,1.1738,1.1787,1.1787,1.1787,1.1787,1.1826,1.1826,1.1826,1.1865,1.1865,1.1865,1.1865,1.1865,1.1914,1.1914,1.1914,1.1953,1.1953,1.1992,1.1992,1.1992,1.1992,1.1992,1.1992,1.2041,1.2041,1.2041,1.2041,1.2041,1.2041,1.2041,1.2041,1.2041,1.2041,1.2041,1.208,1.208,1.2129,1.2129,1.2129,1.2129,1.2129,1.2168,1.2168,1.2168,1.2168,1.2168,1.2168,1.2217,1.2217,1.2217,1.2168,1.2168,1.2168,1.2217,1.2217,1.2217,1.2217,1.2217,1.2256,1.2256,1.2256,1.2266,1.2266,1.2266,1.2266,1.2266,1.2266,1.2354,1.2354,1.2305,1.2354,1.2354,1.2354,1.2354,1.2402,1.2441,1.2441,1.2441,1.2441,1.2441,1.2441,1.2441,1.2402,1.2402,1.2441,1.2441,1.2441,1.2441,1.2402,1.2441,1.2441,1.2441,1.2441,1.2441,1.2441,1.2441,1.2441,1.2441,1.2441,1.2441,1.2441,1.2441,1.2441,1.2441,1.2441,1.2441,1.2441,1.2441,1.2402,1.2402,1.2402,1.2402,1.2402,1.2402,1.2402,1.2402,1.2354,1.2354,1.2305,1.2305,1.2305,1.2305,1.2305,1.2266,1.2266,1.2266,1.2266,1.2266,1.2266,1.2266,1.2266,1.2217,1.2217,1.2314,1.2314,1.2314,1.2354,1.2354,1.2402,1.2314,1.2354,1.2354,1.2354,0,0,0,0,0,0,0,2.8809,2.8809,2.8555,2.8555,2.832,2.832,2.832,2.832,2.8555,2.8574,2.832,2.832,2.832,2.832,2.8574,2.8574,2.8809,2.8809,2.8574,2.8574,2.8574,2.8574,2.832,2.832,2.8086,2.7852,2.8086,2.7852,2.7852,2.7852,2.7852,2.7852,2.7852,0,2.8574,2.7617,2.8574,2.8809,2.7852,2.7852,2.7852,2.7637,2.7637,2.7637,2.7852,2.7637,2.7637,2.7852,2.7852,2.7852,2.8086,2.7637,2.7188,2.7637,2.7188,2.7402,2.7188,2.7188,2.7402,2.7402,2.7402,2.7402,2.7637,2.7402,2.7637,2.7637,2.7637,2.7402,2.7637,2.7637,2.7188,2.7188,2.7188,2.6973,2.6973,2.6973,2.6758,2.6758,2.6973,2.6758,2.6758,2.6758,2.6543,2.6758,2.6328,2.6328,2.6328,2.6543,2.6758,2.6328,2.6328,2.6133,2.6328,2.6328,2.6133,2.5918,2.5723,2.6973,2.6758,2.6758,2.6758,2.6758,2.6758,2.6758,2.6758,0,0,0,0,0,0,0,0,0,0,0,0,0,0,0,0,0,2.4062,2.373,2.3555,2.3398,2.3398,2.3398,2.3398,2.3555,0,0,0,0,0,0,0,0,0,0,0,0,0,0,0,0,0,0,0,0,0,0,0,0,0,0,0,0,0,0,0,0,0,0,0,0,0,0,0,0,0,0,0,0,0,0,0,0,0,0,0,0,0,0,0,0,0
1.082,1.0791,1.0791,1.0791,1.083,1.083,1.083,1.083,1.083,1.083,1.0859,1.0859,1.0898,1.0898,1.0928,1.0928,1.0928,1.0928,1.0928,1.0967,1.0967,1.0967,1.0967,1.0967,1.0967,1.1006,1.1006,1.1045,1.1045,1.1074,1.1074,1.1074,1.1074,1.1074,1.1074,1.1074,1.1074,1.1074,1.1074,1.1074,1.1074,1.1074,1.1113,1.1113,1.1113,1.1113,1.1113,1.1152,1.1152,1.1191,1.1191,1.123,1.123,1.123,1.127,1.123,1.127,1.127,1.127,1.127,1.1299,1.1299,1.1299,1.1299,1.1299,1.1299,1.1338,1.1377,1.1377,1.1377,1.1377,1.1377,1.1377,1.1377,1.1377,1.1416,1.1377,1.1377,1.1416,1.1377,1.1416,1.1416,1.1416,1.1416,1.1416,1.1416,1.1494,1.1494,1.1494,1.1494,1.1533,1.1533,1.1533,1.1543,1.1543,1.1543,1.1582,1.1621,1.1621,1.1621,1.1621,1.1621,1.1621,1.166,1.166,1.166,1.166,1.166,1.166,1.166,1.166,1.166,1.166,1.166,1.1699,1.1699,1.1738,1.1738,1.1738,1.1787,1.1787,1.1787,1.1787,1.1787,1.1787,1.1787,1.1787,1.1787,1.1787,1.1738,1.1787,1.1787,1.1787,1.1787,1.1826,1.1826,1.1826,1.1865,1.1865,1.1865,1.1914,1.1914,1.1914,1.1914,1.1914,1.1953,1.1953,1.1992,1.1992,1.2041,1.2041,1.1992,1.1992,1.2041,1.2041,1.2041,1.2041,1.2041,1.2041,1.2041,1.208,1.208,1.208,1.208,1.208,1.2129,1.2129,1.2168,1.2168,1.2168,1.2168,1.2168,1.2168,1.2168,1.2168,1.2168,1.2217,1.2217,1.2217,1.2217,1.2217,1.2217,1.2217,1.2217,1.2217,1.2217,1.2266,1.2266,1.2266,1.2266,1.2266,1.2266,1.2266,1.2266,1.2266,1.2305,1.2266,1.2305,1.2354,1.2305,1.2354,1.2354,1.2354,1.2354,1.2441,1.2441,1.2441,1.2441,1.2441,1.2402,1.2441,1.2441,1.2402,1.2441,1.2441,1.2441,1.2441,1.2441,1.2441,1.2441,1.2441,1.2441,1.2441,1.2441,1.2441,1.249,1.2441,1.2441,1.2441,1.2441,1.2441,1.2441,1.2441,1.2441,1.2441,1.2441,1.2451,1.2451,1.2451,1.2451,1.2451,1.2451,1.2451,1.2402,1.2402,1.2402,1.2402,1.2354,1.2354,1.2314,1.2314,1.2314,1.2314,1.2314,1.2266,1.2266,1.2314,1.2314,1.2266,1.2266,1.2266,1.2266,1.2266,1.2314,1.2354,1.2314,1.2354,1.2402,1.2451,1.2354,1.2402,1.2354,1.2354,0,0,0,0,0,0,0,2.8555,2.8574,2.8574,2.832,2.832,2.832,2.832,2.832,2.8574,2.8574,2.832,2.8574,2.8574,2.8574,2.8574,2.8574,2.8574,2.8574,2.8574,2.8574,2.832,2.832,2.832,2.8086,2.7852,2.7852,2.7852,2.7852,2.7852,2.7852,2.7852,2.7852,2.7852,2.7852,2.7852,2.7637,2.7637,2.7637,2.7637,2.7637,2.7637,2.7637,2.7402,2.7188,2.7402,2.7188,2.7637,2.7402,2.7637,2.7637,2.7637,2.7402,2.7188,2.7188,2.7188,2.7188,2.7188,2.7188,2.7188,2.7188,2.7188,2.7188,2.7188,2.7188,2.7188,2.7402,2.7188,2.6973,2.6973,2.7188,2.7188,2.6973,2.6973,2.6973,2.6973,2.6973,2.6758,2.6543,2.6973,2.6758,2.6543,2.6543,2.6543,2.6543,2.6328,2.6328,2.6133,2.6133,2.6133,2.6328,2.6133,2.5918,2.6133,2.6133,2.6133,2.5723,2.5723,2.7188,2.7188,2.6973,2.6543,2.6973,2.6133,2.6133,0,0,0,0,0,0,0,0,0,0,0,0,0,0,0,0,0,2.4062,2.4062,2.373,2.3555,2.3555,2.3398,2.3398,2.3398,0,0,0,0,0,0,0,0,0,0,0,0,0,0,0,0,0,0,0,0,0,0,0,0,0,0,0,0,0,0,0,0,0,0,0,0,0,0,0,0,0,0,0,0,0,0,0,0,0,0,0,0,0,0,0,0,0,0
1.083,1.083,1.083,1.083,1.083,1.083,1.083,1.083,1.083,1.0859,1.0859,1.0859,1.0928,1.0898,1.0928,1.0928,1.0928,1.0928,1.0967,1.0967,1.0967,1.0967,1.0967,1.0967,1.1006,1.1006,1.1045,1.1074,1.1074,1.1074,1.1074,1.1074,1.1074,1.1074,1.1074,1.1074,1.1074,1.1074,1.1074,1.1074,1.1074,1.1074,1.1113,1.1113,1.1113,1.1113,1.1152,1.1152,1.1191,1.1191,1.123,1.123,1.123,1.123,1.127,1.123,1.127,1.127,1.127,1.1299,1.1299,1.1299,1.1309,1.1309,1.1309,1.1338,1.1338,1.1377,1.1338,1.1377,1.1377,1.1377,1.1377,1.1377,1.1416,1.1416,1.1416,1.1416,1.1416,1.1416,1.1416,1.1416,1.1455,1.1455,1.1455,1.1455,1.1494,1.1494,1.1494,1.1494,1.1543,1.1543,1.1543,1.1543,1.1543,1.1582,1.1582,1.1621,1.1621,1.1621,1.1621,1.1621,1.166,1.166,1.166,1.166,1.1699,1.1699,1.166,1.166,1.166,1.166,1.1699,1.166,1.1699,1.1738,1.1738,1.1787,1.1738,1.1787,1.1787,1.1787,1.1787,1.1787,1.1787,1.1787,1.1787,1.1787,1.1787,1.1787,1.1787,1.1787,1.1787,1.1787,1.1826,1.1826,1.1914,1.1914,1.1914,1.1914,1.1914,1.1914,1.1914,1.1914,1.1914,1.1953,1.1953,1.1992,1.1992,1.2041,1.2041,1.2041,1.2041,1.2041,1.2041,1.2041,1.2041,1.2041,1.2041,1.2041,1.208,1.2129,1.2129,1.2129,1.2168,1.2168,1.2168,1.2168,1.2168,1.2168,1.2168,1.2168,1.2168,1.2217,1.2168,1.2217,1.2217,1.2217,1.2217,1.2217,1.2217,1.2217,1.2217,1.2217,1.2217,1.2266,1.2266,1.2266,1.2266,1.2266,1.2266,1.2266,1.2266,1.2305,1.2354,1.2305,1.2354,1.2354,1.2402,1.2354,1.2402,1.2402,1.2354,1.2402,1.2441,1.2441,1.2441,1.2441,1.2441,1.2441,1.2441,1.2441,1.2441,1.2441,1.249,1.249,1.2441,1.2441,1.2441,1.2441,1.2441,1.2441,1.249,1.249,1.249,1.249,1.249,1.2441,1.2441,1.2451,1.2451,1.2451,1.2451,1.2451,1.2451,1.249,1.2451,1.2451,1.2451,1.2451,1.2451,1.2451,1.2451,1.2402,1.2451,1.2402,1.2402,1.2402,1.2402,1.2402,1.2354,1.2402,1.2354,1.2314,1.2314,1.2314,1.2314,1.2314,1.2266,1.2266,1.2266,1.2266,1.2266,1.2314,1.2354,1.2314,1.2402,1.2451,1.249,1.2451,1.2402,1.2402,1.2402,0,0,0,0,0,0,0,2.832,2.8574,2.8574,2.832,2.832,2.832,2.8086,2.832,2.8574,2.8574,2.8574,2.8574,2.8574,2.8574,2.8574,2.8574,2.8574,2.832,2.7852,2.8086,2.7852,2.8086,2.8086,2.8086,2.7852,2.7852,2.7852,2.7637,2.7637,2.7637,2.7637,2.7637,2.7637,2.7637,2.7852,2.7852,2.7637,2.7637,2.7637,2.7637,2.7637,2.7637,2.7402,2.6973,2.7188,2.7188,2.7188,2.7188,2.7188,2.6973,2.7402,2.7188,2.7188,2.7188,2.7188,2.7188,2.7188,2.7188,2.6973,2.7188,2.7188,2.7188,2.6973,2.7188,2.7188,2.7402,2.7188,2.6973,2.6543,2.6328,2.6328,2.6328,2.6758,2.6973,2.6973,2.6973,2.6973,2.6758,2.6973,2.6758,2.6758,2.6758,2.6328,2.6328,2.6328,2.6328,2.6328,2.6133,2.6133,2.6328,2.6133,2.6133,2.6133,2.6133,2.6133,0,0,0,0,0,0,2.6973,0,0,0,0,0,0,0,0,0,0,0,0,0,0,0,0,0,0,0,2.4238,2.4238,2.4238,2.373,2.3555,2.3555,0,0,0,0,0,0,0,0,0,0,0,0,0,0,0,0,0,0,0,0,0,0,0,0,0,0,0,0,0,0,0,0,0,0,0,0,0,0,0,0,0,0,0,0,0,0,0,0,0,0,0,0,0,0,0,0,0,0,0,0
