0.771,0.77441,0.77441,0.77441,0.77295,0.77441,0.77441,0.77441,0.77295,0.77295,0.77295,0.77295,0.771,0.771,0.771,0.771,0.771,0.77295,0.77295,0.77295,0.77295,0.77295,0.77295,0.77295,0.771,0.771,0.771,0.771,0.76953,0.76953,0.76953,0.76953,0.76758,0.76758,0.76758,0.76758,0.76611,0.76611,0.76611,0.76611,0.76611,0.76611,0.76758,0.76758,0.76758,0.76758,0.76758,0.76758,0.76953,0.76953,0.76758,0.76953,0.76953,0.771,0.771,0.771,0.771,0.77295,0.77637,0.77637,0.77637,0.77637,0.77832,0.77832,0.77832,0.77832,0.77832,0.77637,0.77637,0.77637,0.7749,0.7749,0.7749,0.7749,0.77295,0.7749,0.7749,0.7749,0.77295,0.77295,0.77295,0.77295,0.77295,0.77295,0.77295,0.77148,0.77148,0.77148,0.77148,0.77148,0.76953,0.76807,0.76807,0.76611,0.76807,0.76611,0.76611,0.76807,0.76807,0.76807,0.76611,0.76611,0.76611,0.76611,0.76465,0.76465,0.76465,0.76465,0.76465,0.7627,0.7627,0.7627,0.7627,0.7627,0.7627,0.7627,0.7627,0.76123,0.76123,0.76123,0.76123,0.76123,0.75928,0.75928,0.75928,0.75928,0.75928,0.75928,0.75781,0.75781,0.75781,0.75586,0.75586,0.7544,0.7544,0.75635,0.7544,0.7544,0.7544,0.7544,0.7544,0.7544,0.7544,0.7544,0.7544,0.7544,0.75293,0.7544,0.75293,0.75293,0.75293,0.75293,0.75293,0,0,0,0,0,0.68457,0.68457,0.68213,0.67773,0.67773,0.67676,0.67676,0.67383,0.67383,0.67383,0.67773,0.67773,0.67773,0.67773,0.67773,0.67773,0.67773,0.67773,0.67773,0.68066,0.68359,0.6875,0.69043,0.69434,0.6958,0.69727,0.69873,0.69873,0.69873,0.69873,0.69873,0.69873,0.69873,0.69873,0.69873,0.69873,0.69727,0.69727,0.69727,0.69727,0.69629,0.69629,0.69482,0.69482,0.69336,0.69336,0.6919,0.68603,0.68506,0.6792,0.67676,0.67529,0.67529,0.67676,0.67529,0.67529,0.67529,0.67676,0.67529,0.67529,0.67529,0.67529,0.67432,0.67432,0.67432,0.67432,0.67432,0.67432,0,0.72266,0.72412,0.72412,0.72412,0.72607,0.72607,0.72607,0.72607,0.72607,0.72607,0.72607,0.72607,0.72607,0.72412,0.72607,0.72412,0.72412,0.72412,0.72412,0.72412,0.72412,0.72412,0.72266,0.72266,0.72266,0.72266,0.72266,0.71973,0.71973,0.71973,0.71973,0.71973,0.71973,0.71973,0.71973,0.71973,0.71973,0.71973,0.71973,0.71826,0.71826,0.71826,0.71826,0.71826,0.71826,0.7168,0.7168,0.71533,0.71533,0.71533,0.71533,0.71387,0.71387,0.71387,0.71387,0.71387,0.71387,0.71387,0.71387,0.71387,0.71387,0.71387,0.71533,0.71387,0.71387,0.66895,0.66895,0.66797,0.66797,0.66797,0.66895,0.66797,0.66895,0.66895,0.66895,0.67041,0.67041,0.67188,0.67188,0.67188,0.67188,0.67285,0.67285,0.67188,0.67188,0.67188,0.67188,0.67285,0.67432,0.67432,0.67432,0.67432,0.67432,0.67432,0.67432,0.67432,0.67334,0.67334,0.67188,0.67188,0.67041,0.67041,0.67041,0.67041,0.67041,0.67041,0.67041,0.67041,0.67041,0.67041,0.67041,0.66943,0.67041,0.67041,0.66943,0.66797,0.66797,0.6665,0.6665,0.66553,0.66553,0,0,0,0,0,0.79053,0.78467,0.78467,0.78125,0.78125,0.77783,0.77588,0.77588,0.77588,0.77441,0.77051,0.76904,0.76904,0.76709,0.76562,0.76221,0.76221,0.76025,0.75879,0.75879,0.75879,0.75684,0.75537,0.75537,0.75537,0.75537,0.75537,0.75391,0.75537,0.75391,0.75391,0.75391,0.75195,0.75195,0.75195,0.75195,0.75049,0.75049,0.75049,0.75049,0.75049,0.75049,0.74902,0.74902,0.75049,0.75195,0.75195,0.75391,0.75537,0.75537,0.75879,0.76416,0,0,0,0,0,0,0,0,0,0,0,0,0,0,0,0,0,0,0,0,0,0,0,0,0,0,0,0,0,0,0,0,0,0,0,0,0,0,0,0,0,0
0.771,0.771,0.77295,0.77295,0.771,0.771,0.771,0.77295,0.771,0.771,0.771,0.771,0.76953,0.771,0.771,0.771,0.771,0.771,0.77295,0.771,0.77295,0.771,0.771,0.771,0.771,0.76953,0.76953,0.76953,0.76953,0.76953,0.76953,0.76758,0.76758,0.76758,0.76758,0.76611,0.76611,0.76611,0.76611,0.76611,0.76611,0.76611,0.76611,0.76758,0.76611,0.76758,0.76758,0.76758,0.76758,0.76758,0.76953,0.76953,0.771,0.771,0.771,0.771,0.77295,0.7749,0.77637,0.77637,0.77637,0.77637,0.77637,0.77637,0.77637,0.7749,0.77637,0.7749,0.7749,0.7749,0.77295,0.77295,0.77295,0.77295,0.77295,0.77295,0.77295,0.77295,0.77295,0.77295,0.77295,0.77295,0.77148,0.77148,0.77148,0.77148,0.77148,0.77148,0.76953,0.76807,0.76807,0.76807,0.76611,0.76611,0.76611,0.76611,0.76611,0.76611,0.76611,0.76611,0.76465,0.76465,0.76465,0.76465,0.7627,0.76465,0.76465,0.76465,0.7627,0.7627,0.7627,0.7627,0.76123,0.76123,0.76123,0.76123,0.76123,0.75928,0.75928,0.75928,0.75928,0.75928,0.75928,0.75781,0.75781,0.75781,0.75781,0.75781,0.75635,0.75635,0.7544,0.7544,0.7544,0.7544,0.7544,0.7544,0.7544,0.7544,0.7544,0.7544,0.75293,0.75293,0.75293,0.75293,0.75293,0.75098,0.75098,0.75098,0.75098,0.74951,0.74951,0.74951,0.74951,0.75293,0,0,0,0.68603,0.68603,0.68457,0.68359,0.68066,0.6792,0.67773,0.67773,0.67676,0.67676,0.67773,0.68066,0.68359,0.68359,0.68213,0.68066,0.68066,0.6792,0.6792,0.6792,0.68213,0.68457,0.69043,0.6919,0.69482,0.69727,0.69727,0.69873,0.69873,0.69873,0.69873,0.69873,0.69873,0.69873,0.69873,0.69873,0.69873,0.69727,0.69727,0.69727,0.69727,0.69727,0.69629,0.69629,0.69482,0.69482,0.69336,0.69336,0.6919,0.6875,0.68213,0.67822,0.67676,0.67676,0.67676,0.67676,0.67676,0.67676,0.67822,0.67676,0.67676,0.67676,0.67676,0.67529,0.67529,0.67529,0.67529,0.67529,0,0.72412,0.72266,0.72412,0.72412,0.72412,0.72607,0.72607,0.72607,0.72607,0.72607,0.72412,0.72412,0.72461,0.72266,0.72266,0.72266,0.72266,0.72412,0.72412,0.72412,0.72266,0.72266,0.72266,0.72266,0.72266,0.72119,0.72119,0.71973,0.71973,0.71973,0.71973,0.71973,0.71973,0.71973,0.71973,0.71973,0.71826,0.71826,0.71826,0.71826,0.71826,0.71826,0.71826,0.7168,0.7168,0.7168,0.71533,0.71533,0.71533,0.71387,0.71387,0.71387,0.71387,0.71387,0.71387,0.71387,0.71387,0.7124,0.71387,0.71387,0.71387,0.71387,0.7124,0.71387,0.7124,0.7124,0,0.66895,0.66895,0.66895,0.66895,0.66895,0.66895,0.67041,0.67041,0.67041,0.67188,0.67188,0.67285,0.67285,0.67285,0.67285,0.67334,0.67334,0.67334,0.67334,0.67334,0.67334,0.67334,0.67432,0.67432,0.67432,0.67432,0.67432,0.67432,0.67432,0.67432,0.67334,0.67334,0.67188,0.67188,0.67041,0.67041,0.67041,0.67041,0.67041,0.67041,0.67041,0.67041,0.67041,0.67041,0.67041,0.67041,0.67041,0.67188,0.67188,0.66943,0.66943,0.6665,0.66797,0.6665,0.6665,0,0,0,0,0.79053,0.79053,0.79395,0.78662,0.7832,0.7832,0.77783,0.77783,0.77588,0.77441,0.77246,0.77051,0.77051,0.76904,0.76709,0.76709,0.76709,0.76367,0.76367,0.76221,0.76025,0.76025,0.75684,0.75684,0.75537,0.75537,0.75537,0.75537,0.75537,0.75537,0.75537,0.75391,0.75391,0.75195,0.75391,0.75391,0.75391,0.75195,0.75195,0.75049,0.75049,0.75049,0.75049,0.75049,0.75049,0.75195,0.75391,0.75195,0.75732,0.75879,0.75879,0.76074,0.76562,0,0,0,0,0,0,0,0,0,0,0,0,0,0,0,0,0,0,0,0,0,0,0,0,0,0,0,0,0,0,0,0,0,0,0,0,0,0,0,0,0,0
0.76953,0.76953,0.771,0.771,0.76953,0.771,0.771,0.771,0.771,0.771,0.76953,0.76953,0.76953,0.76953,0.76953,0.76953,0.76953,0.76953,0.76758,0.76758,0.76953,0.76953,0.76953,0.76758,0.76758,0.76758,0.76953,0.76953,0.76758,0.76758,0.76758,0.76758,0.76758,0.76611,0.76611,0.76611,0.76416,0.76416,0.76416,0.76416,0.76416,0.76416,0.76416,0.76611,0.76611,0.76611,0.76611,0.76758,0.76758,0.76758,0.76953,0.76953,0.771,0.77148,0.77295,0.77295,0.7749,0.7749,0.77637,0.77637,0.7749,0.7749,0.7749,0.7749,0.7749,0.7749,0.7749,0.7749,0.77295,0.77295,0.77295,0.77295,0.77295,0.77295,0.77148,0.77148,0.77148,0.77148,0.77148,0.77148,0.77148,0.77148,0.77148,0.76953,0.76953,0.76953,0.76953,0.76807,0.76807,0.76807,0.76611,0.76611,0.76611,0.76611,0.76611,0.76465,0.76465,0.76465,0.76611,0.76465,0.76465,0.76465,0.7627,0.7627,0.7627,0.7627,0.7627,0.7627,0.7627,0.76123,0.76123,0.76123,0.76123,0.75928,0.76123,0.76123,0.75928,0.75928,0.75928,0.75928,0.75928,0.75928,0.75781,0.75781,0.75781,0.75781,0.75781,0.75635,0.75635,0.7544,0.7544,0.7544,0.7544,0.7544,0.7544,0.7544,0.7544,0.75293,0.75293,0.75293,0.75293,0.75098,0.75098,0.75098,0.75098,0.75098,0.75098,0.74951,0.74951,0.74951,0.74805,0.74805,0.74805,0.74805,0,0,0,0.69043,0.6875,0.68603,0.68457,0.68359,0.68213,0.68066,0.68066,0.68066,0.6792,0.68066,0.68066,0.68359,0.68359,0.68213,0.68213,0.68213,0.68213,0.68506,0.68603,0.68603,0.6875,0.6919,0.69336,0.69482,0.69629,0.69727,0.69727,0.69873,0.69873,0.69873,0.69873,0.69873,0.69873,0.69873,0.69873,0.69873,0.69775,0.69775,0.69775,0.69775,0.69775,0.69629,0.69629,0.69482,0.69482,0.69482,0.69336,0.6919,0.68652,0.68359,0.68066,0.68066,0.68066,0.67969,0.67969,0.67969,0.67969,0.67969,0.67822,0.67822,0.67822,0.67676,0.67676,0.67676,0.67676,0.67822,0.67822,0,0.72266,0.72412,0.72412,0.72412,0.72412,0.72412,0.72461,0.72461,0.72461,0.72461,0.72461,0.72461,0.72461,0.72266,0.72266,0.72266,0.72266,0.72266,0.72266,0.72119,0.72119,0.72119,0.71973,0.71973,0.71973,0.71973,0.71973,0.71826,0.71826,0.71826,0.71826,0.71826,0.71826,0.71826,0.71826,0.71826,0.71826,0.71826,0.71826,0.7168,0.7168,0.7168,0.7168,0.7168,0.71533,0.71533,0.71533,0.71533,0.71387,0.71387,0.71387,0.71387,0.71387,0.71387,0.71387,0.7124,0.7124,0.7124,0.71387,0.71387,0.7124,0.7124,0.7124,0.7124,0.71094,0.71094,0.70947,0,0.67285,0.67041,0.67041,0.67041,0.67041,0.67188,0.67285,0.67334,0.67334,0.67334,0.67432,0.67334,0.67432,0.67432,0.67432,0.67432,0.67432,0.67432,0.67432,0.67432,0.67432,0.67432,0.67432,0.67432,0.67432,0.67432,0.67432,0.67432,0.67432,0.67334,0.67334,0.67334,0.67188,0.67041,0.67041,0.67188,0.67188,0.67188,0.67188,0.67188,0.67188,0.67188,0.67188,0.67188,0.67041,0.67188,0.67188,0.67188,0.67041,0.66943,0,0,0,0,0,0,0,0,0.7959,0.7959,0.79395,0.78662,0.78662,0.78516,0.7832,0.78125,0.77978,0.77588,0.77441,0.77246,0.77051,0.77051,0.76904,0.76904,0.76904,0.76709,0.76562,0.76367,0.76025,0.76025,0.76025,0.75879,0.75732,0.75537,0.75537,0.75537,0.75537,0.75537,0.75537,0.75537,0.75391,0.75391,0.75391,0.75537,0.75391,0.75391,0.75195,0.75195,0.75195,0.75049,0.75049,0.75049,0.75391,0.75391,0.75537,0.75537,0.75732,0.76074,0.76074,0.76416,0.76758,0,0,0,0,0,0,0,0,0,0,0,0,0,0,0,0,0,0,0,0,0,0,0,0,0,0,0,0,0,0,0,0,0,0,0,0,0,0,0,0,0,0
0.76758,0.76758,0.76758,0.76758,0.76758,0.76953,0.76758,0.76953,0.76953,0.76953,0.76953,0.76953,0.76953,0.76953,0.76953,0.76953,0.76758,0.76758,0.76758,0.76611,0.76758,0.76758,0.76758,0.76758,0.76758,0.76758,0.76758,0.76758,0.76611,0.76611,0.76611,0.76611,0.76611,0.76611,0.76611,0.76416,0.76416,0.76416,0.76416,0.76416,0.76416,0.76416,0.76416,0.76416,0.76611,0.76611,0.76611,0.76611,0.76758,0.76758,0.76953,0.77148,0.77148,0.77295,0.7749,0.7749,0.7749,0.7749,0.7749,0.7749,0.7749,0.7749,0.7749,0.77295,0.77295,0.77295,0.77295,0.77295,0.77295,0.77295,0.77295,0.77148,0.77148,0.77148,0.77148,0.77148,0.76953,0.76953,0.76953,0.76953,0.76807,0.76807,0.76807,0.76807,0.76807,0.76611,0.76807,0.76611,0.76611,0.76611,0.76465,0.76611,0.76465,0.76465,0.76465,0.76465,0.76465,0.76465,0.76465,0.76465,0.76465,0.7627,0.7627,0.76123,0.76123,0.76123,0.76123,0.76123,0.76123,0.75928,0.75928,0.75928,0.75928,0.75928,0.75928,0.75928,0.75928,0.75781,0.75781,0.75781,0.75781,0.75781,0.75781,0.7544,0.75635,0.75635,0.75635,0.75635,0.7544,0.7544,0.75293,0.75293,0.75293,0.75293,0.75293,0.75293,0.75293,0.75098,0.75098,0.75098,0.75098,0.74951,0.74951,0.74951,0.74951,0.74951,0.74951,0.74805,0.74805,0.74805,0.74805,0.74805,0.74805,0.74609,0.74609,0,0,0.69043,0.6875,0.6875,0.68603,0.68506,0.68359,0.68213,0.68213,0.68066,0.68066,0.68066,0.68213,0.68359,0.68359,0.68359,0.68359,0.68359,0.68603,0.6875,0.68897,0.68897,0.69043,0.69482,0.69629,0.69629,0.69727,0.69727,0.69727,0.69873,0.69873,0.69873,0.69873,0.69873,0.69873,0.69873,0.69873,0.69873,0.69775,0.69775,0.69629,0.69775,0.69775,0.69629,0.69629,0.69482,0.69482,0.69336,0.69336,0.6919,0.68897,0.68506,0.68213,0.68213,0.68066,0.68066,0.68066,0.68066,0.67969,0.68066,0.68066,0.68066,0.67822,0.67822,0.67822,0.67822,0.67822,0.67822,0,0.72266,0.72266,0.72461,0.72461,0.72461,0.72461,0.72461,0.72461,0.72461,0.72461,0.72461,0.72461,0.72266,0.72266,0.72119,0.72119,0.72119,0.72119,0.72119,0.72119,0.72119,0.72119,0.71973,0.71973,0.71973,0.71826,0.71826,0.71826,0.7168,0.71826,0.71826,0.71826,0.71826,0.71826,0.71826,0.71826,0.71826,0.7168,0.7168,0.7168,0.7168,0.71533,0.71533,0.71533,0.71533,0.71387,0.71387,0.71387,0.71387,0.71387,0.71387,0.71387,0.71387,0.71387,0.7124,0.7124,0.7124,0.7124,0.7124,0.7124,0.7124,0.7124,0.7124,0.7124,0.7124,0.71094,0.71094,0.70947,0.70947,0.70947,0.70947,0.71094,0.67188,0.67188,0.67188,0.67334,0.67334,0.67334,0.67432,0.67432,0.67432,0.67432,0.67578,0.67578,0.67578,0.67432,0.67432,0.67432,0.67432,0.67432,0.67432,0.67432,0.67432,0.67432,0.67432,0.67432,0.67432,0.67432,0.67334,0.67334,0.67334,0.67334,0.67188,0.67188,0.67334,0.67334,0.67334,0.67334,0.67334,0.67334,0.67334,0.6748,0.6748,0.67334,0.67334,0.67334,0.67334,0.67188,0.67041,0,0,0,0,0.80322,0.80518,0.80322,0.80176,0.79785,0.7959,0.79395,0.79248,0.78857,0.78662,0.7832,0.7832,0.78125,0.78125,0.77588,0.77441,0.77246,0.77246,0.771,0.76904,0.76904,0.76709,0.76709,0.76562,0.76562,0.76367,0.76221,0.76074,0.75879,0.75879,0.75879,0.75879,0.75732,0.75732,0.75537,0.75537,0.75537,0.75537,0.75537,0.75537,0.75537,0.75537,0.75537,0.75391,0.75391,0.75391,0.75391,0.75391,0.75537,0.75537,0.75879,0.75732,0.76074,0.76221,0.76416,0.76562,0.76904,0,0,0,0,0,0,0,0,0,0,0,0,0,0,0,0,0,0,0,0,0,0,0,0,0,0,0,0,0,0,0,0,0,0,0,0,0,0,0,0,0,0
0.76611,0.76611,0.76611,0.76611,0.76611,0.76611,0.76611,0.76758,0.76758,0.76758,0.76758,0.76758,0.76758,0.76758,0.76758,0.76758,0.76758,0.76611,0.76611,0.76611,0.76611,0.76611,0.76611,0.76611,0.76416,0.76611,0.76416,0.76416,0.76416,0.76416,0.76416,0.76416,0.76416,0.76416,0.76416,0.76416,0.76416,0.76416,0.76416,0.76416,0.76416,0.76416,0.76416,0.76416,0.76416,0.76611,0.76611,0.76611,0.76758,0.76758,0.76953,0.77148,0.77295,0.7749,0.7749,0.77295,0.77295,0.77295,0.7749,0.7749,0.77295,0.77295,0.77295,0.77295,0.77295,0.77295,0.77295,0.77295,0.77148,0.77148,0.77148,0.77148,0.77148,0.77148,0.76953,0.76953,0.76807,0.76807,0.76807,0.76611,0.76611,0.76611,0.76611,0.76611,0.76611,0.76611,0.76611,0.76465,0.76465,0.76465,0.76465,0.76465,0.76465,0.76465,0.76465,0.76465,0.76465,0.7627,0.7627,0.7627,0.7627,0.76123,0.76123,0.75928,0.75928,0.75928,0.75928,0.75928,0.75928,0.75928,0.75928,0.75781,0.75781,0.75781,0.75928,0.75781,0.75781,0.75781,0.75635,0.75635,0.75635,0.7544,0.7544,0.7544,0.75293,0.7544,0.7544,0.7544,0.75293,0.75293,0.75293,0.75293,0.75098,0.75098,0.75293,0.75147,0.75147,0.75147,0.74951,0.74951,0.74951,0.74951,0.74805,0.74805,0.74805,0.74805,0.74805,0.74805,0.74805,0.74658,0.74658,0.74658,0.74658,0.74658,0.74658,0,0,0.68897,0.6875,0.6875,0.68603,0.68506,0.68359,0.68213,0.68213,0.68213,0.68066,0.68213,0.68359,0.68506,0.68506,0.68506,0.68506,0.68603,0.6875,0.6875,0.68897,0.68897,0.69043,0.69336,0.69629,0.69629,0.69775,0.69775,0.69922,0.69922,0.69922,0.69922,0.69922,0.69922,0.69922,0.69922,0.69775,0.69775,0.69775,0.69629,0.69629,0.69629,0.69775,0.69629,0.69629,0.69482,0.69482,0.69336,0.69336,0.69043,0.68897,0.68652,0.68506,0.68359,0.68359,0.68213,0.68213,0.68213,0.68115,0.68213,0.68115,0.68115,0.68115,0.68115,0.67969,0.67969,0.67969,0.67969,0,0.72266,0.72266,0.72461,0.72461,0.72266,0.72266,0.72461,0.72461,0.72461,0.72266,0.72266,0.72315,0.72119,0.72119,0.72119,0.72119,0.72119,0.72119,0.72119,0.72119,0.71973,0.71973,0.71973,0.71973,0.71826,0.71826,0.7168,0.7168,0.7168,0.7168,0.7168,0.7168,0.7168,0.7168,0.7168,0.7168,0.71533,0.71533,0.71533,0.71533,0.71533,0.71533,0.71533,0.71533,0.71387,0.71387,0.71387,0.71387,0.71387,0.71387,0.7124,0.7124,0.7124,0.7124,0.7124,0.7124,0.7124,0.7124,0.7124,0.7124,0.7124,0.7124,0.7124,0.7124,0.71094,0.71094,0.71094,0.70947,0.70947,0.70801,0.70947,0.70801,0.71094,0.67432,0.67432,0.67432,0.67432,0.67578,0.67578,0.67578,0.67578,0.67578,0.67578,0.67578,0.67578,0.67578,0.67578,0.67578,0.67578,0.67578,0.67578,0.67578,0.67578,0.67578,0.67432,0.67578,0.67432,0.6748,0.6748,0.6748,0.6748,0.6748,0.67578,0.67578,0.67578,0.67578,0.6748,0.6748,0.6748,0.6748,0.6748,0.67578,0.6748,0.6748,0.67334,0.6748,0.67334,0.67334,0,0,0,0,0,0.80713,0.80322,0.80176,0.80176,0.79785,0.7959,0.7959,0.79395,0.79053,0.78662,0.78516,0.7832,0.7832,0.78125,0.77978,0.77588,0.77441,0.77441,0.77246,0.771,0.76904,0.76904,0.76758,0.76758,0.76562,0.76562,0.76416,0.76221,0.76074,0.76074,0.76074,0.76074,0.75879,0.75879,0.75732,0.75732,0.75732,0.75732,0.75879,0.75879,0.75732,0.75732,0.75732,0.75732,0.75537,0.75537,0.75537,0.75537,0.75732,0.75732,0.75879,0.76221,0.76221,0.76416,0.76562,0.76758,0.76904,0,0,0,0,0,0,0,0,0,0,0,0,0,0,0,0,0,0,0,0,0,0,0,0,0,0,0,0,0,0,0,0,0,0,0,0,0,0,0,0,0,0
0.76611,0.76416,0.76416,0.76416,0.76416,0.76611,0.76416,0.76611,0.76611,0.76758,0.76758,0.76758,0.76758,0.76758,0.76953,0.76758,0.76611,0.76611,0.76611,0.76611,0.76611,0.76416,0.76416,0.76416,0.7627,0.7627,0.7627,0.7627,0.7627,0.76416,0.76416,0.76416,0.76416,0.76416,0.76416,0.76416,0.7627,0.7627,0.7627,0.7627,0.76416,0.76416,0.76416,0.76416,0.76611,0.76611,0.76807,0.76807,0.76807,0.76953,0.77148,0.77148,0.77295,0.77295,0.77295,0.77295,0.77295,0.77295,0.7749,0.77295,0.77295,0.77295,0.77295,0.77295,0.77148,0.77148,0.77148,0.77148,0.77148,0.76953,0.77148,0.76953,0.76953,0.76953,0.76953,0.76953,0.76807,0.76807,0.76611,0.76611,0.76611,0.76611,0.76611,0.76465,0.76465,0.76465,0.76465,0.76465,0.76465,0.76465,0.7627,0.76465,0.7627,0.7627,0.7627,0.7627,0.7627,0.7627,0.76123,0.76123,0.75928,0.75928,0.75928,0.75928,0.75928,0.75781,0.75781,0.75928,0.75781,0.75781,0.75781,0.75781,0.75781,0.75635,0.75781,0.75781,0.75635,0.75635,0.7544,0.7544,0.7544,0.7544,0.75293,0.75293,0.75293,0.75293,0.75293,0.75293,0.75147,0.75147,0.75147,0.75147,0.75147,0.74951,0.75147,0.75147,0.74951,0.74951,0.74951,0.74805,0.74805,0.74805,0.74805,0.74805,0.74658,0.74658,0.74658,0.74658,0.74658,0.74658,0.74658,0.74658,0.74658,0.74463,0.74463,0.74463,0,0.73975,0.6875,0.6875,0.68603,0.68506,0.68359,0.68213,0.68213,0.68213,0.68213,0.68359,0.68359,0.68506,0.68652,0.68652,0.68652,0.6875,0.6875,0.6875,0.68897,0.68897,0.69043,0.69336,0.69482,0.69629,0.69775,0.69775,0.69775,0.69922,0.69922,0.69922,0.69922,0.69922,0.69922,0.69922,0.69922,0.69775,0.69775,0.69629,0.69629,0.69629,0.69629,0.69629,0.69629,0.69482,0.69482,0.69336,0.6919,0.69043,0.68897,0.68799,0.68799,0.68652,0.68506,0.68359,0.68359,0.68359,0.68359,0.68359,0.68213,0.68213,0.68213,0.68213,0.68213,0.68213,0.68945,0,0.72119,0.72266,0.72266,0.72266,0.72315,0.72315,0.72315,0.72315,0.72315,0.72315,0.72119,0.72119,0.72119,0.71973,0.71973,0.71973,0.71973,0.71973,0.71973,0.71973,0.71973,0.71973,0.71973,0.71826,0.71826,0.71826,0.71826,0.7168,0.7168,0.7168,0.7168,0.7168,0.7168,0.7168,0.71533,0.71533,0.71533,0.71533,0.71387,0.71387,0.71387,0.71387,0.71387,0.71387,0.71387,0.71387,0.7124,0.7124,0.7124,0.7124,0.7124,0.7124,0.7124,0.7124,0.7124,0.7124,0.7124,0.71094,0.71094,0.71094,0.7124,0.7124,0.71094,0.71094,0.71094,0.71094,0.70947,0.70947,0.70947,0.70947,0.70801,0.70947,0.70801,0.70801,0.70801,0.70801,0.67432,0.67578,0.67578,0.67578,0.67578,0.67725,0.67725,0.67578,0.67578,0.67578,0.67578,0.67578,0.67578,0.67578,0.67578,0.67725,0.67725,0.67725,0.67725,0.67578,0.67725,0.67578,0.67578,0.6748,0.67578,0.67578,0.67725,0.67725,0.67871,0.67871,0.67725,0.67578,0.67578,0.67578,0.67578,0.6748,0.6748,0.6748,0.67334,0.67188,0.6748,0.6748,0.6748,0,0,0,0,0.80713,0.80518,0.80371,0.80371,0.80176,0.79785,0.79785,0.7959,0.79395,0.79248,0.78857,0.78662,0.78516,0.78516,0.7832,0.78125,0.78125,0.77783,0.77588,0.77441,0.77246,0.771,0.76904,0.76904,0.76758,0.76758,0.76758,0.76562,0.76416,0.76221,0.76221,0.76221,0.76074,0.76074,0.76074,0.75879,0.75879,0.75879,0.76074,0.75879,0.76074,0.76074,0.75879,0.75879,0.75879,0.75879,0.75732,0.75732,0.75732,0.75732,0.75879,0.76074,0.76416,0.76562,0.76562,0.76758,0.76904,0.771,0,0,0,0,0,0,0,0,0,0,0,0,0,0,0,0,0,0,0,0,0,0,0,0,0,0,0,0,0,0,0,0,0,0,0,0,0,0,0,0,0,0
0.76416,0.76416,0.76416,0.76416,0.76416,0.76416,0.76416,0.76416,0.76611,0.76611,0.76611,0.76611,0.76611,0.76611,0.76611,0.76611,0.76611,0.76416,0.76416,0.76416,0.76416,0.7627,0.7627,0.7627,0.7627,0.7627,0.7627,0.7627,0.7627,0.7627,0.7627,0.7627,0.7627,0.7627,0.7627,0.7627,0.7627,0.7627,0.7627,0.7627,0.7627,0.7627,0.76465,0.76465,0.76611,0.76611,0.76807,0.76807,0.76953,0.77148,0.77148,0.77148,0.77295,0.77295,0.77295,0.77295,0.77295,0.77148,0.77295,0.77295,0.77148,0.77148,0.77148,0.77148,0.76953,0.76953,0.76953,0.77148,0.76953,0.76953,0.76953,0.76953,0.76953,0.76807,0.76807,0.76807,0.76611,0.76611,0.76611,0.76611,0.76611,0.76465,0.76465,0.76465,0.76465,0.76465,0.7627,0.7627,0.7627,0.7627,0.7627,0.7627,0.7627,0.7627,0.7627,0.7627,0.76123,0.76123,0.76123,0.75928,0.75928,0.75977,0.75781,0.75781,0.75781,0.75781,0.75781,0.75781,0.75635,0.75635,0.75635,0.75635,0.75635,0.7544,0.75635,0.75635,0.75635,0.7544,0.7544,0.7544,0.7544,0.7544,0.7544,0.75293,0.75293,0.75293,0.75293,0.75147,0.75147,0.75147,0.75147,0.74951,0.74951,0.74951,0.74951,0.74951,0.74805,0.74805,0.74805,0.74805,0.74805,0.74658,0.74658,0.74658,0.74658,0.74658,0.74658,0.74463,0.74463,0.74463,0.74463,0.74463,0.74463,0.74316,0.74316,0.7417,0.73975,0.73828,0.68897,0.6875,0.68652,0.68506,0.68359,0.68359,0.68359,0.68359,0.68359,0.68506,0.68506,0.68652,0.6875,0.6875,0.6875,0.6875,0.68897,0.68897,0.68897,0.69043,0.6919,0.69336,0.69482,0.69629,0.69629,0.69775,0.69775,0.69922,0.69922,0.69922,0.69922,0.69922,0.69922,0.69922,0.69922,0.69775,0.69775,0.69775,0.69629,0.69775,0.69629,0.69629,0.69482,0.69482,0.69482,0.69336,0.69336,0.69043,0.68897,0.68799,0.68799,0.68799,0.68652,0.68506,0.68506,0.68652,0.68506,0.68652,0.68506,0.68359,0.68359,0.68213,0.68359,0.68359,0.68945,0,0.72315,0.71973,0.72119,0.72315,0.72315,0.72315,0.72119,0.72119,0.72119,0.72119,0.71973,0.71973,0.71973,0.71973,0.71973,0.71973,0.71826,0.71973,0.71973,0.71973,0.71973,0.71973,0.71826,0.71826,0.71826,0.7168,0.7168,0.7168,0.7168,0.71533,0.71533,0.71533,0.71533,0.71533,0.71533,0.71533,0.71533,0.71533,0.71387,0.71387,0.71387,0.71387,0.71387,0.71387,0.7124,0.7124,0.7124,0.7124,0.7124,0.71094,0.7124,0.71094,0.71094,0.71094,0.71094,0.71094,0.71094,0.71094,0.71094,0.71094,0.71094,0.71094,0.71094,0.71094,0.71094,0.70947,0.70947,0.70947,0.70947,0.70947,0.70801,0.70947,0.70947,0.70947,0.70947,0.70801,0.67578,0.67578,0.67578,0.67725,0.67725,0.67725,0.67725,0.67725,0.67725,0.67725,0.67578,0.67578,0.67725,0.67725,0.67725,0.67871,0.67871,0.68018,0.67871,0.67871,0.67871,0.67725,0.67725,0.67725,0.67725,0.67871,0.67871,0.68018,0.68018,0.67871,0.67725,0.67578,0.67578,0.67578,0.67578,0.67578,0.6748,0.67578,0,0.67334,0,0.6748,0.6748,0,0,0,0,0.80713,0.80713,0.80566,0.80566,0.80371,0.7998,0.79785,0.79785,0.7959,0.79443,0.79248,0.79053,0.78857,0.78516,0.78516,0.7832,0.78125,0.77978,0.77783,0.77637,0.77441,0.77246,0.77246,0.771,0.771,0.76904,0.76904,0.76758,0.76562,0.76416,0.76416,0.76221,0.76221,0.76221,0.76074,0.76074,0.75879,0.76221,0.76221,0.76074,0.76221,0.76074,0.76074,0.76074,0.76074,0.75879,0.76074,0.75879,0.75879,0.76074,0.76074,0.76416,0.76562,0.76758,0.76953,0.76953,0.771,0.77295,0,0,0,0,0,0,0,0,0,0,0,0,0,0,0,0,0,0,0,0,0,0,0,0,0,0,0,0,0,0,0,0,0,0,0,0,0,0,0,0,0,0
0.76416,0.76416,0.76416,0.76416,0.76416,0.76416,0.76416,0.76416,0.76416,0.76416,0.76416,0.76416,0.76416,0.76611,0.76416,0.76416,0.76416,0.76416,0.76416,0.76416,0.76416,0.7627,0.7627,0.7627,0.76074,0.76074,0.76074,0.76074,0.76074,0.7627,0.7627,0.7627,0.7627,0.7627,0.7627,0.7627,0.7627,0.7627,0.7627,0.76123,0.7627,0.7627,0.7627,0.76465,0.76611,0.76611,0.76611,0.76953,0.76953,0.77148,0.77148,0.77148,0.77148,0.77148,0.77148,0.77148,0.77148,0.77148,0.77344,0.77148,0.77148,0.77148,0.76953,0.76953,0.76807,0.76807,0.76807,0.76807,0.76807,0.76807,0.76611,0.76611,0.76611,0.76611,0.76611,0.76611,0.76465,0.76465,0.76465,0.76465,0.76465,0.76465,0.76465,0.76465,0.7627,0.7627,0.7627,0.76123,0.76123,0.76123,0.76123,0.76123,0.76123,0.76123,0.76123,0.76123,0.75977,0.75977,0.75977,0.75781,0.75781,0.75781,0.75781,0.75635,0.75635,0.75635,0.75635,0.75635,0.75635,0.7544,0.7544,0.7544,0.7544,0.7544,0.75635,0.75635,0.7544,0.7544,0.7544,0.7544,0.75293,0.75293,0.75293,0.75147,0.75293,0.75147,0.75147,0.75147,0.74951,0.74951,0.74951,0.74805,0.74805,0.74805,0.74805,0.74805,0.74805,0.74658,0.74805,0.74658,0.74658,0.74658,0.74463,0.74463,0.74463,0.74463,0.74463,0.74316,0.74463,0.74463,0.74463,0.74316,0.74316,0.74316,0.7417,0.73975,0.73828,0.73975,0.68897,0.68897,0.6875,0.68652,0.68359,0.68652,0.68506,0.68506,0.68506,0.68506,0.68652,0.6875,0.6875,0.6875,0.6875,0.68897,0.68897,0.68897,0.68897,0.69043,0.6919,0.69336,0.69482,0.69482,0.69629,0.69629,0.69629,0.69775,0.69922,0.69922,0.69922,0.69922,0.69922,0.69922,0.69922,0.69775,0.69775,0.69775,0.69629,0.69629,0.69629,0.69629,0.69482,0.69482,0.69482,0.69336,0.6919,0.69043,0.68945,0.68945,0.68945,0.68799,0.68799,0.68652,0.68799,0.68799,0.68652,0.68652,0.68652,0.68506,0.68506,0.68359,0.68359,0.68945,0,0.71826,0.71826,0.71826,0.71973,0.72119,0.72315,0.72119,0.71973,0.71973,0.71973,0.71973,0.71973,0.71973,0.71826,0.71826,0.71826,0.71826,0.71826,0.71826,0.71826,0.71826,0.71826,0.71826,0.71826,0.71826,0.71826,0.7168,0.7168,0.7168,0.71533,0.71533,0.71533,0.71533,0.71533,0.71533,0.71387,0.71533,0.71387,0.71387,0.71387,0.71387,0.71387,0.71387,0.7124,0.7124,0.7124,0.7124,0.71094,0.71094,0.71094,0.71094,0.71094,0.71094,0.71094,0.71094,0.70947,0.70947,0.70947,0.70947,0.70947,0.70947,0.70947,0.71094,0.70947,0.71094,0.70947,0.70947,0.70947,0.70947,0.70947,0.70947,0.70947,0.70947,0.70947,0.70947,0.70947,0.70947,0.67578,0.67578,0.67578,0.67578,0.67725,0.67871,0.67871,0.67725,0.67725,0.67725,0.67725,0.67578,0.67725,0.67725,0.67871,0.68018,0.68018,0.68018,0.68018,0.68018,0.68018,0.67871,0.68018,0.67871,0.68018,0.68018,0.68018,0.68164,0.68018,0.68018,0.67871,0.67871,0.67725,0,0,0,0,0,0.84961,0.84961,0.83496,0.83496,0.83301,0.8291,0.83301,0.83105,0.8291,0.80908,0.80908,0.80762,0.80762,0.80566,0.80176,0.79785,0.79785,0.7959,0.79443,0.79443,0.79248,0.79053,0.78857,0.78711,0.78516,0.7832,0.78174,0.77978,0.77783,0.77637,0.77637,0.77637,0.77441,0.77441,0.77295,0.77441,0.771,0.76904,0.76904,0.76758,0.76562,0.76416,0.76416,0.76221,0.76221,0.76074,0.76221,0.76221,0.76221,0.76221,0.76221,0.76074,0.76221,0.76074,0.76221,0.76074,0.76074,0.76074,0.76221,0.76416,0.76758,0.76758,0.76953,0.76953,0.771,0.77295,0.77441,0,0,0,0,0,0,0,0,0,0,0,0,0,0,0,0,0,0,0,0,0,0,0,0,0,0,0,0,0,0,0,0,0,0,0,0,0,0,0,0,0,0
0.76416,0.7627,0.7627,0.7627,0.7627,0.7627,0.7627,0.76416,0.76416,0.76416,0.76416,0.76416,0.76416,0.76416,0.76416,0.76416,0.76416,0.76416,0.7627,0.7627,0.7627,0.7627,0.76074,0.76074,0.76074,0.75928,0.76123,0.76123,0.76123,0.76123,0.76123,0.76123,0.7627,0.7627,0.7627,0.7627,0.7627,0.76123,0.7627,0.76123,0.7627,0.7627,0.7627,0.76465,0.76611,0.76611,0.76611,0.76953,0.77148,0.77148,0.77148,0.77148,0.77148,0.77148,0.77148,0.76953,0.77148,0.76953,0.77148,0.76953,0.76953,0.76953,0.76807,0.76807,0.76611,0.76807,0.76807,0.76807,0.76611,0.76611,0.76611,0.76611,0.76611,0.76611,0.76465,0.76465,0.76465,0.76465,0.76465,0.7627,0.7627,0.7627,0.7627,0.76123,0.76123,0.76123,0.75977,0.75977,0.75977,0.75977,0.75977,0.75977,0.76123,0.75977,0.75977,0.75977,0.75781,0.75781,0.75635,0.75635,0.75635,0.75635,0.75635,0.7544,0.7544,0.75635,0.7544,0.7544,0.7544,0.7544,0.7544,0.75293,0.75293,0.7544,0.7544,0.7544,0.7544,0.7544,0.75293,0.75293,0.75293,0.75293,0.75147,0.75147,0.75147,0.75147,0.74951,0.74951,0.74951,0.74805,0.74805,0.74805,0.74805,0.74805,0.74805,0.74805,0.74658,0.74658,0.74658,0.74658,0.74658,0.74463,0.74463,0.74463,0.74463,0.74316,0.74316,0.74316,0.74316,0.74316,0.74316,0.7417,0.7417,0.7417,0.74023,0.74023,0.73828,0.74023,0.74023,0,0.68652,0.68652,0.68506,0.68652,0.68652,0.68652,0.68652,0.68652,0.68652,0.68799,0.68897,0.68897,0.68897,0.68897,0.68897,0.68897,0.69043,0.69043,0.6919,0.69336,0.69336,0.69482,0.69482,0.69629,0.69629,0.69629,0.69775,0.69775,0.69775,0.69922,0.69922,0.69922,0.69922,0.69775,0.69775,0.69775,0.69629,0.69629,0.69482,0.69482,0.69482,0.69336,0.69336,0.6919,0.6919,0.69092,0.69092,0.68945,0.68945,0.68945,0.68945,0.68945,0.68945,0.68945,0.68799,0.68799,0.68652,0.68652,0.68652,0.68652,0.68652,0.69092,0,0.71826,0.71826,0.71973,0.71973,0.72168,0.72168,0.71973,0.71973,0.71973,0.71973,0.71973,0.71826,0.71826,0.71826,0.71826,0.71826,0.71826,0.71826,0.71826,0.71826,0.71826,0.71826,0.71826,0.71826,0.71826,0.7168,0.7168,0.7168,0.71533,0.71533,0.71533,0.71533,0.71533,0.71533,0.71533,0.71387,0.71387,0.71387,0.71387,0.71387,0.71387,0.7124,0.7124,0.7124,0.7124,0.7124,0.71094,0.71094,0.71094,0.71094,0.70947,0.71094,0.71094,0.71094,0.71094,0.70947,0.70947,0.70947,0.70947,0.70947,0.70947,0.70947,0.70947,0.70947,0.70947,0.70947,0.70947,0.70947,0.70947,0.70947,0.70947,0.70947,0.71094,0.71094,0.71094,0.71094,0.71094,0.71094,0.67578,0.68115,0.68115,0.68115,0.67725,0.67871,0.67725,0.67871,0.67871,0.67725,0.67725,0,0,0.68018,0.68018,0.68018,0.68018,0.68018,0.68018,0.68164,0.68018,0.68164,0.68018,0.68018,0.68018,0.68164,0.68164,0.68164,0.68018,0.68018,0.68164,0.68164,0,0,0,0,0,0.85156,0.85156,0.83691,0.83691,0.83301,0.83105,0.83301,0.83105,0.83105,0.81299,0.81299,0.81103,0.80957,0.80762,0.80371,0.80176,0.7998,0.79785,0.7959,0.79443,0.79248,0.79053,0.78857,0.78711,0.78516,0.78516,0.7832,0.78174,0.77978,0.77783,0.77783,0.77783,0.77637,0.77637,0.77441,0.77441,0.77295,0.77295,0.771,0.76904,0.76904,0.76758,0.76758,0.76758,0.76758,0.76416,0.76562,0.76416,0.76758,0.76758,0.76611,0.76611,0.76611,0.76416,0.76221,0.76221,0.76221,0.76221,0.76416,0.76758,0.76953,0.76953,0.771,0.771,0.77295,0.77441,0.77637,0,0,0,0,0,0,0,0,0,0,0,0,0,0,0,0,0,0,0,0,0,0,0,0,0,0,0,0,0,0,0,0,0,0,0,0,0,0,0,0,0,0
0.76416,0.7627,0.7627,0.7627,0.7627,0.7627,0.7627,0.7627,0.7627,0.7627,0.76416,0.76416,0.7627,0.7627,0.7627,0.7627,0.7627,0.7627,0.7627,0.7627,0.7627,0.7627,0.75928,0.75928,0.75928,0.75928,0.75928,0.75928,0.75928,0.75928,0.75928,0.76123,0.76123,0.76123,0.76123,0.7627,0.76123,0.76123,0.76123,0.76123,0.76123,0.7627,0.7627,0.76465,0.76807,0.76807,0.76953,0.77148,0.77148,0.77148,0.77148,0.76953,0.76953,0.76953,0.76953,0.76953,0.76953,0.76953,0.76953,0.76807,0.76807,0.76807,0.76611,0.76611,0.76611,0.76611,0.76611,0.76611,0.76611,0.76611,0.76465,0.76465,0.76465,0.76465,0.76465,0.7627,0.76318,0.76318,0.76318,0.76318,0.76318,0.76123,0.76318,0.76123,0.76123,0.75977,0.75977,0.75977,0.75977,0.75977,0.75977,0.75781,0.75781,0.75781,0.75781,0.75635,0.75635,0.7544,0.7544,0.7544,0.75293,0.75293,0.7544,0.7544,0.7544,0.7544,0.7544,0.75293,0.75293,0.75293,0.75293,0.75293,0.75293,0.7544,0.7544,0.7544,0.7544,0.75293,0.75147,0.75147,0.75147,0.75147,0.74951,0.74951,0.74951,0.74951,0.74951,0.74805,0.74805,0.74805,0.74805,0.74658,0.74658,0.74658,0.74658,0.74658,0.74658,0.74463,0.74658,0.74463,0.74463,0.74463,0.74316,0.74316,0.74316,0.74316,0.74316,0.7417,0.7417,0.7417,0.7417,0.7417,0.74023,0.74023,0.74023,0.73828,0.73682,0.73682,0.73682,0,0.68506,0.73682,0.68506,0.68652,0.68652,0.68652,0.68652,0.68652,0.68652,0.68799,0.68897,0.68897,0.68897,0.68897,0.68897,0.68897,0.69043,0.69043,0.6919,0.69336,0.69336,0.69482,0.69482,0.69482,0.69629,0.69629,0.69629,0.69775,0.69775,0.69775,0.69775,0.69775,0.69775,0.69775,0.69629,0.69629,0.69629,0.69482,0.69482,0.69482,0.69336,0.69336,0.69336,0.6919,0.6919,0.69092,0.69092,0.6919,0.69092,0.69092,0.69092,0.69092,0.69092,0.68945,0.68945,0.68945,0.68945,0.68799,0.68799,0.68799,0.68799,0,0.71826,0.71826,0.71826,0.71826,0.71826,0.71973,0.71973,0.71973,0.71973,0.71826,0.71826,0.71826,0.71826,0.71826,0.71826,0.7168,0.7168,0.7168,0.7168,0.7168,0.7168,0.7168,0.7168,0.7168,0.7168,0.7168,0.7168,0.71533,0.71533,0.71533,0.71533,0.71387,0.71387,0.71387,0.71387,0.71387,0.71387,0.71387,0.71387,0.71387,0.71387,0.7124,0.7124,0.7124,0.7124,0.7124,0.71094,0.71094,0.71094,0.71094,0.71094,0.70947,0.70947,0.70947,0.70947,0.70947,0.70947,0.70947,0.70947,0.70801,0.70801,0.70801,0.70947,0.70947,0.70947,0.70947,0.70947,0.70947,0.70947,0.70996,0.70996,0.71143,0.70996,0.71143,0.71143,0.71289,0.71289,0.71143,0.71289,0.71289,0.71143,0,0,0,0,0,0.68018,0.67871,0.67871,0.67871,0,0.68018,0.68164,0.68164,0.68164,0.68164,0.68164,0.68164,0.68164,0.68018,0.68164,0.68164,0.68164,0.68018,0.68018,0.68164,0.68164,0.68164,0.68164,0.68164,0,0,0,0,0,0.86035,0.85205,0.85205,0.85205,0.84326,0.83496,0.83496,0.83496,0.83301,0.83301,0.82324,0.81494,0.81348,0.81152,0.80957,0.80371,0.80176,0.7998,0.79785,0.79639,0.79639,0.79443,0.79248,0.79053,0.78906,0.78711,0.78516,0.78516,0.7832,0.78174,0.78174,0.77978,0.77978,0.77783,0.77783,0.77637,0.77637,0.77441,0.77295,0.77441,0.771,0.76953,0.76953,0.76953,0.76758,0.76758,0.76758,0.76758,0.76758,0.76758,0.76758,0.76758,0.76611,0.76611,0.76611,0.76611,0.76611,0.76758,0.76758,0.76953,0.76953,0.771,0.771,0.771,0.77295,0.77441,0.77637,0.77832,0,0,0,0,0,0,0,0,0,0,0,0,0,0,0,0,0,0,0,0,0,0,0,0,0,0,0,0,0,0,0,0,0,0,0,0,0,0,0,0,0,0
0.7627,0.7627,0.7627,0.7627,0.7627,0.7627,0.76074,0.7627,0.7627,0.7627,0.76123,0.7627,0.76123,0.7627,0.7627,0.7627,0.7627,0.7627,0.76123,0.76123,0.7627,0.75928,0.75781,0.75781,0.75781,0.75781,0.75781,0.75781,0.75781,0.75781,0.75928,0.75928,0.75928,0.75928,0.75928,0.75928,0.75928,0.76123,0.76123,0.75928,0.76123,0.76123,0.7627,0.76611,0.76807,0.76807,0.76953,0.76953,0.76953,0.76953,0.76953,0.76953,0.76953,0.77002,0.77002,0.77002,0.76807,0.77002,0.76807,0.76807,0.76611,0.76611,0.76611,0.76611,0.76611,0.76465,0.76465,0.76465,0.76465,0.76465,0.76318,0.76318,0.76318,0.76318,0.76318,0.76123,0.76123,0.76123,0.76123,0.76123,0.76123,0.75977,0.76123,0.75977,0.75977,0.75977,0.75781,0.75781,0.75781,0.75781,0.75781,0.75635,0.75635,0.75635,0.75635,0.75635,0.7544,0.7544,0.7544,0.7544,0.75293,0.75293,0.75293,0.75293,0.75293,0.75147,0.75147,0.75147,0.75147,0.75147,0.75147,0.75147,0.75147,0.75293,0.75293,0.75293,0.75293,0.75147,0.75147,0.74951,0.74951,0.74951,0.74951,0.74951,0.74951,0.74805,0.74805,0.74805,0.74805,0.74805,0.74658,0.74658,0.74658,0.74658,0.74463,0.74463,0.74463,0.74463,0.74463,0.74316,0.74316,0.74316,0.74316,0.74316,0.74316,0.7417,0.7417,0.7417,0.7417,0.7417,0.74023,0.74023,0.74023,0.73828,0.73828,0.73828,0.73682,0.73682,0.73682,0.73682,0.73682,0.73682,0.68652,0.68652,0.68652,0.68799,0.68799,0.68799,0.68897,0.69043,0.69043,0.69043,0.69043,0.68945,0.68945,0.68945,0.69043,0.69043,0.6919,0.69336,0.69336,0.69482,0.69482,0.69482,0.69482,0.69629,0.69629,0.69629,0.69775,0.69629,0.69775,0.69775,0.69629,0.69629,0.69629,0.69629,0.69629,0.69482,0.69482,0.69336,0.69336,0.69336,0.69336,0.6919,0.6919,0.69238,0.69336,0.69336,0.69238,0.69238,0.69238,0.69238,0.69092,0.68945,0.68945,0.68945,0.68945,0.68945,0,0,0,0.71826,0.71826,0.7168,0.7168,0.71826,0.71826,0.72022,0.71826,0.71826,0.71826,0.71826,0.7168,0.7168,0.7168,0.7168,0.7168,0.7168,0.7168,0.7168,0.7168,0.7168,0.7168,0.7168,0.71533,0.71533,0.71533,0.71533,0.71533,0.71533,0.71533,0.71387,0.71387,0.71387,0.71387,0.71387,0.71387,0.71387,0.7124,0.7124,0.7124,0.7124,0.7124,0.7124,0.7124,0.7124,0.7124,0.71094,0.71094,0.71094,0.70947,0.70947,0.70947,0.70947,0.70947,0.70947,0.70947,0.70947,0.70801,0.70801,0.70801,0.70801,0.70801,0.70801,0.70996,0.70996,0.70996,0.70996,0.70996,0.70996,0.70996,0.70996,0.71143,0.71143,0.71143,0.71143,0.71289,0.71289,0.71289,0.71289,0.71289,0,0,0,0,0.71435,0,0,1.0205,1.0205,1.0205,0,0,1.0166,1.0137,1.0137,0.68164,0.68262,0.68262,0.68262,1.0137,0,0,0,0,0,0.68164,0.68164,0.68164,0.68164,0.68164,0,0,0,0,0,0,0.87842,0.86719,0.86035,0.8584,0.8457,0.83935,0.83496,0.8374,0.83496,0.83496,0.82715,0.81934,0.81543,0.81348,0.81152,0.80762,0.80566,0.80371,0.7998,0.79785,0.79639,0.79639,0.79248,0.79053,0.78906,0.78906,0.78711,0.78516,0.78516,0.7832,0.78174,0.78174,0.77978,0.77978,0.77978,0.77832,0.77832,0.77637,0.77637,0.77441,0.77441,0.77295,0.77295,0.771,0.76953,0.76953,0.76758,0.76953,0.76758,0.76758,0.76758,0.76758,0.76758,0.76758,0.76758,0.76758,0.76758,0.76758,0.76758,0.76953,0.76953,0.77295,0.77295,0.7749,0.7749,0.77637,0.77637,0.77832,0,0,0,0,0,0,0,0,0,0,0,0,0,0,0,0,0,0,0,0,0,0,0,0,0,0,0,0,0,0,0,0,0,0,0,0,0,0,0,0,0,0
0.7627,0.76074,0.76074,0.76074,0.76123,0.76123,0.76123,0.75928,0.76123,0.76123,0.76123,0.76123,0.75928,0.76123,0.76123,0.76123,0.76123,0.76123,0.76123,0.76123,0.76123,0.75928,0.75928,0.75781,0.75781,0.75781,0.75781,0.75781,0.75781,0.75781,0.75781,0.75781,0.75928,0.75928,0.75928,0.75928,0.75928,0.75928,0.75928,0.75928,0.75928,0.76123,0.7627,0.76465,0.76611,0.76807,0.77002,0.77002,0.77002,0.77002,0.77002,0.76807,0.76807,0.76807,0.76807,0.76611,0.76611,0.76807,0.7666,0.7666,0.7666,0.7666,0.7666,0.76465,0.76465,0.76465,0.76465,0.76465,0.76465,0.76465,0.76318,0.76123,0.76123,0.76123,0.76123,0.75977,0.75977,0.75977,0.75977,0.75977,0.75977,0.75977,0.75977,0.75977,0.75781,0.75781,0.75781,0.75781,0.75635,0.75635,0.75635,0.75635,0.75635,0.7544,0.75293,0.75293,0.75293,0.75293,0.75293,0.75293,0.75293,0.75147,0.75147,0.75147,0.75147,0.75147,0.75147,0.75147,0.74951,0.74951,0.74951,0.74951,0.74951,0.75147,0.75147,0.75147,0.74951,0.74951,0.74805,0.74805,0.74805,0.74951,0.74951,0.74805,0.74805,0.74805,0.74805,0.74658,0.74658,0.74658,0.74658,0.74658,0.74658,0.74463,0.74463,0.74463,0.74316,0.74316,0.74316,0.74316,0.7417,0.7417,0.7417,0.7417,0.7417,0.7417,0.74023,0.74023,0.74023,0.74023,0.74023,0.73828,0.73828,0.73682,0.73682,0.73682,0.73535,0.73535,0.73535,0.73535,0.73535,0.73535,0.73535,0.73535,0.73535,0.73193,0.6919,0.6919,0.6919,0.6919,0.6919,0.6919,0.69336,0.69336,0,0,0,0,0.69336,0.69336,0.69336,0.69482,0.69482,0.69482,0.69482,0.69629,0.69629,0.69775,0.69775,0.69775,0.69775,0.69775,0.69775,0.69775,0.69629,0.69629,0.69629,0.69629,0.69482,0.69482,0.69482,0.69482,0.69482,0.69336,0.69336,0.69482,0.69482,0.69336,0.69336,0.69336,0.69336,0.69336,0.69092,0.69092,0.69092,0,0.71533,0.7168,0.7168,0.7168,0.7168,0.7168,0.7168,0.7168,0.7168,0.7168,0.7168,0.71826,0.71826,0.71826,0.7168,0.7168,0.7168,0.71533,0.71533,0.71533,0.7168,0.71533,0.71533,0.71533,0.71533,0.71533,0.71533,0.71533,0.71533,0.71533,0.71387,0.71387,0.71387,0.71387,0.71387,0.71387,0.71387,0.71387,0.71387,0.71387,0.7124,0.7124,0.7124,0.7124,0.7124,0.7124,0.7124,0.7124,0.7124,0.7124,0.71094,0.71094,0.70947,0.70947,0.70947,0.70947,0.70947,0.70801,0.70947,0.70947,0.70996,0.70996,0.70801,0.7085,0.7085,0.7085,0.7085,0.7085,0.70996,0.70996,0.70996,0.70996,0.70996,0.70996,0.71143,0.71143,0.71143,0.71143,0.71143,0.71289,0.71289,0.71289,0.71435,0.71289,0,0,0,0,0,0,0,1.0234,1.0234,1.0234,1.0234,1.0234,1.0205,1.0176,1.0176,1.0137,1.0176,1.0176,1.0176,1.0176,1.0205,1.0205,1.0137,1.0176,1.0137,1.0137,0.68164,0.68164,0.68164,0.68164,1.0078,1.0078,1.0078,0,0,0,0.88037,0.88037,0.87353,0.86279,0.8584,0.8457,0.84131,0.83935,0.8374,0.8374,0.83545,0.8291,0.82129,0.81738,0.81543,0.81348,0.81152,0.80762,0.80566,0.80176,0.7998,0.79834,0.79639,0.79443,0.79248,0.79053,0.78906,0.78711,0.78711,0.78516,0.78369,0.78369,0.78174,0.78174,0.77978,0.77978,0.77978,0.77978,0.77637,0.77637,0.77637,0.77441,0.77441,0.77441,0.77295,0.77295,0.771,0.76953,0.76953,0.76953,0.76953,0.76758,0.76758,0.76758,0.76758,0.76758,0.76758,0.76953,0.76953,0.76953,0.76953,0.771,0.7749,0.7749,0.77637,0.77637,0.77832,0.77832,0.78027,0,0,0,0,0,0,0,0,0,0,0,0,0,0,0,0,0,0,0,0,0,0,0,0,0,0,0,0,0,0,0,0,0,0,0,0,0,0,0,0,0,0
0.76123,0.76123,0.76123,0.76123,0.76123,0.76123,0.76123,0.76123,0.76123,0.75928,0.75928,0.75928,0.75928,0.75928,0.75928,0.75928,0.76123,0.75928,0.75928,0.75928,0.75928,0.75781,0.75781,0.75586,0.75586,0.75586,0.75586,0.75781,0.75781,0.75781,0.75781,0.75781,0.75781,0.75781,0.75781,0.75781,0.75781,0.75928,0.75928,0.75928,0.76123,0.7627,0.7627,0.76465,0.76611,0.76807,0.76807,0.76807,0.76807,0.76611,0.7666,0.7666,0.7666,0.76465,0.76465,0.76465,0.76465,0.7666,0.7666,0.7666,0.7666,0.76465,0.76465,0.76465,0.76465,0.76465,0.76318,0.76318,0.76318,0.76123,0.76123,0.76123,0.75977,0.75977,0.75977,0.75977,0.75781,0.75781,0.75781,0.75781,0.75781,0.75781,0.75781,0.75781,0.75781,0.75635,0.75635,0.75635,0.7544,0.7544,0.7544,0.75488,0.75488,0.75293,0.75293,0.75293,0.75293,0.75293,0.75147,0.75147,0.75147,0.75147,0.75147,0.75147,0.74951,0.74951,0.74951,0.74951,0.74805,0.74805,0.74805,0.74805,0.74805,0.74951,0.74951,0.75,0.74805,0.74805,0.74805,0.74658,0.74658,0.74658,0.74658,0.74658,0.74316,0.74316,0.74316,0.7417,0.7417,0.7417,0.7417,0.74512,0.74512,0.74316,0.74316,0.74316,0.74316,0.7417,0.7417,0.7417,0.7417,0.7417,0.74023,0.74023,0.74023,0.74023,0.74023,0.74023,0.73828,0.73828,0.73828,0.73682,0.73682,0.73682,0.73682,0.73535,0.73535,0.73535,0.73535,0.73535,0.73535,0.73389,0.73389,0.73389,0.73242,0.73242,0.73242,0,0.69482,0.69482,0.69482,0.69482,0.69482,0,0,0,0,0,0.69482,0.69482,0.69482,0.69629,0.69482,0.69482,0.69482,0.69629,0.69629,0.69629,0.69775,0.69629,0.69775,0.69775,0.69775,0.69775,0.69775,0.69629,0.69629,0.69629,0.69629,0.69482,0.69629,0.69629,0.69629,0.69482,0.69482,0.69629,0.69482,0.69482,0.69482,0.69482,0.69385,0.69238,0.69238,0.69238,0,0.71533,0.7168,0.7168,0.7168,0.7168,0.7168,0.7168,0.7168,0.7168,0.7168,0.7168,0.7168,0.71728,0.71533,0.71533,0.7168,0.71533,0.71533,0.71533,0.71387,0.71387,0.71533,0.71533,0.71387,0.71387,0.71387,0.71387,0.71387,0.71387,0.71387,0.71387,0.71387,0.71387,0.71387,0.71387,0.71387,0.7124,0.7124,0.7124,0.7124,0.7124,0.7124,0.7124,0.7124,0.7124,0.71289,0.71289,0.71094,0.71094,0.71094,0.71143,0.70947,0.70947,0.70947,0.70801,0.70801,0.70801,0.7085,0.7085,0.70996,0.7085,0.7085,0.7085,0.7085,0.7085,0.7085,0.7085,0.7085,0.7085,0.70996,0.70996,0.70996,0.70996,0.70996,0.70996,0.71143,0.71143,0.71143,0.71289,0.71289,0.71289,0.71435,0.71435,0,0,0,0,0,0,0,0,1.0264,1.0234,1.0234,1.0234,1.0234,1.0205,1.0205,1.0176,1.0205,1.0205,1.0176,1.0205,1.0176,1.0176,1.0176,1.0176,1.0176,1.0146,1.0146,1.0146,1.0146,1.0146,1.0107,1.0107,1.0107,1.0078,1.0078,1.0078,0.87842,0.99365,0,0,0,0.86035,0.85645,0.84766,0.84326,0.84131,0.83935,0.8374,0.83545,0.8291,0.82324,0.81934,0.81738,0.81543,0.81348,0.80957,0.80762,0.80371,0.80176,0.79834,0.79834,0.79639,0.79443,0.79248,0.79053,0.78906,0.78906,0.78711,0.78516,0.78369,0.78174,0.78174,0.78174,0.78174,0.78174,0.77978,0.77832,0.77832,0.77637,0.77637,0.77637,0.77637,0.77295,0.7749,0.77295,0.771,0.771,0.76953,0.76953,0.76953,0.76953,0.76953,0.76953,0.76953,0.76953,0.76953,0.771,0.771,0.771,0.771,0.7749,0.7749,0.77637,0.77637,0.77832,0.77832,0,0.78565,0,0,0,0,0,0,0,0,0,0,0,0,0,0,0,0,0,0,0,0,0,0,0,0,0,0,0,0,0,0,0,0,0,0,0,0,0,0,0,0,0
0.75781,0.75781,0.76123,0.76123,0.76123,0.76123,0.75928,0.75928,0.75928,0.75928,0.75928,0.75781,0.75781,0.75781,0.75781,0.75781,0.75928,0.75928,0.75928,0.75928,0.75781,0.75781,0.75781,0.75586,0.75586,0.75586,0.75586,0.75586,0.75586,0.75586,0.75586,0.75586,0.75586,0.75781,0.75781,0.75781,0.75781,0.75928,0.75928,0.7627,0.7627,0.7627,0.76465,0.7666,0.76807,0.76807,0.7666,0.7666,0.7666,0.7666,0.7666,0.76465,0.76465,0.76465,0.76465,0.76465,0.76465,0.7666,0.7666,0.76465,0.76465,0.76465,0.76465,0.76465,0.76465,0.76318,0.76123,0.76123,0.76123,0.76123,0.75977,0.75977,0.75977,0.75977,0.75781,0.75781,0.75781,0.75635,0.75781,0.75635,0.75635,0.75635,0.75635,0.75635,0.75488,0.75488,0.75488,0.75488,0.75293,0.75293,0.75293,0.75293,0.75293,0.75293,0.75293,0.75147,0.75147,0.75147,0.75147,0.75147,0.75147,0.74951,0.75147,0.74951,0.74951,0.74805,0.74805,0.74805,0.74658,0.74658,0.74658,0.74658,0.74658,0.74805,0.74805,0.74805,0.74658,0.74658,0.74658,0.74658,0.74512,0.74512,0.74512,0.74316,0.74316,0.7417,0.74316,0.7417,0.7417,0.7417,0.7417,0.7417,0.7417,0.7417,0.74023,0.74023,0.74023,0.74023,0.7417,0.74023,0.74023,0.74023,0.74023,0.74023,0.74023,0.73828,0.73828,0.73828,0.73682,0.73682,0.73682,0.73535,0.73535,0.73535,0.73535,0.73535,0.73535,0.73389,0.73389,0.73389,0.73389,0.73389,0.73389,0.73242,0.73242,0.73242,0.73242,0.729,0.72754,0.72754,0,0,0,0,0,0,0,0,0,0,0,0.69775,0.69775,0.69629,0.69629,0.69775,0.69775,0.69775,0.69775,0.69775,0.69775,0.69775,0.69775,0.69775,0.69629,0.69775,0.69775,0.69775,0.69629,0.69629,0.69775,0.69629,0.69922,0,0.7168,0.69629,0.69629,0.69482,0.69629,0.69482,0.69385,0.69385,0.69385,0,0.7168,0.7168,0.7168,0.7168,0.7168,0.71728,0.71728,0.71728,0.71728,0.71533,0.71533,0.71533,0.71533,0.71728,0.71533,0.71533,0.71582,0.71387,0.71387,0.71387,0.71387,0.71387,0.71387,0.71387,0.71387,0.71387,0.71387,0.71387,0.71387,0.71387,0.71387,0.71387,0.71435,0.71435,0.71435,0.7124,0.7124,0.7124,0.7124,0.71289,0.71094,0.71094,0.71094,0.71094,0.71094,0.71143,0.71143,0.71143,0.71143,0.71143,0.71143,0.70996,0.70996,0.7085,0.7085,0.7085,0.7085,0.7085,0.7085,0.7085,0.7085,0.7085,0.7085,0.7085,0.7085,0.7085,0.7085,0.7085,0.7085,0.7085,0.70996,0.70996,0.70996,0.70996,0.70996,0.70996,0.71143,0.71143,0.71289,0.71289,0.71289,0.71435,0,0,0,0,0,0,0,0,0,1.0234,1.0234,1.0234,1.0234,1.0234,1.0234,1.0205,1.0205,1.0176,1.0176,1.0176,1.0176,1.0176,1.0176,1.0146,1.0146,1.0146,1.0146,1.0146,1.0146,1.0146,1.0146,1.0146,1.0107,1.0117,1.0117,1.0078,1.0078,1.0078,1.0049,0,0,0,0,0.8584,0.85645,0.84961,0.8457,0.84375,0.83935,0.83935,0.8374,0.8291,0.8252,0.82129,0.81738,0.81543,0.81348,0.81152,0.80957,0.80566,0.80371,0.7998,0.79834,0.79639,0.79639,0.79443,0.79248,0.79102,0.78906,0.78906,0.78516,0.78369,0.78369,0.78369,0.78174,0.78174,0.78174,0.78174,0.77978,0.77978,0.77832,0.77637,0.77637,0.77637,0.7749,0.7749,0.77295,0.77295,0.771,0.771,0.76953,0.76953,0.76953,0.771,0.771,0.771,0.77148,0.77148,0.77295,0.77295,0.77295,0.77295,0.77637,0.77637,0.77637,0.77832,0.78027,0.77832,0,0.79102,0,0,0,0,0,0,0,0,0,0,0,0,0,0,0,0,0,0,0,0,0,0,0,0,0,0,0,0,0,0,0,0,0,0,0,0,0,0,0,0,0
0.75781,0.75781,0.75781,0.75781,0.75781,0.75781,0.75586,0.75586,0.75586,0.75586,0.75586,0.75586,0.75586,0.75586,0.75781,0.75781,0.75781,0.75781,0.75781,0.75781,0.75781,0.75781,0.75586,0.75586,0.75586,0.75586,0.75635,0.75635,0.75635,0.75635,0.75635,0.75635,0.75635,0.75635,0.75635,0.75781,0.75781,0.75977,0.76123,0.76318,0.76465,0.76465,0.7666,0.7666,0.7666,0.7666,0.76465,0.76465,0.76465,0.76465,0.76465,0.76465,0.76465,0.76318,0.76318,0.76318,0.76318,0.76465,0.76465,0.76465,0.76465,0.76318,0.76318,0.76318,0.76318,0.76123,0.76123,0.75977,0.75977,0.75977,0.75977,0.75977,0.75977,0.75781,0.75781,0.75781,0.75635,0.75635,0.75635,0.75488,0.75488,0.75488,0.75488,0.75488,0.75293,0.75293,0.75293,0.75293,0.75293,0.75293,0.75293,0.75293,0.75293,0.75147,0.75147,0.75147,0.75147,0.75147,0.75147,0.75147,0.74951,0.74805,0.75,0.75,0.74805,0.74658,0.74658,0.74658,0.74658,0.74512,0.74512,0.74512,0.74512,0.74658,0.74658,0.74658,0.74658,0.74658,0.74512,0.74512,0.74316,0.74316,0.74512,0.7417,0.7417,0.7417,0.7417,0.7417,0.7417,0.7417,0.7417,0.7417,0.74023,0.74023,0.74023,0.74023,0.74023,0.74023,0.74023,0.73877,0.73877,0.73877,0.73682,0.73682,0.73682,0.73682,0.73535,0.73535,0.73682,0.73535,0.73535,0.73535,0.73535,0.73535,0.73535,0.73389,0.73389,0.73389,0.73389,0.73389,0.73242,0.73242,0.73242,0.73047,0.73047,0.73047,0.729,0.729,0.72754,0.72607,0.72754,0.72754,0,0,0,0,0,0,0,0,0,0,0,0.69775,0.69775,0.69922,0.69775,0.69775,0.69775,0.69775,0.69775,0.69922,0.69922,0.69922,0.69922,0.69922,0.69922,0.69775,0.69775,0.69775,0.69775,0.69775,0.69775,0,0,0.71875,0.71875,0.71875,0.7168,0.7168,0.7168,0.7168,0.7168,0.71728,0.71728,0.71728,0.71728,0.71533,0.71533,0.71728,0.71533,0.71533,0.71582,0.71582,0.71582,0.71387,0.71582,0.71582,0.71582,0.71582,0.71387,0.71435,0.71435,0.71435,0.71435,0.71435,0.71435,0.71435,0.71435,0.71435,0.71435,0.71435,0.71435,0.71435,0.71435,0.71435,0.71435,0.71289,0.71289,0.71289,0.71289,0.71289,0.71143,0.71143,0.70947,0.70996,0.70996,0.70996,0.70996,0.70996,0.70996,0.71143,0.71143,0.71143,0.70996,0.70996,0.70996,0.7085,0.7085,0.7085,0.7085,0.7085,0.7085,0.7085,0.7085,0.7085,0.7085,0.7085,0.7085,0.7085,0.7085,0.7085,0.7085,0.7085,0.70996,0.70996,0.70996,0.70996,0.70996,0,0,0,0,0,0,0,0,0,0,0,0,0,0,1.0205,1.0234,1.0234,1.0234,1.0234,1.0234,1.0234,1.0205,1.0205,1.0176,1.0176,1.0176,1.0176,1.0176,1.0176,1.0176,1.0146,1.0146,1.0146,1.0146,1.0146,1.0117,1.0117,1.0117,1.0117,1.0117,1.0078,1.0078,1.0078,1.0049,1.0088,1.0049,1.0049,0,0,0,0.86084,0.8584,0.85205,0.8501,0.8457,0.84375,0.83935,0.8374,0.8291,0.8252,0.82129,0.81934,0.81738,0.81543,0.81348,0.81152,0.80762,0.80566,0.80371,0.80029,0.79834,0.79639,0.79639,0.79443,0.79102,0.79102,0.79102,0.78711,0.78516,0.78369,0.78369,0.78369,0.78369,0.78369,0.78369,0.78174,0.77978,0.77978,0.77832,0.77637,0.77637,0.77637,0.77637,0.7749,0.77295,0.77295,0.77148,0.77148,0.77148,0.77148,0.77295,0.77148,0.77295,0.77295,0.77295,0.7749,0.7749,0.7749,0.7749,0.77832,0.77832,0.77832,0.77832,0.77832,0.78174,0.78906,0,0,0,0,0,0,0,0,0,0,0,0,0,0,0,0,0,0,0,0,0,0,0,0,0,0,0,0,0,0,0,0,0,0,0,0,0,0,0,0,0,0
0.75586,0.75586,0.75781,0.75781,0.75781,0.75781,0.75586,0.75586,0.75586,0.75781,0.75586,0.75586,0.7544,0.75635,0.75635,0.75635,0.75635,0.75635,0.75635,0.75781,0.75635,0.75635,0.75635,0.75635,0.75635,0.75635,0.75635,0.75635,0.75635,0.75635,0.75635,0.75635,0.75635,0.75635,0.75635,0.75781,0.75977,0.76123,0.76318,0.76465,0.76465,0.7666,0.76465,0.7666,0.7666,0.76465,0.76465,0.76465,0.76465,0.76465,0.76318,0.76318,0.76318,0.76318,0.76318,0.76318,0.76318,0.76465,0.76318,0.76465,0.76318,0.76318,0.76318,0.76123,0.76123,0.75977,0.75977,0.75977,0.75977,0.75977,0.75781,0.75781,0.75781,0.75781,0.75635,0.75635,0.75488,0.75488,0.75488,0.75488,0.75293,0.75293,0.75293,0.75293,0.75293,0.75293,0.75293,0.75293,0.75293,0.75293,0.75293,0.75147,0.75147,0.75147,0.75147,0.75,0.75147,0.75147,0.75,0.75,0.74805,0.74805,0.74805,0.74658,0.74658,0.74658,0.74658,0.74658,0.74512,0.74512,0.74512,0.74512,0.74512,0.74512,0.74512,0.74512,0.74512,0.74512,0.74512,0.74316,0.74316,0.7417,0.7417,0.7417,0.7417,0.74023,0.74023,0.74023,0.74023,0.74023,0.74023,0.74023,0.74023,0.74023,0.74023,0.73877,0.73877,0.73877,0.73877,0.73877,0.73682,0.73682,0.73535,0.73535,0.73535,0.73535,0.73535,0.73535,0.73389,0.73389,0.73389,0.73389,0.73389,0.73389,0.73389,0.73242,0.73389,0.73389,0.73389,0.73242,0.73242,0.73242,0.73047,0.73096,0.73096,0.729,0.729,0.72754,0.72607,0.72461,0.72754,0.72607,0.72607,0.72461,0,0,0,0,0,0,0,0,0,0,0.69922,0.69922,0.69922,0.69922,0.69922,0.69922,0.69922,0.69922,0.69922,0.69922,0.70068,0.70068,0.70068,0.69922,0.69922,0.69922,0.69922,0,0.71533,0,0.71533,0.71728,0.71728,0.71728,0.71728,0.71728,0.71533,0.71728,0.71728,0.71533,0.71533,0.71533,0.71582,0.71582,0.71582,0.71582,0.71582,0.71582,0.71582,0.71387,0.71435,0.71435,0.71435,0.71435,0.71435,0.71435,0.71435,0.71435,0.71435,0.71435,0.71435,0.71289,0.71289,0.71289,0.71289,0.71289,0.71289,0.71289,0.71289,0.71289,0.71289,0.71289,0.71289,0.71289,0.71289,0.71143,0.71143,0.71143,0.70996,0.70996,0.70996,0.70996,0.7085,0.7085,0.7085,0.70996,0.70996,0.70996,0.70996,0.70996,0.70996,0.7085,0.7085,0.7085,0.7085,0.7085,0.7085,0.7085,0.7085,0.7085,0.7085,0.7085,0.7085,0.7085,0.7085,0.7085,0.7085,0.7085,0.7085,0.7085,0.70996,0.70996,0.70996,0,0,0,0,0,0,0,0,0,1.0264,1.0264,1.0234,1.0234,1.0234,1.0234,1.0234,1.0234,1.0234,1.0234,1.0234,1.0234,1.0234,1.0205,1.0205,1.0205,1.0205,1.0176,1.0176,1.0176,1.0176,1.0176,1.0146,1.0146,1.0146,1.0146,1.0146,1.0146,1.0146,1.0146,1.0117,1.0117,1.0117,1.0117,1.0088,1.0049,1.0049,1.0049,1.002,1.002,1.002,0,0,0,0.86279,0.854,0.85205,0.84766,0.84766,0.84375,0.83935,0.83105,0.8252,0.82324,0.81934,0.81934,0.81738,0.81348,0.81152,0.80957,0.80566,0.80566,0.80371,0.80029,0.79834,0.79639,0.79639,0.79443,0.79248,0.79102,0.78906,0.78711,0.78565,0.78565,0.78369,0.78369,0.78369,0.78369,0.78369,0.78174,0.78027,0.78027,0.77832,0.77832,0.77637,0.77637,0.77637,0.7749,0.7749,0.7749,0.77295,0.77295,0.7749,0.7749,0.7749,0.77637,0.77637,0.7749,0.77637,0.77637,0.77637,0.77637,0.77832,0.77832,0.77832,0.78174,0.78369,0.78906,0,0,0,0,0,0,0,0,1.3115,0,0,0,0,0,0,0,0,0,0,0,0,0,0,0,0,0,0,0,0,0,0,0,0,0,0,0,0,0,0,0,0,0,0
0.7544,0.75586,0.75586,0.75586,0.75635,0.75781,0.7544,0.7544,0.7544,0.75635,0.75635,0.7544,0.7544,0.75635,0.7544,0.7544,0.75635,0.7544,0.75635,0.75635,0.75635,0.75635,0.7544,0.7544,0.75635,0.75635,0.75635,0.75635,0.7544,0.75635,0.75635,0.75635,0.75635,0.75635,0.75635,0.75781,0.75977,0.76123,0.76318,0.76465,0.76465,0.76465,0.76465,0.76465,0.76465,0.76465,0.76465,0.76318,0.76318,0.76318,0.76318,0.76318,0.76123,0.76123,0.76123,0.76123,0.76123,0.76318,0.76123,0.76123,0.76123,0.76123,0.75977,0.75977,0.75977,0.75977,0.75977,0.75781,0.75781,0.75781,0.75781,0.75781,0.75781,0.75635,0.75488,0.75488,0.75293,0.75293,0.75488,0.75293,0.75293,0.75293,0.75293,0.75293,0.75293,0.75293,0.75147,0.75147,0.75147,0.75147,0.75147,0.75147,0.75147,0.75147,0.75147,0.74805,0.74805,0.74805,0.74805,0.74658,0.74658,0.74658,0.74658,0.74658,0.74658,0.74512,0.74512,0.74512,0.74512,0.74512,0.74512,0.74316,0.74316,0.74512,0.74512,0.74316,0.74316,0.74316,0.74316,0.7417,0.7417,0.7417,0.74023,0.74023,0.74023,0.74023,0.74023,0.74023,0.74023,0.74023,0.74023,0.73877,0.73877,0.73877,0.73877,0.73877,0.73682,0.73682,0.73682,0.73682,0.73535,0.73535,0.73535,0.73535,0.73535,0.73535,0.73389,0.73389,0.73389,0.73389,0.73389,0.73242,0.73242,0.73242,0.73242,0.73242,0.73242,0.73096,0.73242,0.73096,0.73096,0.729,0.729,0.729,0.729,0.729,0.72754,0.72754,0.72607,0.72461,0.72461,0.72461,0.72461,0.72461,0.72461,0.72461,0,0,0,0,0,0,0,0,0,0,0.7168,0.69922,0.69922,0.69922,0.69922,0.69922,0.69922,0.69922,0.70068,0.70068,0.70068,0.70068,0.70068,0.70068,0.70068,0.70068,0,0,0,0.71728,0.71728,0.71728,0.71728,0.71582,0.71582,0.71582,0.71582,0.71582,0.71582,0.71582,0.71435,0.71582,0.71582,0.71582,0.71582,0.71435,0.71435,0.71435,0.71435,0.71289,0.71289,0.71435,0.71435,0.71435,0.71435,0.71435,0.71289,0.71289,0.71289,0.71289,0.71289,0.71289,0.71289,0.71289,0.71289,0.71289,0.71289,0.71289,0.71289,0.71289,0.71289,0.71289,0.71143,0.71143,0.70996,0.70996,0.7085,0.7085,0.7085,0.7085,0.7085,0.7085,0.7085,0.7085,0.70996,0.70996,0.7085,0.7085,0.7085,0.7085,0.7085,0.7085,0.7085,0.7085,0.7085,0.7085,0.7085,0.7085,0.7085,0.7085,0.7085,0.7085,0.7085,0.7085,0.7085,0.7085,0.7085,0.7085,0.70996,0.70996,0,0,0,0,0,0,0,1.0264,1.0264,1.0264,1.0264,1.0264,1.0234,1.0234,1.0234,1.0234,1.0234,1.0234,1.0234,1.0234,1.0234,1.0234,1.0234,1.0205,1.0205,1.0176,1.0176,1.0176,1.0176,1.0176,1.0176,1.0176,1.0146,1.0146,1.0146,1.0146,1.0146,1.0146,1.0146,1.0117,1.0117,1.0117,1.0117,1.0088,1.0088,1.0059,1.0029,1.0029,1.0029,1.0029,0.99951,0,0,0,0.86084,0.8584,0.854,0.8501,0.8501,0.84766,0.8418,0.83154,0.82715,0.82324,0.82129,0.81934,0.81738,0.81543,0.81348,0.81152,0.80957,0.80762,0.80371,0.80371,0.79834,0.79639,0.79639,0.79443,0.79297,0.79297,0.79102,0.79102,0.78906,0.78711,0.78565,0.78565,0.78565,0.78369,0.78369,0.78369,0.78174,0.78174,0.78027,0.78027,0.77832,0.77832,0.77637,0.77637,0.77637,0.7749,0.7749,0.7749,0.7749,0.77637,0.77637,0.77637,0.77637,0.77637,0.77685,0.77685,0.77832,0.77685,0.78027,0.78027,0.78369,0.7876,0.79102,0.79834,0,0,0,0,0,0,0,0,1.3174,1.3174,0,0,0,0,0,0,0,0,0,0,0,0,0,0,0,0,0,0,0,0,0,0,0,0,0,0,0,0,0,0,0,0,0
0.7544,0.75293,0.75293,0.75293,0.75293,0.7544,0.75293,0.75293,0.75293,0.75635,0.75635,0.75293,0.75293,0.75293,0.75293,0.7544,0.7544,0.7544,0.7544,0.75635,0.75635,0.75635,0.7544,0.7544,0.7544,0.7544,0.7544,0.7544,0.7544,0.7544,0.75635,0.75635,0.75635,0.75781,0.75781,0.75781,0.76123,0.76123,0.76318,0.76318,0.76318,0.76465,0.76465,0.76465,0.76465,0.76465,0.76318,0.76318,0.76318,0.76318,0.76123,0.76123,0.76123,0.75977,0.75977,0.75977,0.75977,0.76123,0.75977,0.75977,0.75977,0.75977,0.75977,0.75977,0.75781,0.75781,0.75781,0.75781,0.7583,0.7583,0.7583,0.75635,0.75635,0.75488,0.75488,0.75293,0.75293,0.75293,0.75293,0.75293,0.75293,0.75147,0.75147,0.75147,0.75147,0.75147,0.75147,0.75147,0.75147,0.75147,0.75147,0.75147,0.75,0.74805,0.74805,0.74658,0.74658,0.74658,0.74658,0.74658,0.74658,0.74512,0.74512,0.74512,0.74512,0.74512,0.74512,0.74316,0.74316,0.74316,0.74316,0.7417,0.7417,0.74316,0.7417,0.7417,0.7417,0.7417,0.7417,0.7417,0.74023,0.74023,0.74023,0.74023,0.74023,0.73877,0.73877,0.73877,0.73877,0.73877,0.73877,0.73682,0.73682,0.73682,0.73682,0.73682,0.73535,0.73535,0.73535,0.73535,0.73535,0.73535,0.73389,0.73389,0.73389,0.73389,0.73389,0.73389,0.73389,0.73242,0.73242,0.73242,0.73242,0.73096,0.73096,0.73096,0.73096,0.73096,0.73096,0.73096,0.729,0.729,0.729,0.729,0.729,0.72754,0.72754,0.72607,0.72461,0.72315,0.72461,0.72461,0.72461,0.72461,0.72461,0.72461,0.72461,0.72461,0,0,0,0,0,0,0,0,0.7168,0,0.71875,0.7168,0.71875,0.71875,0.72022,0.71875,0.70215,0.70215,0.70215,0.70215,0,0.71094,0.71094,0.71582,0,0.71728,0.71582,0.71728,0.71728,0.71728,0.71728,0.71582,0.71582,0.71582,0.71582,0.71582,0.7124,0.71435,0.71435,0.71289,0.71435,0.71289,0.71435,0.71289,0.71289,0.71289,0.71289,0.71289,0.71289,0.71435,0.71435,0.71289,0.71289,0.71289,0.71289,0.71289,0.71289,0.71289,0.71289,0.71289,0.71289,0.71143,0.71143,0.71289,0.71143,0.71289,0.71289,0.71289,0.71143,0.71143,0.71143,0.71143,0.70996,0.70996,0.7085,0.7085,0.7085,0.7085,0.7085,0.7085,0.7085,0.7085,0.7085,0.7085,0.7085,0.7085,0.7085,0.7085,0.7085,0.7085,0.7085,0.7085,0.7085,0.7085,0.7085,0.7085,0.7085,0.7085,0.7085,0.7085,0.7085,0.7085,0.7085,0.7085,0.7085,0.7085,0,0,0,0,0,0,0,0,1.0264,1.0264,1.0264,1.0264,1.0264,1.0264,1.0264,1.0234,1.0234,1.0234,1.0234,1.0234,1.0234,1.0234,1.0234,1.0205,1.0205,1.0205,1.0205,1.0176,1.0176,1.0176,1.0146,1.0146,1.0146,1.0146,1.0146,1.0146,1.0146,1.0146,1.0146,1.0146,1.0117,1.0117,1.0117,1.0117,1.0088,1.0088,1.0059,1.0029,1.0029,1.0029,0.99951,0.99951,0.99951,0,0,0,0.86084,0.8584,0.85645,0.85205,0.85449,0.84766,0.84375,0.8335,0.8291,0.8252,0.82324,0.82129,0.81934,0.81543,0.81543,0.81348,0.81152,0.81152,0.80566,0.80566,0.80225,0.79834,0.79834,0.79639,0.79639,0.79443,0.79297,0.79297,0.79102,0.78906,0.78711,0.78711,0.78711,0.78565,0.78565,0.78369,0.78369,0.78369,0.78369,0.78174,0.78027,0.78027,0.77832,0.77832,0.77832,0.77637,0.77637,0.77685,0.77832,0.77832,0.77832,0.77832,0.77832,0.77685,0.77832,0.78027,0.78027,0.78027,0.78223,0.78369,0.79102,0.79102,0.79834,0.80029,0,0,0,0,0,0,0,0,1.3174,1.3174,0,0,0,0,0,0,0,0,0,0,0,0,0,0,0,0,0,0,0,0,0,0,0,0,0,0,0,0,0,0,0,0,0
0.75635,0.75098,0.75098,0.75293,0.75293,0.75293,0.75098,0.75098,0.75098,0.75293,0.75293,0.75098,0.75098,0.75098,0.75098,0.75098,0.75293,0.75293,0.75293,0.7544,0.7544,0.7544,0.7544,0.75293,0.7544,0.7544,0.7544,0.75293,0.75293,0.7544,0.75635,0.75635,0.75635,0.75781,0.75781,0.75781,0.76123,0.76123,0.76318,0.76318,0.76318,0.76318,0.76318,0.76123,0.76123,0.76123,0.76123,0.76123,0.76123,0.76123,0.75977,0.75781,0.75977,0.75977,0.75977,0.75977,0.75781,0.75977,0.75977,0.75977,0.75977,0.75781,0.7583,0.7583,0.7583,0.75635,0.75635,0.75635,0.7583,0.75635,0.75635,0.75488,0.75488,0.75488,0.75293,0.75293,0.75147,0.75147,0.75147,0.75147,0.75147,0.75147,0.75147,0.75147,0.75147,0.75147,0.75147,0.75,0.75147,0.75147,0.75,0.75,0.75,0.74658,0.74658,0.74658,0.74512,0.74512,0.74512,0.74512,0.74512,0.74512,0.74512,0.74316,0.74316,0.74316,0.74316,0.74316,0.7417,0.7417,0.7417,0.74023,0.74023,0.7417,0.7417,0.74023,0.7417,0.7417,0.7417,0.74023,0.74023,0.74023,0.73877,0.73877,0.73877,0.73877,0.73682,0.73682,0.73682,0.73682,0.73682,0.73682,0.73682,0.73535,0.73535,0.73535,0.73535,0.73535,0.73535,0.73389,0.73389,0.73389,0.73389,0.73389,0.73389,0.73389,0.73389,0.73242,0.73242,0.73242,0.73096,0.73096,0.73096,0.73096,0.73096,0.729,0.729,0.729,0.729,0.729,0.72949,0.72754,0.72754,0.72754,0.72754,0.72607,0.72607,0.72461,0.72461,0.72461,0.72461,0.72461,0.72315,0.72315,0.72315,0.72315,0.72315,0.72315,0.72168,0,0,0,0,0.72022,0.72022,0.71728,0.71728,0.71728,0.71875,0.71728,0.71875,0.71875,0.71728,0.71533,0.71582,0.7124,0.7124,0.7124,0.71387,0.71094,0.71094,0.71094,0.71582,0.71582,0.71582,0.71582,0.71728,0.71728,0.71582,0.71582,0.71582,0.71582,0.71582,0.71582,0.71289,0.71289,0.71289,0.71289,0.71289,0.71289,0.71289,0.71289,0.71289,0.71289,0.71289,0.71289,0.71143,0.71289,0.71289,0.71289,0.71289,0.71289,0.71289,0.71289,0.71289,0.71143,0.71143,0.71289,0.71143,0.71143,0.71143,0.71143,0.71143,0.70996,0.70996,0.71143,0.71143,0.71143,0.70996,0.70996,0.70996,0.70996,0.7085,0.7085,0.7085,0.7085,0.7085,0.70703,0.70703,0.7085,0.7085,0.7085,0.7085,0.7085,0.7085,0.7085,0.7085,0.7085,0.7085,0.7085,0.7085,0.7085,0.7085,0.7085,0.7085,0.70703,0.70703,0.70703,0.7085,0.7085,0.7085,0.70996,0,0,0,0,0,0,0,0,0,1.0264,1.0264,1.0264,1.0264,1.0264,1.0264,1.0264,1.0234,1.0234,1.0234,1.0205,1.0234,1.0234,1.0205,1.0205,1.0205,1.0205,1.0205,1.0176,1.0176,1.0176,1.0176,1.0146,1.0146,1.0146,1.0146,1.0146,1.0146,1.0146,1.0117,1.0117,1.0117,1.0117,1.0117,1.0117,1.0088,1.0088,1.0088,1.0088,1.0059,1.0029,1.0029,0.99951,0.99951,0.99951,0.99951,0.99951,0,0,0.86084,0.8584,0.85645,0.8501,0.85205,0.8457,0.84375,0.83545,0.83154,0.82715,0.82324,0.82324,0.82129,0.81543,0.81543,0.81348,0.81348,0.81152,0.80957,0.80566,0.80566,0.80225,0.80029,0.79834,0.79834,0.79639,0.79639,0.79443,0.79297,0.78906,0.78906,0.78906,0.78711,0.78711,0.78711,0.78565,0.78369,0.78369,0.78369,0.78369,0.78174,0.78174,0.78174,0.78174,0.78174,0.78027,0.78027,0.77832,0.78027,0.77832,0.78027,0.78027,0.78027,0.77832,0.78223,0.78027,0.78223,0.78223,0.78565,0.78906,0.79297,0.79102,0.79834,0.80029,0,0,0,0,0,0,0,0,1.3174,0,0,0,0,0,0,0,0,0,0,0,0,0,0,0,0,0,0,0,0,0,0,0,0,0,0,0,0,0,0,0,0,0,0
0.75098,0.75098,0.75098,0.75098,0.75098,0.75098,0.75098,0.75098,0.75098,0.75098,0.75098,0.75098,0.75098,0.75147,0.75147,0.75147,0.75147,0.75147,0.75147,0.75293,0.75293,0.75293,0.75293,0.75293,0.75293,0.7544,0.7544,0.75293,0.75293,0.75293,0.7544,0.75635,0.75781,0.75781,0.75977,0.75977,0.76123,0.76123,0.76123,0.76123,0.76123,0.76123,0.76123,0.75977,0.75977,0.75977,0.75977,0.7583,0.7583,0.7583,0.7583,0.7583,0.7583,0.7583,0.75635,0.75635,0.75635,0.7583,0.7583,0.7583,0.75635,0.75635,0.75635,0.75488,0.75635,0.75635,0.75488,0.75488,0.75488,0.75488,0.75488,0.75293,0.75293,0.75293,0.75293,0.75147,0.75147,0.75147,0.75147,0.75147,0.75147,0.75,0.75,0.75,0.75,0.75,0.75,0.74805,0.74805,0.75147,0.75,0.74805,0.74658,0.74658,0.74658,0.74512,0.74512,0.74512,0.74512,0.74512,0.74512,0.74512,0.74316,0.74316,0.74316,0.74316,0.74316,0.7417,0.74023,0.74023,0.74023,0.74023,0.74023,0.7417,0.74023,0.74023,0.74023,0.74023,0.74023,0.73877,0.73877,0.73877,0.73877,0.73877,0.73682,0.73682,0.73682,0.73682,0.73535,0.73682,0.73535,0.73535,0.73535,0.73535,0.73535,0.73535,0.73389,0.73389,0.73389,0.73389,0.73389,0.73242,0.73242,0.73242,0.73242,0.73242,0.73242,0.73096,0.73096,0.73096,0.729,0.729,0.72949,0.72949,0.72949,0.72949,0.72949,0.72754,0.72754,0.72754,0.72754,0.72754,0.72754,0.72754,0.72754,0.72607,0.72607,0.72461,0.72461,0.72315,0.72461,0.72315,0.72315,0.72315,0.72315,0.72315,0.72315,0.72315,0.72168,0.72168,0.72022,0.71875,0.71875,0.71875,0.71875,0.71728,0.71728,0.71728,0.71875,0.71728,0.71728,0.71728,0.71728,0.71582,0.71582,0.71582,0.7124,0.7124,0.71435,0.7124,0.7124,0.7124,0.71582,0.71728,0.71728,0.71728,0.71728,0.71728,0.71582,0.71582,0.71582,0.71582,0.71582,0.71289,0.71289,0.71289,0.71289,0.71289,0.71289,0.71289,0.71289,0.71143,0.71143,0.71143,0.71143,0.71143,0.71143,0.71289,0.71289,0.71289,0.71289,0.71289,0.71143,0.71143,0.71143,0.71143,0.71143,0.71143,0.70996,0.70996,0.70996,0.70996,0.70996,0.70996,0.70996,0.70996,0.70996,0.70996,0.70996,0.70996,0.7085,0.7085,0.7085,0.7085,0.7085,0.7085,0.7085,0.7085,0.7085,0.7085,0.7085,0.7085,0.7085,0.7085,0.7085,0.7085,0.7085,0.7085,0.7085,0.7085,0.7085,0.7085,0.7085,0.7085,0.70703,0.70703,0.70703,0.70703,0.70703,0.7085,0.70996,0,0,0,0,0,0,0,1.0176,1.0205,1.0234,1.0264,1.0264,1.0264,1.0264,1.0234,1.0234,1.0234,1.0234,1.0205,1.0205,1.0205,1.0176,1.0176,1.0176,1.0176,1.0176,1.0176,1.0176,1.0176,1.0146,1.0146,1.0146,1.0146,1.0146,1.0146,1.0146,1.0146,1.0146,1.0117,1.0117,1.0117,1.0088,1.0117,1.0088,1.0088,1.0059,1.0088,1.0059,1.0059,1.0029,1.0029,0.99951,0.99951,0.99951,0.99951,1.0029,0.99951,0,0,0.86719,0.8584,0.85645,0.8501,0.8501,0.84815,0.84375,0.8374,0.8335,0.82959,0.82764,0.82764,0.82764,0.82324,0.81934,0.81543,0.81543,0.81348,0.81348,0.81152,0.81152,0.80957,0.8042,0.8042,0.80225,0.80029,0.79834,0.79639,0.79492,0.79102,0.79102,0.78906,0.78906,0.78906,0.78906,0.7876,0.7876,0.78565,0.78565,0.78565,0.78369,0.78369,0.78369,0.78369,0.78223,0.78223,0.78223,0.78027,0.78223,0.78223,0.78223,0.78223,0.78223,0.78369,0.78369,0.78369,0.78565,0.78369,0.79102,0.79688,0.79688,0.79492,0.80029,0.80029,0,0,0,0,0,0,0,0,1.3174,0,0,0,0,0,0,0,0,0,0,0,0,0,0,0,0,0,0,0,0,0,0,0,0,0,0,0,0,0,0,0,0,0,0
0.75098,0.74951,0.75098,0.75098,0.75098,0.75147,0.75147,0.75147,0.74951,0.75147,0.74951,0.74951,0.74951,0.74951,0.75147,0.74951,0.75147,0.74951,0.74951,0.75147,0.74951,0.75147,0.75147,0.75147,0.75147,0.75293,0.75293,0.75147,0.75293,0.75635,0.75635,0.75635,0.75781,0.75977,0.75977,0.75977,0.76123,0.75977,0.75977,0.75977,0.75977,0.75977,0.75977,0.7583,0.7583,0.7583,0.7583,0.7583,0.7583,0.7583,0.75635,0.75635,0.75635,0.75635,0.75635,0.75635,0.75635,0.75635,0.75635,0.75635,0.75635,0.75488,0.75488,0.75488,0.75293,0.75293,0.75293,0.75293,0.75293,0.75293,0.75293,0.75147,0.75147,0.75147,0.75,0.75,0.75147,0.75147,0.75,0.75,0.75,0.75,0.75,0.75,0.75,0.75,0.74658,0.74658,0.74658,0.74658,0.74805,0.74658,0.74658,0.74512,0.74512,0.74512,0.74512,0.74512,0.74512,0.74512,0.74316,0.74316,0.7417,0.7417,0.7417,0.74023,0.7417,0.74023,0.74023,0.74023,0.73877,0.74023,0.74023,0.74023,0.74023,0.74023,0.74023,0.73877,0.73877,0.73682,0.73682,0.73682,0.73682,0.73682,0.73535,0.73535,0.73535,0.73535,0.73535,0.73535,0.73535,0.73535,0.73535,0.73535,0.73389,0.73389,0.73389,0.73389,0.73389,0.73389,0.73389,0.73242,0.73242,0.73242,0.73242,0.73242,0.73096,0.73096,0.73096,0.72949,0.72949,0.72949,0.72754,0.72754,0.72754,0.72754,0.72754,0.72754,0.72754,0.72754,0.72607,0.72607,0.72607,0.72607,0.72461,0.72461,0.72461,0.72461,0.72315,0.72315,0.72315,0.72315,0.72315,0.72315,0.72315,0.72315,0.72168,0.72168,0.72168,0.72168,0.72022,0.72022,0.71875,0.71875,0.71875,0.71728,0.71728,0.71728,0.71728,0.71582,0.71582,0.71582,0.71435,0.71582,0.71582,0.71435,0.71435,0.71435,0.71435,0.71435,0.71289,0.71289,0.71582,0.71582,0.71582,0.71582,0.71582,0.71582,0.71582,0.71582,0.71435,0.71435,0.71289,0.71289,0.71143,0.71143,0.71143,0.71143,0.71143,0.71143,0.71143,0.71143,0.71143,0.71143,0.71143,0.71143,0.71143,0.71289,0.71143,0.71143,0.71143,0.71143,0.71143,0.70996,0.70996,0.70996,0.70996,0.70996,0.70996,0.70996,0.7085,0.70996,0.70996,0.7085,0.7085,0.70996,0.7085,0.7085,0.7085,0.7085,0.7085,0.7085,0.7085,0.7085,0.7085,0.7085,0.7085,0.7085,0.7085,0.7085,0.7085,0.7085,0.7085,0.7085,0.7085,0.7085,0.7085,0.7085,0.7085,0.7085,0.7085,0.70703,0.7085,0.7085,0.70703,0,0,0,0,0,0,0,0,0,1.0176,1.0176,1.0176,1.0176,1.0176,1.0205,1.0234,1.0234,1.0234,1.0234,1.0234,1.0234,1.0234,1.0205,1.0205,1.0176,1.0176,1.0176,1.0146,1.0176,1.0146,1.0146,1.0146,1.0176,1.0146,1.0146,1.0146,1.0146,1.0146,1.0117,1.0117,1.0146,1.0146,1.0146,1.0117,1.0117,1.0117,1.0088,1.0088,1.0088,1.0059,1.0059,1.0059,1.0059,1.0029,1.0029,1.0029,1.0029,0.99951,0.99951,0.99951,0.99951,1.0029,1.0029,0,0,0.86719,0.86084,0.85889,0.85645,0.85889,0.85205,0.8457,0.8374,0.83545,0.8335,0.82959,0.82959,0.82764,0.82764,0.82129,0.81934,0.81738,0.81543,0.81348,0.81152,0.81152,0.81006,0.80615,0.80615,0.8042,0.80029,0.80029,0.79834,0.79639,0.79297,0.79102,0.79102,0.78906,0.78906,0.78906,0.78906,0.78906,0.78906,0.78906,0.78906,0.7876,0.7876,0.7876,0.7876,0.78565,0.78369,0.78369,0.78369,0.78369,0.78369,0.78369,0.78369,0.78369,0.7876,0.78565,0.78955,0.79102,0.79492,0.79834,0.79883,0.79883,0.79883,0.79883,0.80225,0,0,0,0,0,0,0,0,1.3174,0,0,0,0,0,0,0,0,0,0,0,0,0,0,0,0,0,0,0,0,0,0,0,0,0,0,0,0,0,0,0,0,0,0
0.75147,0.74951,0.75147,0.75147,0.74951,0.75147,0.74951,0.74951,0.74951,0.74951,0.74951,0.74951,0.74951,0.74951,0.74951,0.74951,0.74951,0.74951,0.74951,0.74951,0.74951,0.74951,0.74951,0.74951,0.75147,0.75147,0.75147,0.75293,0.75488,0.75635,0.75781,0.75781,0.75977,0.75977,0.75977,0.75977,0.75977,0.75977,0.75977,0.75977,0.7583,0.7583,0.7583,0.7583,0.75635,0.75635,0.75635,0.75635,0.75635,0.75635,0.75635,0.75635,0.75488,0.75488,0.75488,0.75488,0.75488,0.75635,0.75635,0.75488,0.75488,0.75488,0.75293,0.75293,0.75293,0.75293,0.75293,0.75147,0.75147,0.75147,0.75147,0.75147,0.75147,0.75,0.75,0.74805,0.75,0.74805,0.74805,0.74658,0.74658,0.74658,0.74658,0.74658,0.74658,0.74658,0.74512,0.74512,0.74658,0.74658,0.74512,0.74512,0.74512,0.74512,0.74512,0.74512,0.74316,0.74316,0.74365,0.74365,0.7417,0.7417,0.74023,0.74023,0.74023,0.74023,0.74023,0.74023,0.74023,0.73877,0.73877,0.73877,0.73877,0.74023,0.74023,0.73877,0.73877,0.73877,0.73682,0.7373,0.7373,0.73535,0.73535,0.73535,0.73535,0.73535,0.73535,0.73535,0.73535,0.73535,0.73389,0.73389,0.73389,0.73389,0.73242,0.73242,0.73242,0.73242,0.73242,0.73242,0.73242,0.73096,0.73096,0.73096,0.73096,0.72949,0.72949,0.72949,0.72949,0.72754,0.72754,0.72754,0.72754,0.72754,0.72754,0.72754,0.72754,0.72607,0.72607,0.72607,0.72607,0.72461,0.72461,0.72461,0.72315,0.72315,0.72315,0.72315,0.72315,0.72168,0.72315,0.72315,0.72315,0.72315,0.72315,0.72315,0.72168,0.72168,0.72168,0.72168,0.72022,0.72022,0.71875,0.71875,0.71875,0.71728,0.71728,0.71728,0.71728,0.71582,0.71582,0.71435,0.71435,0.71582,0.71582,0.71435,0.71435,0.71435,0.71435,0.71435,0.71435,0.71435,0.71582,0.71582,0.71582,0.71435,0.71435,0.71435,0.71435,0.71435,0.71289,0.71289,0.71289,0.71143,0.71143,0.71143,0.71143,0.71143,0.71143,0.71143,0.71143,0.70996,0.70996,0.70996,0.70996,0.70996,0.70996,0.71143,0.71143,0.71143,0.71143,0.70996,0.70996,0.70996,0.70996,0.70996,0.70996,0.70996,0.70996,0.7085,0.7085,0.7085,0.7085,0.7085,0.7085,0.7085,0.7085,0.7085,0.7085,0.7085,0.7085,0.7085,0.7085,0.70703,0.70703,0.70703,0.70703,0.70703,0.70703,0.7085,0.7085,0.7085,0.7085,0.7085,0.7085,0.7085,0.7085,0.7085,0.70703,0.70703,0.70703,0,0,0,0,0,0,0,0,0,0,0,1.0176,1.0176,1.0205,1.0205,1.0205,1.0205,1.0205,1.0205,1.0234,1.0234,1.0234,1.0234,1.0234,1.0234,1.0205,1.0205,1.0176,1.0176,1.0146,1.0146,1.0146,1.0146,1.0146,1.0146,1.0146,1.0146,1.0146,1.0146,1.0146,1.0117,1.0117,1.0117,1.0117,1.0117,1.0117,1.0117,1.0088,1.0117,1.0088,1.0088,1.0059,1.0059,1.0059,1.0059,1.0029,1.0029,1.0029,1.0029,1.0029,0.99951,0.99951,0.99951,0.99951,0.99951,1.0029,1.0029,0,0,0,0.86084,0.85889,0.85889,0.86084,0.85645,0.8501,0.83984,0.83789,0.83545,0.83154,0.82959,0.82764,0.82568,0.82129,0.82178,0.81934,0.81543,0.81348,0.81348,0.81201,0.81201,0.80615,0.80615,0.8042,0.80225,0.80029,0.80029,0.79834,0.79688,0.79492,0.79297,0.79102,0.79102,0.79102,0.79102,0.79102,0.78955,0.78955,0.78955,0.78955,0.78955,0.78955,0.78955,0.7876,0.78955,0.7876,0.78955,0.78955,0.78955,0.78955,0.7876,0.79102,0.79297,0.79492,0.79492,0.79688,0.79688,0.80029,0.80029,0.80029,0.80029,0.80029,0.8042,0,0,0,0,0,0,0,1.3125,1.3125,0,0,0,0,0,0,0,0,0,0,0,0,0,0,0,0,0,0,0,0,0,0,0,0,0,0,0,0,0,0,0,0,0,0
0.74951,0.74951,0.74951,0.74951,0.74951,0.74951,0.74951,0.74951,0.74951,0.74951,0.74951,0.74805,0.74951,0.74951,0.74951,0.74951,0.74951,0.74805,0.74805,0.74951,0.74951,0.74951,0.74951,0.74951,0.75147,0.75147,0.75147,0.75488,0.75635,0.7583,0.7583,0.75977,0.75977,0.75977,0.75977,0.75977,0.7583,0.7583,0.7583,0.7583,0.7583,0.7583,0.7583,0.75635,0.75635,0.75635,0.75635,0.75635,0.75635,0.75488,0.75488,0.75488,0.75293,0.75293,0.75293,0.75293,0.75293,0.75488,0.75488,0.75488,0.75293,0.75342,0.75342,0.75342,0.75147,0.75147,0.75147,0.75147,0.75147,0.75147,0.75147,0.75,0.75,0.75,0.74805,0.74805,0.74805,0.74658,0.74658,0.74658,0.74658,0.74658,0.74512,0.74512,0.74512,0.74512,0.74512,0.74512,0.74365,0.7417,0.74365,0.7417,0.7417,0.74365,0.74365,0.74365,0.7417,0.74365,0.74365,0.7417,0.7417,0.74023,0.74023,0.74023,0.74023,0.74023,0.73877,0.73877,0.73877,0.73877,0.73877,0.73877,0.73877,0.73877,0.73877,0.73877,0.7373,0.7373,0.73535,0.73535,0.73535,0.73535,0.73535,0.73535,0.73535,0.73535,0.73389,0.73535,0.73389,0.73389,0.73389,0.73389,0.73389,0.73242,0.73242,0.73242,0.73096,0.73096,0.73096,0.73096,0.73096,0.72949,0.72949,0.72949,0.72949,0.72754,0.72754,0.72754,0.72754,0.72754,0.72754,0.72607,0.72607,0.72607,0.72607,0.72607,0.72607,0.72607,0.72461,0.72461,0.72461,0.72461,0.72315,0.72315,0.72315,0.72315,0.72315,0.72168,0.72168,0.72168,0.72315,0.72168,0.72168,0.72168,0.72168,0.72168,0.72168,0.72168,0.72022,0.72022,0.72022,0.72022,0.71875,0.71875,0.71875,0.71728,0.71728,0.71728,0.71582,0.71582,0.71582,0.71435,0.71435,0.71435,0.71435,0.71435,0.71289,0.71289,0.71289,0.71435,0.71289,0.71289,0.71289,0.71289,0.71289,0.71289,0.71289,0.71143,0.71143,0.71289,0.71289,0.71143,0.71143,0.71143,0.71143,0.71143,0.71143,0.71143,0.71143,0.70996,0.70996,0.70996,0.7085,0.7085,0.70996,0.70996,0.70996,0.70996,0.70996,0.70996,0.70996,0.70996,0.70996,0.70996,0.70996,0.7085,0.70996,0.7085,0.7085,0.7085,0.7085,0.7085,0.7085,0.7085,0.7085,0.7085,0.7085,0.7085,0.7085,0.7085,0.7085,0.7085,0.7085,0.7085,0.7085,0.7085,0.70703,0.70703,0.7085,0.7085,0.7085,0.7085,0.7085,0.7085,0.7085,0.7085,0.7085,0.7085,0.70703,0.70703,0,0,0,0,0,0,0,0,1.0176,1.0176,1.0176,1.0205,1.0176,1.0205,1.0205,1.0205,1.0205,1.0205,1.0205,1.0205,1.0234,1.0234,1.0234,1.0234,1.0234,1.0234,1.0205,1.0176,1.0176,1.0176,1.0146,1.0146,1.0146,1.0146,1.0146,1.0146,1.0146,1.0146,1.0117,1.0117,1.0117,1.0117,1.0088,1.0088,1.0088,1.0088,1.0088,1.0059,1.0059,1.0059,1.0059,1.0059,1.0029,1.0029,1.0029,1.0029,1.0029,1.0029,1.0029,1.0029,1.0029,0.99951,0.99951,0.99951,0.99951,1,1.0029,1.0029,0,0,0,0.86084,0.85889,0.85889,0.86084,0.85645,0.85449,0.8418,0.83789,0.83545,0.8335,0.8335,0.82959,0.82959,0.82764,0.82373,0.81982,0.81787,0.81592,0.81397,0.81397,0.81201,0.81006,0.81006,0.80615,0.8042,0.80225,0.80225,0.80029,0.79834,0.79688,0.79688,0.79297,0.79297,0.79297,0.79297,0.79297,0.79102,0.79102,0.78955,0.78955,0.79102,0.79102,0.79102,0.78955,0.78955,0.78955,0.79102,0.79102,0.78955,0.79102,0.79102,0.79492,0.79688,0.79883,0.79883,0.80078,0.80078,0.80225,0.80225,0.80225,0.80225,0.80225,0.80615,0,0,0,0,0,0,0,1.3066,1.3125,0,0,0,0,0,0,0,0,0,0,0,0,0,0,0,0,0,0,0,0,0,0,0,0,0,0,0,0,0,0,0,0,0,0
0.75147,0.74951,0.74951,0.74951,0.74951,0.74951,0.74805,0.74805,0.74805,0.74805,0.74805,0.74658,0.74805,0.74658,0.74805,0.74805,0.74805,0.74658,0.74658,0.74805,0.74805,0.74951,0.74951,0.74951,0.75147,0.75147,0.75293,0.75488,0.75635,0.7583,0.7583,0.75977,0.75977,0.75977,0.75977,0.75977,0.7583,0.7583,0.7583,0.7583,0.7583,0.75635,0.75635,0.75635,0.75635,0.75635,0.75488,0.75488,0.75488,0.75293,0.75293,0.75293,0.75147,0.75147,0.75147,0.75147,0.75147,0.75342,0.75342,0.75342,0.75342,0.75342,0.75147,0.75147,0.75147,0.75147,0.75147,0.75,0.75,0.75,0.75,0.74805,0.74805,0.74853,0.74658,0.74658,0.74658,0.74512,0.74512,0.74512,0.74512,0.74512,0.74512,0.74512,0.74512,0.74512,0.74365,0.74365,0.7417,0.7417,0.7417,0.7417,0.7417,0.7417,0.7417,0.7417,0.7417,0.7417,0.74023,0.74023,0.74023,0.74023,0.73877,0.73877,0.73877,0.73877,0.7373,0.7373,0.7373,0.7373,0.7373,0.7373,0.7373,0.7373,0.7373,0.7373,0.7373,0.73535,0.73535,0.73389,0.73535,0.73535,0.73535,0.73389,0.73389,0.73389,0.73389,0.73389,0.73242,0.73242,0.73096,0.73242,0.73096,0.73096,0.73096,0.73096,0.73096,0.73096,0.73096,0.72949,0.72949,0.72949,0.72949,0.72949,0.72754,0.72754,0.72803,0.72803,0.72607,0.72607,0.72607,0.72461,0.72607,0.72461,0.72461,0.72461,0.72461,0.72461,0.72461,0.72461,0.72315,0.72315,0.72315,0.72315,0.72315,0.72168,0.72168,0.72168,0.72168,0.72022,0.72168,0.72022,0.72022,0.72022,0.72022,0.72022,0.72022,0.72022,0.71875,0.72022,0.71875,0.71875,0.71875,0.71728,0.71728,0.71728,0.71582,0.71582,0.71582,0.71435,0.71435,0.71435,0.71435,0.71435,0.71435,0.71435,0.71289,0.71289,0.71289,0.71289,0.71289,0.71289,0.71143,0.71143,0.71143,0.71143,0.71143,0.71143,0.71143,0.71143,0.70996,0.70996,0.70996,0.70996,0.70996,0.70996,0.71143,0.70996,0.70996,0.70996,0.70996,0.7085,0.7085,0.7085,0.70996,0.7085,0.7085,0.70996,0.70996,0.70996,0.70996,0.70996,0.70996,0.7085,0.7085,0.7085,0.7085,0.7085,0.7085,0.7085,0.7085,0.7085,0.7085,0.7085,0.70703,0.7085,0.70703,0.7085,0.70703,0.7085,0.70703,0.7085,0.7085,0.7085,0.7085,0.7085,0.70703,0.70703,0.7085,0.7085,0.7085,0.7085,0.7085,0.7085,0.7085,0.7085,0.7085,0.7085,0.70703,0,0,0,0,0,0,0,1.0176,1.0176,1.0176,1.0205,1.0205,1.0205,1.0205,1.0205,1.0205,1.0205,1.0205,1.0205,1.0205,1.0205,1.0234,1.0234,1.0205,1.0205,1.0205,1.0205,1.0176,1.0176,1.0176,1.0146,1.0146,1.0146,1.0146,1.0146,1.0146,1.0117,1.0146,1.0117,1.0117,1.0117,1.0117,1.0117,1.0088,1.0088,1.0088,1.0059,1.0059,1.0059,1.0059,1.0059,1.0059,1.0029,1.0029,1.0029,1,1,1,1,1,1,1,1,1,1,1,1,1.0029,1,0,0,0,0.86084,0.86084,0.85889,0.86084,0.85645,0.85449,0.8501,0.83984,0.83789,0.8335,0.8335,0.8335,0.83154,0.82764,0.82568,0.82178,0.82178,0.81787,0.81787,0.81592,0.81397,0.81201,0.81201,0.8081,0.80615,0.80615,0.8042,0.80225,0.80029,0.80029,0.80029,0.79883,0.79883,0.79492,0.79492,0.79492,0.79297,0.79297,0.79297,0.79102,0.79297,0.79297,0.79297,0.79102,0.79297,0.79102,0.79297,0.79297,0.79102,0.79297,0.79492,0.79688,0.79883,0.79883,0.80078,0.80078,0.80225,0.80615,0.80615,0.80615,0.8081,0.8042,0,0,0,0,0,0,0,0,1.3018,1.3018,0,0,0,0,0,0,0,0,0,0,0,0,0,0,0,0,0,0,0,0,0,0,0,0,0,0,0,0,0,0,0,0,0,0
0.74951,0.74951,0.74951,0.74951,0.74951,0.74951,0.74805,0.74805,0.74805,0.74805,0.74805,0.74658,0.74658,0.74658,0.74658,0.74658,0.74658,0.74658,0.74658,0.74658,0.74805,0.74951,0.75,0.75,0.75147,0.75293,0.75293,0.75488,0.75635,0.7583,0.7583,0.7583,0.7583,0.7583,0.7583,0.7583,0.7583,0.7583,0.7583,0.75635,0.75635,0.75635,0.75635,0.75488,0.75488,0.75488,0.75488,0.75488,0.75488,0.75342,0.75147,0.75147,0.75147,0.75147,0.75147,0.75147,0.75147,0.75147,0.75147,0.75147,0.75147,0.75147,0.75147,0.75147,0.75147,0.75,0.75,0.75,0.75,0.74853,0.74853,0.74658,0.74658,0.74658,0.74512,0.74512,0.74512,0.74512,0.74512,0.74512,0.74512,0.74512,0.74365,0.74365,0.74365,0.74365,0.7417,0.74023,0.74023,0.74023,0.74023,0.74023,0.74023,0.7417,0.7417,0.7417,0.74023,0.74023,0.74023,0.74023,0.73877,0.73877,0.73877,0.7373,0.7373,0.7373,0.7373,0.7373,0.73535,0.73535,0.73535,0.73535,0.73389,0.73535,0.73535,0.73535,0.73389,0.73389,0.73389,0.73389,0.73389,0.73389,0.73389,0.73389,0.73389,0.73242,0.73242,0.73242,0.73242,0.73096,0.73096,0.72949,0.72949,0.72949,0.72949,0.72949,0.72949,0.72949,0.72949,0.72803,0.72949,0.72803,0.72803,0.72803,0.72803,0.72607,0.72607,0.72607,0.72461,0.72461,0.72461,0.72315,0.72315,0.72315,0.72315,0.72461,0.72315,0.72315,0.72315,0.72315,0.72315,0.72315,0.72168,0.72168,0.72168,0.72168,0.72022,0.72022,0.71875,0.71875,0.72022,0.71875,0.71875,0.71875,0.71875,0.71875,0.71875,0.71875,0.71875,0.71875,0.71875,0.71875,0.71728,0.71728,0.71728,0.71582,0.71582,0.71582,0.71435,0.71435,0.71435,0.71289,0.71289,0.71289,0.71289,0.71289,0.71289,0.71289,0.71289,0.71289,0.71143,0.71143,0.71143,0.71143,0.71143,0.70996,0.70996,0.70996,0.70996,0.70996,0.70996,0.70996,0.7085,0.70996,0.70996,0.70996,0.7085,0.7085,0.7085,0.7085,0.7085,0.7085,0.7085,0.70703,0.7085,0.70703,0.7085,0.70996,0.7085,0.7085,0.7085,0.7085,0.7085,0.7085,0.7085,0.7085,0.7085,0.7085,0.7085,0.7085,0.70703,0.70703,0.70703,0.70703,0.70703,0.70703,0.70703,0.70703,0.70703,0.70703,0.70703,0.7085,0.7085,0.7085,0.7085,0.7085,0.70703,0.7085,0.7085,0.7085,0.7085,0.7085,0.7085,0.7085,0.7085,0.7085,0.70996,0,0,0,0,0,0,0,0,1.0146,1.0146,1.0146,1.0146,1.0176,1.0205,1.0176,1.0176,1.0205,1.0205,1.0205,1.0205,1.0176,1.0176,1.0176,1.0205,1.0205,1.0205,1.0176,1.0176,1.0176,1.0176,1.0146,1.0146,1.0146,1.0146,1.0117,1.0117,1.0117,1.0117,1.0117,1.0117,1.0117,1.0088,1.0088,1.0088,1.0059,1.0059,1.0059,1.0059,1.0059,1.0029,1.0029,1.0029,1.0029,1.0029,1.0029,1.0029,1,1,1,1,1,1,1,1,1,1,1,1,0.99707,0.99707,0.99414,0,0,0,0.86523,0.86084,0.85889,0.86084,0.85889,0.85449,0.85254,0.84375,0.83984,0.83594,0.83594,0.8335,0.83154,0.82959,0.82764,0.82568,0.82373,0.81982,0.81982,0.81787,0.81592,0.81397,0.81397,0.81006,0.81006,0.8081,0.8081,0.80615,0.8042,0.8042,0.80225,0.79883,0.79883,0.79688,0.79688,0.79883,0.79688,0.79688,0.79492,0.79297,0.79492,0.79492,0.79492,0.79297,0.79297,0.79297,0.79492,0.79297,0.79297,0.79492,0.79688,0.79883,0.79883,0.80078,0.80225,0.80273,0.8042,0.80615,0.8081,0.81006,0,0,0,0,0,0,0,0,1.2969,1.3027,1.3027,1.3018,0,0,0,0,0,0,0,0,0,0,0,0,0,0,0,0,0,0,0,0,0,0,0,0,0,0,0,0,0,0,0,0,0,0
0.74951,0.74658,0.74658,0.74658,0.74658,0.74805,0.74658,0.74805,0.74658,0.74658,0.74658,0.74658,0.74658,0.74658,0.74658,0.74658,0.74658,0.74463,0.74658,0.74658,0.74658,0.74805,0.74805,0.75,0.75293,0.75488,0.75488,0.75635,0.75635,0.7583,0.7583,0.7583,0.7583,0.7583,0.7583,0.7583,0.75635,0.75635,0.75635,0.75635,0.75635,0.75488,0.75488,0.75488,0.75488,0.75488,0.75342,0.75342,0.75342,0.75147,0.75147,0.75147,0.75,0.75147,0.75147,0.75,0.75,0.75147,0.75147,0.75147,0.75147,0.75,0.75,0.75,0.75,0.75,0.74853,0.74853,0.74853,0.74658,0.74658,0.74658,0.74512,0.74512,0.74512,0.74512,0.74512,0.74512,0.74512,0.74512,0.74365,0.74365,0.74365,0.74365,0.74365,0.74023,0.74023,0.74023,0.74023,0.74023,0.74023,0.74023,0.74023,0.74023,0.74023,0.74023,0.73877,0.73877,0.73877,0.73877,0.73877,0.7373,0.7373,0.7373,0.7373,0.7373,0.7373,0.73535,0.73535,0.73389,0.73389,0.73389,0.73389,0.73535,0.73584,0.73389,0.73389,0.73389,0.73389,0.73242,0.73242,0.73242,0.73242,0.73242,0.73096,0.72949,0.73096,0.73242,0.73096,0.72949,0.72949,0.72949,0.72949,0.72949,0.72803,0.72803,0.72803,0.72803,0.72803,0.72803,0.72803,0.72803,0.72803,0.72803,0.72607,0.72607,0.72607,0.72461,0.72461,0.72315,0.72315,0.72315,0.72315,0.72315,0.72315,0.72315,0.72315,0.72315,0.72315,0.72315,0.72168,0.72168,0.72168,0.72168,0.72022,0.72022,0.71875,0.71728,0.71728,0.71728,0.71875,0.71875,0.71875,0.71875,0.71875,0.71875,0.71728,0.71728,0.71728,0.71728,0.71728,0.71728,0.71728,0.71582,0.71582,0.71435,0.71435,0.71435,0.71435,0.71289,0.71289,0.71289,0.71289,0.71289,0.71289,0.71289,0.71289,0.71143,0.71143,0.71143,0.71143,0.71143,0.70996,0.70996,0.70996,0.70996,0.70996,0.70996,0.70996,0.7085,0.7085,0.7085,0.7085,0.7085,0.7085,0.7085,0.7085,0.7085,0.7085,0.70703,0.7085,0.70703,0.70703,0.70703,0.70703,0.70703,0.70703,0.7085,0.70703,0.70703,0.7085,0.70703,0.70703,0.70703,0.70703,0.70703,0.70703,0.70703,0.70703,0.70703,0.70703,0.70703,0.70703,0.70703,0.70703,0.70703,0.70703,0.70703,0.70703,0.70703,0.70703,0.7085,0.7085,0.7085,0.7085,0.7085,0.70703,0.7085,0.7085,0.7085,0.7085,0.7085,0.7085,0.70996,0.7085,0.7085,0,0,0,0,0,0,0,1.0146,1.0146,1.0117,1.0117,1.0146,1.0146,1.0146,1.0176,1.0176,1.0205,1.0205,1.0205,1.0176,1.0205,1.0176,1.0176,1.0176,1.0205,1.0205,1.0176,1.0146,1.0146,1.0146,1.0146,1.0146,1.0146,1.0117,1.0117,1.0117,1.0117,1.0117,1.0117,1.0117,1.0088,1.0088,1.0088,1.0059,1.0059,1.0059,1.0059,1.0059,1.0059,1.0029,1.0029,1.0029,1.0029,1.0029,1.0029,1,1,1,0.99707,0.99707,0.99707,0.99707,0.99707,0.99707,0.99707,0.99707,1,0.99707,0.99707,0.99707,0.99707,0.99414,0.99121,0,0,0.86328,0.86084,0.86084,0.86084,0.85889,0.85693,0.85449,0.84619,0.83984,0.83789,0.83594,0.8335,0.83154,0.82959,0.82959,0.82764,0.82568,0.82178,0.82178,0.81982,0.81787,0.81592,0.81397,0.81201,0.81201,0.81201,0.81006,0.81006,0.8081,0.80615,0.8042,0.8042,0.8042,0.80225,0.80078,0.80078,0.80078,0.80078,0.79883,0.79688,0.79688,0.79688,0.79688,0.79492,0.79492,0.79492,0.79688,0.79688,0.79492,0.79688,0.79883,0.79883,0.80078,0.80273,0.80273,0.8042,0.8042,0.81006,0.81201,0.81397,0,0,0,0,0,0,0,1.2969,1.2969,1.2969,1.2979,1.2979,0,0,0,0,0,0,0,0,0,0,0,0,0,0,0,0,0,0,0,0,0,0,0,0,0,0,0,0,0,0,0,0,0,0
0.74463,0.74463,0.74463,0.74463,0.74463,0.74463,0.74463,0.74463,0.74463,0.74658,0.74658,0.74463,0.74463,0.74463,0.74658,0.74658,0.74512,0.74512,0.74658,0.74658,0.74658,0.74805,0.74805,0.75147,0.75293,0.75488,0.75488,0.75488,0.75635,0.7583,0.7583,0.75635,0.75635,0.75635,0.75635,0.75635,0.75635,0.75635,0.75488,0.75488,0.75488,0.75488,0.75342,0.75342,0.75342,0.75342,0.75147,0.75147,0.75147,0.75147,0.75,0.75,0.75,0.75,0.75,0.75,0.75,0.75147,0.75,0.75,0.75,0.74853,0.75,0.74853,0.74853,0.74853,0.74853,0.74658,0.74658,0.74658,0.74512,0.74512,0.74512,0.74512,0.74365,0.74365,0.74365,0.74365,0.74365,0.74365,0.74365,0.74365,0.7417,0.7417,0.74023,0.74023,0.74023,0.73877,0.73877,0.73877,0.73877,0.73877,0.73877,0.73877,0.73877,0.73877,0.7373,0.7373,0.7373,0.73535,0.73535,0.73535,0.73535,0.73535,0.73535,0.73535,0.73389,0.73389,0.73389,0.73242,0.73242,0.73242,0.73242,0.73389,0.73389,0.73242,0.73242,0.73242,0.73242,0.73096,0.73096,0.73096,0.73096,0.72949,0.72949,0.72949,0.72949,0.72949,0.72949,0.72803,0.72803,0.72803,0.72803,0.72607,0.72607,0.72607,0.72461,0.72461,0.72607,0.72607,0.72607,0.72607,0.72607,0.72607,0.72607,0.72461,0.72461,0.72315,0.72315,0.72315,0.72315,0.72168,0.72168,0.72168,0.72168,0.72168,0.72168,0.72168,0.72168,0.72168,0.72168,0.72022,0.72022,0.71875,0.71875,0.71875,0.71728,0.71728,0.71728,0.71728,0.71875,0.71875,0.71875,0.71728,0.71728,0.71728,0.71728,0.71728,0.71582,0.71582,0.71582,0.71582,0.71582,0.71435,0.71435,0.71435,0.71435,0.71289,0.71289,0.71289,0.71289,0.71289,0.71289,0.71289,0.71289,0.71289,0.71143,0.71143,0.71143,0.70996,0.70996,0.70996,0.70996,0.70996,0.70996,0.70996,0.70996,0.7085,0.7085,0.7085,0.7085,0.7085,0.70703,0.7085,0.7085,0.7085,0.7085,0.70703,0.7085,0.70703,0.70703,0.70703,0.70557,0.70703,0.70703,0.70557,0.70703,0.70703,0.70703,0.70703,0.70703,0.70703,0.70703,0.70703,0.70703,0.70703,0.70703,0.70703,0.70703,0.70703,0.70703,0.70703,0.70703,0.70703,0.70703,0.70703,0.70703,0.70703,0.70703,0.70703,0.70703,0.7085,0.7085,0.7085,0.7085,0.70703,0.70703,0.7085,0.7085,0.7085,0.70996,0.70996,0.7085,0.70996,0,0,0,0,0,0,0,0,1.0146,1.0117,1.0146,1.0117,1.0117,1.0146,1.0146,1.0146,1.0176,1.0146,1.0176,1.0117,1.0176,1.0176,1.0146,1.0146,1.0146,1.0146,1.0176,1.0176,1.0176,1.0146,1.0146,1.0146,1.0146,1.0117,1.0117,1.0117,1.0117,1.0117,1.0117,1.0117,1.0117,1.0088,1.0088,1.0088,1.0088,1.0059,1.0059,1.0059,1.0059,1.0029,1.0029,1.0029,1.0029,1.0029,1.0029,1,1,1,1,0.99707,0.99707,0.99707,0.99707,0.99707,0.99414,0.99707,0.99414,0.99414,0.99707,0.99414,0.99414,0.99414,0.99414,0.99414,0.99121,0.99121,0.99121,0.86768,0.86328,0.86084,0.86084,0.85889,0.85693,0.85449,0.84815,0.84424,0.83984,0.83789,0.83594,0.83398,0.83154,0.82959,0.82764,0.82568,0.82373,0.82178,0.81982,0.81787,0.81787,0.81397,0.81397,0.81201,0.81201,0.81201,0.81201,0.81006,0.8081,0.80615,0.80615,0.80615,0.8042,0.8042,0.8042,0.80225,0.80225,0.80078,0.80078,0.79883,0.79883,0.79883,0.79688,0.79688,0.79688,0.79883,0.79883,0.79883,0.79883,0.80078,0.80078,0.80273,0.80273,0.80469,0.80615,0.8081,0.81201,0.81397,0.81592,0,0,0,0,0,0,0,1.2979,1.2979,1.2979,1.2979,1.2979,0,0,0,0,0,0,0,0,0,0,0,0,0,0,0,0,0,0,0,0,0,0,0,0,0,0,0,0,0,0,0,0,0,0
0.74463,0.74316,0.74316,0.74316,0.74512,0.74512,0.74512,0.74512,0.74316,0.74316,0.74316,0.74512,0.74512,0.74512,0.74512,0.74658,0.74658,0.74658,0.74658,0.74658,0.74805,0.74805,0.75147,0.75147,0.75488,0.75488,0.75488,0.75488,0.75635,0.7583,0.75635,0.75635,0.75635,0.75488,0.75635,0.75635,0.75488,0.75488,0.75488,0.75488,0.75488,0.75342,0.75147,0.75147,0.75147,0.75147,0.75,0.75,0.75,0.75,0.75,0.75,0.75,0.75,0.75,0.74853,0.74853,0.75,0.74853,0.74853,0.74853,0.74853,0.74853,0.74658,0.74658,0.74658,0.74658,0.74658,0.74512,0.74512,0.74512,0.74365,0.74365,0.7417,0.7417,0.7417,0.7417,0.7417,0.7417,0.7417,0.7417,0.7417,0.7417,0.74023,0.74023,0.74023,0.73877,0.73877,0.73877,0.73877,0.73877,0.73877,0.73877,0.7373,0.73535,0.73535,0.73535,0.73535,0.73535,0.73535,0.73584,0.73584,0.73584,0.73584,0.73389,0.73389,0.73389,0.73389,0.73242,0.73242,0.73242,0.73242,0.73096,0.73242,0.73242,0.73242,0.73096,0.73096,0.73096,0.73096,0.73096,0.72949,0.72949,0.72949,0.72949,0.72949,0.72949,0.72803,0.72803,0.72803,0.72803,0.72803,0.72656,0.72461,0.72461,0.72461,0.72461,0.72315,0.72315,0.72315,0.72315,0.72315,0.72315,0.72315,0.72315,0.72315,0.72315,0.72315,0.72315,0.72168,0.72168,0.72168,0.72168,0.72168,0.72022,0.72022,0.72022,0.71875,0.71875,0.71875,0.71875,0.71875,0.71728,0.71728,0.71728,0.71728,0.71728,0.71582,0.71582,0.71728,0.71728,0.71728,0.71728,0.71728,0.71728,0.71728,0.71582,0.71582,0.71435,0.71435,0.71435,0.71435,0.71289,0.71289,0.71289,0.71289,0.71289,0.71289,0.71289,0.71289,0.71289,0.71289,0.71289,0.71289,0.71143,0.71143,0.71143,0.71143,0.71143,0.70996,0.70996,0.70996,0.7085,0.7085,0.7085,0.7085,0.7085,0.7085,0.7085,0.7085,0.7085,0.7085,0.70703,0.70703,0.70703,0.7085,0.70703,0.70703,0.70703,0.70703,0.70703,0.70703,0.70703,0.70703,0.70703,0.70557,0.70703,0.70703,0.70703,0.70703,0.70703,0.70557,0.70557,0.70557,0.70557,0.70557,0.70557,0.70557,0.70703,0.70703,0.70703,0.70703,0.70703,0.70703,0.70703,0.70703,0.70703,0.70703,0.70703,0.70703,0.70703,0.7085,0.7085,0.7085,0.7085,0.70703,0.70703,0.7085,0.7085,0.7085,0,0,0,0,0,0,0,0,0,0,0,1.0117,1.0117,1.0117,1.0146,1.0117,1.0117,1.0117,1.0146,1.0117,1.0146,1.0117,1.0146,1.0117,1.0146,1.0146,1.0146,1.0117,1.0146,1.0146,1.0146,1.0146,1.0146,1.0117,1.0117,1.0117,1.0117,1.0117,1.0117,1.0117,1.0117,1.0117,1.0117,1.0117,1.0117,1.0088,1.0088,1.0088,1.0059,1.0059,1.0059,1.0059,1.0059,1.0029,1.0029,1.0029,1.0029,1,1,1,1,1,0.99707,0.99707,0.99707,0.99414,0.99414,0.99414,0.99414,0.99414,0.99414,0.99414,0.99414,0.99414,0.99121,0.99121,0.99121,0.99121,0.99121,0.99121,0.99121,0.99121,0.99121,0.86133,0.86133,0.85889,0.85693,0.85449,0.84815,0.84619,0.8418,0.83984,0.83789,0.83594,0.83154,0.82959,0.82959,0.82764,0.82568,0.82373,0.82178,0.81982,0.81982,0.81592,0.81397,0.81397,0.81397,0.81397,0.81201,0.81201,0.81201,0.81006,0.8081,0.8081,0.80615,0.80615,0.80615,0.8042,0.8042,0.80273,0.80273,0.80273,0.80078,0.80078,0.80078,0.79883,0.79883,0.80078,0.80273,0.80078,0.80078,0.80273,0.80273,0.80469,0.80469,0.80615,0.8081,0.81006,0.81397,0.81592,0.81787,0,0,0,0,0,0,0,1.2979,1.2979,1.2979,1.2979,1.2979,0,0,0,0,0,0,0,0,0,0,0,0,0,0,0,0,0,0,0,0,0,0,0,0,0,0,0,0,0,0,0,0,0,0
0.74316,0.74316,0.74316,0.74316,0.74316,0.74512,0.74512,0.74512,0.74316,0.74316,0.74316,0.74316,0.74316,0.74316,0.74512,0.74512,0.74512,0.74658,0.74658,0.74805,0.75,0.75,0.75147,0.75342,0.75488,0.75488,0.75635,0.75635,0.75635,0.75635,0.75635,0.75488,0.75488,0.75342,0.75488,0.75488,0.75488,0.75342,0.75342,0.75342,0.75342,0.75147,0.75147,0.75147,0.75,0.75,0.75,0.75,0.75,0.74853,0.74853,0.74853,0.74853,0.74853,0.74853,0.74853,0.74658,0.74853,0.74658,0.74658,0.74658,0.74658,0.74658,0.74658,0.74512,0.74512,0.74658,0.74512,0.74512,0.74365,0.74365,0.7417,0.7417,0.7417,0.7417,0.7417,0.74023,0.74023,0.74219,0.74023,0.74219,0.74023,0.74023,0.74023,0.73877,0.73877,0.73877,0.73877,0.73877,0.7373,0.7373,0.7373,0.7373,0.73584,0.73584,0.73389,0.73389,0.73389,0.73389,0.73389,0.73389,0.73389,0.73389,0.73389,0.73389,0.73389,0.73389,0.73242,0.73242,0.73242,0.73096,0.73096,0.73096,0.73242,0.73096,0.73096,0.72949,0.73096,0.72949,0.72949,0.72949,0.72949,0.72803,0.72803,0.72803,0.72803,0.72803,0.72803,0.72656,0.72656,0.72656,0.72461,0.72461,0.72461,0.72315,0.72315,0.72315,0.72315,0.72315,0.72315,0.72315,0.72315,0.72315,0.72315,0.72168,0.72168,0.72168,0.72168,0.72168,0.72168,0.72168,0.72022,0.72022,0.71875,0.71875,0.71875,0.71728,0.71728,0.71728,0.71728,0.71728,0.71728,0.71728,0.71728,0.71728,0.71582,0.71582,0.71582,0.71582,0.71728,0.71728,0.71728,0.71728,0.71728,0.71728,0.71582,0.71582,0.71435,0.71435,0.71289,0.71289,0.71289,0.71289,0.71289,0.71289,0.71289,0.71289,0.71289,0.71143,0.71143,0.71143,0.71143,0.71143,0.71143,0.71143,0.71143,0.71143,0.71143,0.70996,0.70996,0.70996,0.7085,0.7085,0.7085,0.7085,0.7085,0.7085,0.70703,0.70703,0.70703,0.70703,0.70703,0.70703,0.70703,0.70703,0.70703,0.70703,0.70703,0.70703,0.70557,0.70703,0.70557,0.70557,0.70557,0.70557,0.70557,0.70703,0.70703,0.70703,0.70557,0.70557,0.70557,0.70557,0.70557,0.70557,0.70557,0.70557,0.70557,0.70557,0.70703,0.70703,0.70703,0.70703,0.70703,0.70703,0.70703,0.70703,0.70703,0.70703,0.70703,0.70703,0.70703,0.7085,0.7085,0.7085,0.7085,0.7085,0,0,0,0,0,0,0,0,0,0,0,0,0,1.0146,1.0117,1.0117,1.0117,1.0117,1.0117,1.0117,1.0117,1.0117,1.0117,1.0117,1.0117,1.0117,1.0146,1.0146,1.0146,1.0176,1.0146,1.0146,1.0117,1.0146,1.0146,1.0146,1.0117,1.0117,1.0117,1.0117,1.0117,1.0117,1.0117,1.0117,1.0117,1.0088,1.0088,1.0088,1.0088,1.0059,1.0059,1.0029,1.0029,1.0029,1.0029,1.0029,1.0029,1.0029,1.0029,1,1,1,0.99707,1,0.99707,0.99414,0.99414,0.99414,0.99414,0.99414,0.99414,0.99414,0.99414,0.99414,0.99414,0.99414,0.99414,0.99121,0.99121,0.99121,0.99121,0.99121,0.99121,0.99121,0.99121,0.99121,0.86328,0.85889,0.85693,0.85449,0.85449,0.85059,0.84619,0.84619,0.8418,0.83984,0.83789,0.83398,0.83203,0.83203,0.82959,0.82764,0.82568,0.82373,0.82178,0.81982,0.81787,0.81592,0.81592,0.81397,0.81397,0.81397,0.81397,0.81201,0.81006,0.81006,0.8081,0.8081,0.80615,0.80615,0.80615,0.80615,0.8042,0.8042,0.80273,0.80273,0.80078,0.80273,0.80273,0.80273,0.80273,0.80469,0.80469,0.80469,0.80469,0.80469,0.80664,0.80664,0.8081,0.81006,0.81201,0.81397,0,0,0,0,0,0,0,0,0,1.293,1.2979,1.2979,1.2979,1.2979,0,0,0,0,0,0,0,0,0,0,0,0,0,0,0,0,0,0,0,0,0,0,0,0,0,0,0,0,0,0,0,0,0,0
0.74316,0.74316,0.74316,0.74316,0.74316,0.74316,0.74512,0.74316,0.74316,0.74316,0.74316,0.74316,0.74316,0.74512,0.74512,0.74512,0.74658,0.74658,0.74805,0.75,0.75,0.75147,0.75147,0.75342,0.75342,0.75342,0.75488,0.75488,0.75488,0.75488,0.75488,0.75342,0.75342,0.75147,0.75342,0.75342,0.75147,0.75147,0.75147,0.75147,0.75147,0.75147,0.75,0.75,0.75,0.75,0.74853,0.74853,0.74853,0.74853,0.74853,0.74853,0.74658,0.74658,0.74658,0.74512,0.74512,0.74658,0.74658,0.74512,0.74658,0.74512,0.74512,0.74512,0.74512,0.74512,0.74512,0.74512,0.74365,0.7417,0.7417,0.74023,0.74023,0.74023,0.74023,0.74023,0.74023,0.74023,0.74023,0.74023,0.74023,0.73877,0.73877,0.73877,0.73877,0.73877,0.7373,0.7373,0.7373,0.7373,0.73584,0.73584,0.73584,0.73389,0.73389,0.73389,0.73389,0.73389,0.73389,0.73389,0.73389,0.73389,0.73389,0.73389,0.73242,0.73242,0.73242,0.73242,0.73096,0.73096,0.72803,0.72949,0.72803,0.72949,0.72949,0.72949,0.72949,0.72949,0.72949,0.72949,0.72949,0.72803,0.72803,0.72803,0.72803,0.72803,0.72803,0.72656,0.72656,0.72461,0.72461,0.72461,0.72315,0.72315,0.72315,0.72315,0.72315,0.72168,0.72168,0.72168,0.72168,0.72168,0.72168,0.72168,0.72022,0.72022,0.72022,0.72022,0.72022,0.72022,0.72022,0.72022,0.71875,0.71728,0.71728,0.71728,0.71582,0.71582,0.71582,0.71582,0.71582,0.71582,0.71582,0.71582,0.71582,0.71582,0.71582,0.71582,0.71582,0.71582,0.71582,0.71582,0.71582,0.71582,0.71582,0.71435,0.71435,0.71435,0.71435,0.71289,0.71289,0.71289,0.71143,0.71143,0.71143,0.71143,0.71143,0.71143,0.71143,0.71143,0.71143,0.70996,0.70996,0.70996,0.70996,0.70996,0.70996,0.70996,0.70996,0.7085,0.7085,0.7085,0.70703,0.70703,0.70703,0.70703,0.70703,0.70703,0.70703,0.70703,0.70703,0.70703,0.70703,0.70703,0.70703,0.70703,0.70557,0.70557,0.70703,0.70557,0.70557,0.70557,0.70557,0.70557,0.70557,0.70557,0.70703,0.70703,0.70557,0.70557,0.70557,0.70557,0.70557,0.70557,0.70557,0.70557,0.70557,0.70557,0.70557,0.70703,0.70703,0.70703,0.70703,0.70703,0.70703,0.70703,0.70703,0.70703,0.70703,0,0.70703,0.70703,0.70703,0.7085,0.7085,0,0,0,0,0,0,0,0,0,0,0,0,0,0,1.0146,1.0146,1.0117,1.0117,1.0117,1.0117,1.0117,1.0117,1.0117,1.0117,1.0117,1.0117,1.0146,1.0117,1.0117,1.0117,1.0146,1.0146,1.0117,1.0117,1.0117,1.0146,1.0146,1.0117,1.0117,1.0117,1.0117,1.0117,1.0117,1.0117,1.0088,1.0088,1.0088,1.0088,1.0088,1.0059,1.0059,1.0029,1.0029,1.0029,1.0029,1.0029,1.0029,1.0029,1.0029,1,1,1,0.99707,0.99707,0.99707,0.99707,0.99414,0.99414,0.99414,0.99414,0.99414,0.99414,0.99121,0.99414,0.99414,0.99121,0.99414,0.99121,0.99121,0.99121,0.99121,0.99121,0.99121,0.98828,0.98828,0.99121,0.98828,0.98291,0.86328,0.86328,0.85693,0.85449,0.85449,0.85059,0.84815,0.84619,0.84424,0.84228,0.83789,0.83594,0.83398,0.83398,0.83203,0.83203,0.82764,0.82568,0.82373,0.82178,0.81982,0.81787,0.81787,0.81592,0.81592,0.81592,0.81397,0.81397,0.81201,0.81006,0.8081,0.8081,0.8081,0.80615,0.80615,0.80615,0.80469,0.80469,0.80469,0.80469,0.80469,0.80469,0.80469,0.80469,0.80469,0.80664,0.80664,0.80664,0.80664,0.8081,0.8081,0.8081,0.81006,0.81201,0.81397,0.81592,0,0,0,0,0,0,0,1.293,1.293,1.2979,1.2979,1.2979,1.2979,1.2979,0,0,0,0,0,0,0,0,0,0,0,0,0,0,0,0,0,0,0,0,0,0,0,0,0,0,0,0,0,0,0,0,0,0
