0.7041,0.7041,0.70557,0.70703,0.7085,0.7085,0.70996,0.70996,0,0,0,0,0,0,0.979,0,0.98193,0.98486,0.98486,0.98779,0.98779,0.98779,0.99072,0.99072,0.99365,0.99365,0.99365,0.99365,0.99658,0.99658,0.99365,0.99658,0.99658,0.99951,0.99951,0.99951,0.99951,0.99951,0.99951,0.99951,1.0029,1.0029,1.0029,1.0029,1.0059,1.0059,1.0059,1.0059,1.0059,1.0088,1.0088,1.0088,1.0088,1.0117,1.0117,1.0117,1.0117,1.0117,1.0117,1.0146,1.0146,1.0146,1.0176,1.0215,1.0176,1.0215,1.0215,1.0215,1.0215,1.0215,1.0215,1.0244,1.0244,1.0244,1.0244,1.0215,1.0244,1.0244,1.0244,1.0244,1.0273,1.0273,1.0273,1.0273,1.0273,1.0273,1.0303,1.0303,1.0303,1.0342,1.0342,1.0342,1.0342,1.0342,1.0342,1.0342,1.0342,1.0342,1.0342,1.0342,1.0342,1.0342,1.0342,1.0342,1.0371,1.0371,1.0371,1.0371,1.0371,1.0371,1.0439,1.0439,1.0439,1.0469,1.0469,1.0439,1.0469,1.0469,1.0498,1.0498,1.0498,1.0498,0.83154,0.83154,0.83154,0.83154,0.83398,0.83398,0.83398,0.83398,0.83594,0.83594,0.83594,0.83594,0.83398,0.83398,0.83203,0,0,0,0,1.0566,1.0566,1.0605,1.0605,1.0605,1.0605,1.0635,1.0635,1.0635,1.0635,1.0635,1.0635,1.0674,1.0674,1.0674,1.0674,1.0703,1.0742,1.0742,1.0742,1.0742,1.0703,1.0742,1.0703,1.0742,1.0703,0,0,0,0,0,0,0.82178,0.82178,0.81787,0.81787,0.81982,0.81787,0.81787,0.81787,0.81592,0.81397,0.81397,0.81397,0.81397,0.81397,0.81201,0.81201,0.81201,0.81201,0.81201,0.81201,0.81201,0.81006,0.81006,0.8081,0.80615,0.80615,0.80615,0.8042,0.8042,0.8042,0.8042,0.8042,0.8042,0.80225,0.80225,0.80029,0.80029,0.79834,0.79834,0.79639,0.79688,0.79688,0.79688,0.79688,0.79688,0.79492,0.79492,0.79297,0.79297,0.79297,0.79297,0.79102,0.79102,0.79102,0.79102,0.79102,0.78906,0.78906,0.78906,0.7876,0.78565,0.78369,0.78565,0.78565,0.78565,0.78369,0.78565,0.78565,0.7876,0.7876,0.7876,0.78906,0,0,0,0,0,0,0,0,0,0,0,1.1357,1.1328,1.1289,1.1289,1.1289,1.1289,1.1289,1.1289,1.1289,1.1289,1.1289,1.1328,1.1328,1.1289,1.1328,1.1289,1.1289,1.1289,1.1289,1.1328,1.1328,1.1328,1.1328,1.1328,1.1328,1.1367,1.1367,1.1367,1.1367,1.1328,1.1328,1.1328,1.1328,1.1328,1.1289,1.1289,1.1328,1.1328,1.1328,1.1289,1.1289,1.1289,1.1289,1.1289,1.1367,1.1328,1.1367,1.1367,1.1367,1.1328,1.1328,1.1328,1.1328,1.1289,1.1289,1.1289,1.1328,1.1328,1.1328,1.1289,1.1289,1.1289,1.125,1.125,1.1211,1.1211,1.1172,1.1211,1.1211,1.1172,1.1172,1.1182,1.1143,1.1104,1.1104,1.1064,1.1064,1.1064,1.1064,1.1064,1.1064,1.1104,1.1182,1.1182,1.1182,1.1182,1.1182,1.1182,1.1211,0,0,0,0,0,0,0,0,2.5547,2.5742,2.5547,2.5547,2.5547,2.5352,2.5547,2.5547,2.5547,2.5547,2.5547,2.5547,2.5547,2.5547,2.5742,2.5742,2.5742,2.5742,2.5742,2.5742,2.5742,2.5742,2.5742,2.5547,2.5352,2.5352,2.5176,2.5176,2.5176,2.5176,2.5547,2.5547,2.5547,2.5352,2.5547,2.5352,2.5352,2.5352,2.5352,2.5176,2.498,2.498,2.498,2.498,2.498,2.498,2.4805,2.498,2.498,2.498,2.498,2.4805,2.4805,2.4805,2.4805,2.4805,2.4805,2.4805,2.4805,2.4805,2.4805,2.4629,2.4629,2.4805,2.4805,0,0,0,0,0,0,0,0,0,0,0,0,0,0,0,0,0,0,0,0,0,0,0,0,0,0,0,0
0.70557,0.70557,0.70703,0.70703,0.70703,0.7085,0.70996,0.70996,0,0,0,0,0,0,0.979,0.98193,0.98193,0.98486,0.98486,0.98779,0.98779,0.98779,0.99072,0.99365,0.99365,0.99365,0.99365,0.99658,0.99658,0.99658,0.99365,0.99658,0.99658,0.99951,0.99951,0.99951,1.0029,0.99951,0.99951,1.0029,1.0029,1.0029,1.0029,1.0059,1.0059,1.0059,1.0059,1.0059,1.0088,1.0088,1.0088,1.0088,1.0117,1.0117,1.0117,1.0117,1.0117,1.0146,1.0117,1.0146,1.0146,1.0146,1.0215,1.0215,1.0215,1.0215,1.0215,1.0215,1.0244,1.0244,1.0244,1.0244,1.0244,1.0244,1.0244,1.0244,1.0244,1.0244,1.0273,1.0244,1.0273,1.0273,1.0273,1.0273,1.0273,1.0303,1.0303,1.0303,1.0342,1.0342,1.0342,1.0342,1.0342,1.0342,1.0371,1.0371,1.0342,1.0342,1.0342,1.0342,1.0342,1.0342,1.0342,1.0342,1.0371,1.0371,1.0371,1.0371,1.0371,1.0371,1.04,1.0439,1.0439,1.0469,1.0439,1.0439,1.0469,1.0469,1.0537,1.0537,1.0537,0.82959,0.83154,0.83154,0.83154,0.83154,0.83154,0.83203,0.83203,0.83398,0.83398,0.83398,0.83398,0.83398,0.83398,0.83203,0.83203,0.82959,0,0,0,0,1.0605,1.0605,1.0635,1.0605,1.0635,1.0635,1.0674,1.0674,1.0674,1.0674,1.0674,1.0674,1.0674,1.0674,1.0674,1.0703,1.0742,1.0771,1.0771,1.0771,1.0742,1.0742,1.0703,1.0742,1.0742,0,0,0,0,0,0,0.82178,0.82178,0.81787,0.81787,0.81982,0.81982,0.81787,0.81787,0.81787,0.81592,0.81397,0.81397,0.81397,0.81397,0.81397,0.81201,0.81397,0.81397,0.81201,0.81201,0.81201,0.81006,0.81006,0.81006,0.8081,0.8081,0.8081,0.8081,0.80615,0.80615,0.80615,0.80615,0.8042,0.80225,0.80225,0.80225,0.80029,0.79834,0.79834,0.79834,0.79834,0.79834,0.79688,0.79688,0.79688,0.79688,0.79492,0.79492,0.79492,0.79492,0.79297,0.79297,0.79297,0.79297,0.79102,0.79102,0.78906,0.78906,0.78906,0.7876,0.7876,0.78565,0.7876,0.7876,0.78565,0.78565,0.78565,0.7876,0.7876,0.78955,0.78955,0.78955,0,0,0,0,0,0,0,0,0,0,0,1.1357,1.1328,1.1289,1.1289,1.1328,1.1289,1.1289,1.1289,1.1289,1.1328,1.1328,1.1328,1.1328,1.1328,1.1328,1.1328,1.1328,1.1328,1.1328,1.1328,1.1328,1.1328,1.1367,1.1367,1.1367,1.1367,1.1406,1.1367,1.1367,1.1367,1.1328,1.1328,1.1328,1.1328,1.1328,1.1328,1.1328,1.1328,1.1328,1.1328,1.1328,1.1328,1.1328,1.1328,1.1367,1.1367,1.1367,1.1367,1.1367,1.1367,1.1367,1.1328,1.1328,1.1328,1.1328,1.1328,1.1328,1.1328,1.1328,1.1328,1.1289,1.1289,1.1289,1.1289,1.125,1.1211,1.1211,1.1211,1.1211,1.1182,1.1182,1.1182,1.1143,1.1143,1.1143,1.1104,1.1104,1.1064,1.1064,1.1064,1.1104,1.1104,1.1182,1.1182,1.1211,1.1211,1.1211,1.1211,0,0,0,0,0,0,0,0,0,2.5547,2.5742,2.5547,2.5352,2.5547,2.5352,2.5352,2.5352,2.5352,2.5547,2.5547,2.5547,2.5352,2.5352,2.5742,2.5742,2.5742,2.5547,2.5547,2.5547,2.5742,2.5547,2.5547,2.5352,2.5176,2.5176,2.5176,2.5176,2.5352,2.5352,2.5352,2.5547,2.5352,2.5371,2.5176,2.5176,2.5176,2.5176,2.5176,2.498,2.498,2.498,2.498,2.498,2.498,2.498,2.498,2.498,2.498,2.498,2.4805,2.4805,2.4609,2.4629,2.4629,2.4629,2.4805,2.4805,2.4805,2.4805,2.4805,2.4629,2.4629,2.4805,2.4805,0,0,0,0,0,0,0,0,0,0,0,0,0,0,0,0,0,0,0,0,0,0,0,0,0,0,0,0
0.70557,0.70557,0.70703,0.7085,0.7085,0.7085,0.70996,0.70996,0.71484,0.71631,0,0,0,0,0.979,0.98193,0.98193,0.98486,0.98486,0.98779,0.98779,0.98779,0.99365,0.99365,0.99365,0.99365,0.99658,0.99658,0.99658,0.99658,0.99658,0.99658,0.99658,0.99951,0.99951,1,1.0029,1.0029,1.0029,1.0029,1.0059,1.0059,1.0059,1.0059,1.0059,1.0059,1.0088,1.0088,1.0088,1.0088,1.0117,1.0117,1.0117,1.0117,1.0117,1.0117,1.0117,1.0117,1.0117,1.0146,1.0186,1.0186,1.0215,1.0215,1.0215,1.0215,1.0215,1.0215,1.0244,1.0244,1.0244,1.0244,1.0244,1.0244,1.0244,1.0244,1.0244,1.0273,1.0303,1.0303,1.0303,1.0303,1.0303,1.0342,1.0303,1.0342,1.0342,1.0342,1.0342,1.0342,1.0342,1.0371,1.0371,1.0371,1.0371,1.0371,1.0371,1.0371,1.0342,1.0371,1.0342,1.0371,1.0371,1.0371,1.0371,1.0371,1.0371,1.0371,1.04,1.04,1.04,1.04,0.82764,0.82568,0.82568,0.82568,0.82568,0.82568,0.83154,0.82959,0.83203,0.83203,0.83203,0.83203,0.83203,0.83203,0.83203,0.83203,0.83203,0.83203,0.83203,0.83398,0.83398,0.83203,0.83203,0.83203,0.82959,0.82959,0.82959,0,0,0,0,1.0635,1.0635,1.0635,1.0635,1.0674,1.0674,1.0674,1.0674,1.0674,1.0674,1.0674,1.0703,1.0703,1.0703,1.0742,1.0771,1.0771,1.0771,1.0771,1.0771,1.0771,1.0742,1.0742,1.0742,0,0,0,0,0,0,0,0,0.82373,0.82178,0.82178,0.82178,0.81982,0.81982,0.81787,0.81592,0.81592,0.81592,0.81592,0.81397,0.81397,0.81397,0.81397,0.81397,0.81397,0.81201,0.81201,0.81201,0.81201,0.81006,0.81006,0.81006,0.8081,0.8081,0.80615,0.80615,0.80615,0.80615,0.80615,0.8042,0.8042,0.8042,0.80225,0.80029,0.80029,0.79883,0.79883,0.79883,0.79688,0.79688,0.79688,0.79688,0.79688,0.79492,0.79492,0.79492,0.79492,0.79492,0.79297,0.79297,0.79102,0.79102,0.78906,0.78906,0.78906,0.7876,0.7876,0.7876,0.78955,0.7876,0.7876,0.7876,0.7876,0.7876,0.7876,0.78955,0.78955,0.78955,0,0,0,0,0,0,0,0,0,0,0,0,1.1328,1.1289,1.1289,1.1328,1.1289,1.1289,1.1289,1.1328,1.1328,1.1328,1.1328,1.1328,1.1328,1.1328,1.1328,1.1328,1.1328,1.1328,1.1328,1.1367,1.1367,1.1406,1.1367,1.1367,1.1406,1.1406,1.1406,1.1367,1.1367,1.1328,1.1328,1.1328,1.1328,1.1328,1.1328,1.1328,1.1328,1.1328,1.1328,1.1328,1.1328,1.1328,1.1328,1.1367,1.1367,1.1367,1.1367,1.1367,1.1367,1.1367,1.1367,1.1367,1.1328,1.1328,1.1328,1.1328,1.1328,1.1328,1.1328,1.1289,1.1289,1.1289,1.1289,1.125,1.125,1.1211,1.1211,1.1211,1.1211,1.1182,1.1182,1.1143,1.1143,1.1143,1.1104,1.1104,1.1104,1.1104,1.1104,1.1104,1.1143,1.1211,1.1211,1.1221,1.1221,1.1221,1.1221,0,0,0,0,0,0,0,0,2.5352,2.5352,2.5547,2.5547,2.5352,2.5352,2.5352,2.5352,2.5352,2.5352,2.5352,2.5547,2.5547,2.5352,2.5352,2.5742,2.5742,2.5742,2.5547,2.5547,2.5547,2.5547,2.5547,2.5547,2.5352,2.5176,2.5176,2.498,2.5176,2.5176,2.5371,2.5371,2.5547,2.5371,2.498,2.498,2.498,2.5176,2.5176,2.5176,2.498,2.498,2.498,2.498,2.498,2.4805,2.498,2.498,2.498,2.498,2.498,2.4805,2.4805,2.4629,2.4629,2.4434,2.4434,2.4629,2.4629,2.4629,2.4805,2.4629,2.4629,2.4629,0,0,0,0,0,0,0,0,0,0,0,0,0,0,0,0,0,0,0,0,0,0,0,0,0,0,0,0,0,0
0.7085,0.70703,0.70703,0.70703,0.7085,0.7085,0.70996,0.71289,0.71484,0.71484,0,0,0,0,0,0,0.98193,0.98486,0.98486,0.98779,0.99072,0.99072,0.99072,0.99365,0.99658,0.99658,0.99658,0.99658,0.99658,0.99658,0.99658,0.99658,1,1,1.0029,1.0029,1.0029,1.0029,1.0029,1.0059,1.0059,1.0059,1.0059,1.0059,1.0088,1.0088,1.0088,1.0088,1.0088,1.0117,1.0117,1.0117,1.0117,1.0146,1.0117,1.0146,1.0117,1.0146,1.0146,1.0146,1.0186,1.0186,1.0215,1.0215,1.0215,1.0215,1.0215,1.0215,1.0244,1.0215,1.0244,1.0244,1.0244,1.0244,1.0244,1.0273,1.0273,1.0303,1.0303,1.0342,1.0342,1.0342,1.0342,1.0342,1.0312,1.0342,1.0342,1.0371,1.0371,1.0371,1.0371,1.0371,1.0371,1.0371,1.0371,1.0371,1.0371,1.0371,1.0371,1.0371,1.0371,1.0342,1.0371,1.0371,1.0371,1.0371,1.0371,1.0371,1.04,1.04,1.0439,0.82568,0.82764,0.82568,0.82373,0.82568,0.82373,0.82373,0.82764,0.82764,0.82764,0.82959,0.83203,0.82959,0.82959,0.83203,0.83203,0.83203,0.83203,0.83203,0.83203,0.83203,0.83203,0.83203,0.83203,0.83008,0.82764,0.82764,0.82568,0,0,0,0,1.0635,1.0674,1.0635,1.0635,1.0674,1.0674,1.0674,1.0674,1.0674,1.0674,1.0674,1.0703,1.0742,1.0742,1.0742,1.0771,1.0771,1.0771,1.0771,1.0771,1.0771,1.0771,1.0742,1.0742,1.0771,0,0,0,0,0,0,0,0.82617,0.82373,0.82373,0.82178,0.81982,0.81982,0.81982,0.81787,0.81787,0.81592,0.81592,0.81592,0.81592,0.81397,0.81592,0.81592,0.81397,0.81397,0.81397,0.81397,0.81201,0.81201,0.81006,0.81006,0.81006,0.81006,0.8081,0.8081,0.8081,0.8081,0.80615,0.8042,0.8042,0.8042,0.80225,0.80225,0.80225,0.80225,0.80078,0.80078,0.80078,0.79883,0.79883,0.79883,0.79688,0.79688,0.79688,0.79492,0.79492,0.79492,0.79492,0.79297,0.79297,0.79102,0.79102,0.78955,0.78955,0.78955,0.78955,0.78955,0.78955,0.78955,0.78955,0.78955,0.78955,0.78955,0.78955,0.78955,0.78955,0,0.82812,0,0,0,0,0,0,0,0,0,0,0,1.1328,1.1289,1.1328,1.1328,1.1328,1.1328,1.1328,1.1328,1.1328,1.1328,1.1328,1.1328,1.1328,1.1367,1.1367,1.1328,1.1367,1.1367,1.1367,1.1406,1.1406,1.1406,1.1406,1.1406,1.1406,1.1445,1.1406,1.1406,1.1406,1.1367,1.1367,1.1367,1.1367,1.1328,1.1328,1.1328,1.1367,1.1367,1.1367,1.1328,1.1328,1.1328,1.1328,1.1367,1.1367,1.1367,1.1367,1.1367,1.1367,1.1367,1.1367,1.1367,1.1328,1.1367,1.1328,1.1328,1.1328,1.1328,1.1328,1.1328,1.1328,1.1289,1.1328,1.1289,1.125,1.1211,1.1211,1.1211,1.1211,1.1182,1.1182,1.1143,1.1143,1.1143,1.1104,1.1104,1.1104,1.1104,1.1104,1.1104,1.1221,1.125,1.125,1.125,1.125,1.1221,1.1221,1.1221,0,0,0,0,0,0,0,2.5352,2.5547,2.5547,2.5547,2.5547,2.5352,2.5352,2.5352,2.5352,2.5352,2.5547,2.5742,2.5547,2.5371,2.5371,2.5547,2.5742,2.5742,2.5547,2.5547,2.5547,2.5547,2.5371,2.5371,2.5176,2.498,2.498,2.498,2.5176,2.5176,2.5176,2.5176,2.5176,2.498,2.498,2.498,2.498,2.5176,2.498,2.498,2.498,2.498,2.4805,2.4805,2.4805,2.4805,2.4805,2.4805,2.498,2.498,2.498,2.4805,2.4805,2.4805,2.4805,2.4434,0,0,0,0,0,2.4805,0,2.4629,0,0,0,0,0,0,0,0,0,0,0,0,0,0,0,0,0,0,0,0,0,0,0,0,0,0,0,0,0,0
0.7085,0.7085,0.7085,0.7085,0.7085,0.70996,0.70996,0.71338,0.71338,0.71484,0.71631,0,0,0,0,0,0.98242,0.98486,0.98779,0.99072,0.99072,0.99365,0.99365,0.99365,0.99658,0.99658,0.99658,0.99658,0.99707,1,0.99707,1,1,1.0029,1.0029,1.0029,1.0029,1.0059,1.0059,1.0059,1.0059,1.0059,1.0059,1.0088,1.0088,1.0088,1.0117,1.0088,1.0088,1.0117,1.0117,1.0117,1.0117,1.0146,1.0146,1.0146,1.0146,1.0146,1.0146,1.0186,1.0186,1.0186,1.0215,1.0215,1.0215,1.0244,1.0215,1.0215,1.0244,1.0244,1.0244,1.0244,1.0273,1.0273,1.0273,1.0273,1.0273,1.0312,1.0312,1.0342,1.0342,1.0342,1.0342,1.0342,1.0342,1.0342,1.0342,1.0342,1.0371,1.0371,1.0371,1.0371,1.0371,1.0371,1.0371,1.0371,1.0371,1.0371,1.0371,1.0371,1.0371,1.0371,1.0371,0.82178,0.82178,0.82178,0.82178,0.82178,0.82178,0.82568,0.82373,0.82568,0.82764,0.82568,0.82568,0.82568,0.82373,0.82568,0.82764,0.82568,0.82568,0.83008,0.83008,0.82764,0.83008,0.83008,0.83008,0.83008,0.83008,0.83008,0.83203,0.83203,0.83203,0.83008,0.83008,0.82764,0.82568,0.82568,0.82373,0.82373,0.82178,0,0,0,0,1.0635,1.0703,1.0703,1.0703,1.0674,1.0674,1.0674,1.0674,1.0703,1.0703,1.0742,1.0742,1.0742,1.0771,1.0771,1.0771,1.0771,1.0771,1.0771,1.0771,1.0771,1.0771,1.0771,0,0,0,0,0,0,0,0,0.82373,0.82617,0.82373,0.82178,0.82178,0.82178,0.81982,0.81982,0.81787,0.81787,0.81592,0.81592,0.81592,0.81592,0.81592,0.81592,0.81592,0.81397,0.81397,0.81397,0.81201,0.81201,0.81006,0.81006,0.81006,0.81006,0.81006,0.81006,0.8081,0.8081,0.80615,0.8042,0.8042,0.8042,0.80225,0.80225,0.80273,0.80273,0.80273,0.80078,0.80078,0.80078,0.80078,0.79883,0.79688,0.79688,0.79688,0.79492,0.79492,0.79492,0.79492,0.79297,0.79297,0.79102,0.79102,0.78955,0.78955,0.78955,0.78955,0.79102,0.79102,0.78955,0.78955,0.78955,0.78955,0.78955,0.78955,0.78955,0,0,0,0,0,0,0,0,0,0,0,0,0,1.1328,1.1289,1.1289,1.1328,1.1328,1.1328,1.1328,1.1328,1.1328,1.1328,1.1328,1.1367,1.1367,1.1367,1.1367,1.1367,1.1367,1.1406,1.1367,1.1406,1.1406,1.1445,1.1406,1.1445,1.1445,1.1445,1.1445,1.1406,1.1406,1.1367,1.1367,1.1367,1.1367,1.1328,1.1367,1.1367,1.1367,1.1367,1.1367,1.1367,1.1328,1.1328,1.1328,1.1406,1.1367,1.1406,1.1367,1.1367,1.1367,1.1406,1.1367,1.1367,1.1367,1.1367,1.1367,1.1367,1.1367,1.1367,1.1367,1.1328,1.1328,1.1328,1.1328,1.1328,1.125,1.125,1.125,1.1211,1.1211,1.1221,1.1182,1.1182,1.1182,1.1143,1.1143,1.1143,1.1104,1.1104,1.1104,1.1104,1.1221,1.1289,1.1289,1.1289,1.125,1.125,1.1221,1.1221,0,0,0,0,0,0,0,0,2.5352,2.5352,2.5352,2.5352,2.5371,2.5371,2.5371,2.5371,2.5371,2.5371,2.5547,2.5371,2.5176,2.5371,2.5371,2.5371,2.5371,2.5547,2.5371,2.5371,2.5371,2.498,2.498,2.498,2.4805,2.498,2.498,2.498,2.5176,2.5176,2.5176,2.5176,2.5176,2.498,2.498,2.498,2.5176,2.498,2.498,2.4805,2.4805,2.4805,2.4805,2.4805,2.4805,2.4805,2.4805,2.498,2.498,0,0,0,2.5176,0,0,0,0,0,0,0,0,0,0,0,0,0,0,0,0,0,0,0,0,0,0,0,0,0,0,0,0,0,0,0,0,0,0,0,0,0,0,0,0
0.70996,0.7085,0.7085,0.7085,0.70996,0.70996,0.70996,0.71191,0.71338,0.71484,0.71631,0.71631,0,0,0,0,0,0.98535,0.99072,0.99072,0.99365,0.99365,0.99707,0.99707,0.99707,0.99707,1,1,1,1,1,1,1.0029,1.0029,1.0029,1.0029,1.0059,1.0059,1.0059,1.0059,1.0088,1.0088,1.0088,1.0088,1.0088,1.0117,1.0088,1.0117,1.0088,1.0117,1.0117,1.0117,1.0146,1.0146,1.0146,1.0146,1.0146,1.0186,1.0186,1.0186,1.0186,1.0186,1.0215,1.0215,1.0215,1.0244,1.0215,1.0215,1.0244,1.0244,1.0244,1.0244,1.0273,1.0273,1.0273,1.0312,1.0312,1.0312,1.0342,1.0342,1.0342,1.0342,1.0342,1.0342,1.0342,1.0371,1.0371,1.0371,1.0371,1.0371,1.0371,1.0371,1.0371,1.0371,1.04,1.0371,1.0371,1.0371,1.0371,1.0371,1.0342,1.0371,1.0371,0.82178,0.82178,0.82178,0.82178,0.82373,0.82373,0.82568,0.82373,0.82568,0.82568,0.82373,0.82373,0.82373,0.82373,0.82373,0.82568,0.82568,0.82568,0.82568,0.82764,0.82764,0.82764,0.82764,0.82764,0.82764,0.82764,0.82568,0.82764,0.82764,0.82568,0.82568,0.82568,0.82568,0.82568,0.82373,0.82178,0.82178,0.81982,0.81787,0.81592,0,0,0,0,1.0703,1.0674,1.0674,1.0674,1.0674,1.0674,1.0703,1.0742,1.0742,1.0742,1.0771,1.0771,1.0771,1.0771,1.0771,1.0771,1.0771,1.0771,1.0771,1.0771,0,0,0,0,0,0,0,0,0,0.82617,0.82617,0.82617,0.82422,0.82422,0.82178,0.82178,0.81982,0.81787,0.81787,0.81787,0.81592,0.81592,0.81787,0.81787,0.81592,0.81592,0.81592,0.81592,0.81397,0.81201,0.81397,0.81201,0.81201,0.81201,0.81006,0.81006,0.81006,0.81006,0.81006,0.8081,0.80615,0.80615,0.8042,0.8042,0.8042,0.80273,0.80273,0.80273,0.80273,0.80273,0.80078,0.80078,0.79883,0.79883,0.79688,0.79688,0.79688,0.79688,0.79492,0.79492,0.79492,0.79492,0.79297,0.79102,0.79102,0.79102,0.79102,0.78955,0.7915,0.7915,0.7915,0.78955,0.78955,0.78955,0.78955,0.78955,0.7915,0,0,0,0,0,0,0,0,0,0,0,0,0,1.1289,1.1289,1.1328,1.1328,1.1328,1.1328,1.1328,1.1328,1.1328,1.1328,1.1367,1.1367,1.1367,1.1367,1.1367,1.1367,1.1367,1.1406,1.1406,1.1406,1.1406,1.1445,1.1445,1.1445,1.1445,1.1445,1.1445,1.1445,1.1406,1.1406,1.1406,1.1367,1.1367,1.1367,1.1367,1.1367,1.1367,1.1367,1.1367,1.1367,1.1367,1.1367,1.1367,1.1406,1.1406,1.1406,1.1406,1.1406,1.1406,1.1406,1.1406,1.1406,1.1367,1.1367,1.1367,1.1367,1.1367,1.1367,1.1367,1.1367,1.1367,1.1328,1.1328,1.1289,1.1289,1.125,1.125,1.1221,1.1221,1.1221,1.1221,1.1182,1.1182,1.1143,1.1143,1.1182,1.1143,1.1143,1.1143,1.1143,1.1182,1.1289,1.1289,1.1289,1.1289,1.1289,1.126,1.126,0,0,0,0,0,0,0,0,2.5371,2.5371,2.5371,2.5371,2.5371,2.5371,2.5371,2.5371,2.5371,2.5176,2.5176,2.5176,2.4805,2.5176,2.498,2.5176,2.5371,2.5176,2.498,2.5371,2.5176,2.498,2.498,2.4805,2.4805,2.498,2.498,2.498,2.5176,2.5176,2.498,2.5176,2.498,2.498,2.498,2.498,2.498,2.4805,2.4805,2.4629,2.4629,2.4629,2.4629,2.4805,2.4805,2.498,2.498,2.5371,2.5371,2.5371,0,0,0,0,0,0,0,0,2.248,0,0,0,0,0,0,0,0,0,0,0,0,0,0,0,0,0,0,0,0,0,0,0,0,0,0,0,0,0,0,0,0,0,0
0.70996,0.70996,0.70996,0.7085,0.70996,0.70996,0.71191,0.71191,0.71338,0.71484,0.71631,0.71631,0,0,0,0,0,0,0.99414,0.99414,0.99414,0.99707,0.99707,0.99707,0.99707,0.99707,1,1,1,1,1,1.0029,1.0029,1.0029,1.0029,1.0059,1.0059,1.0059,1.0059,1.0059,1.0088,1.0088,1.0088,1.0088,1.0117,1.0117,1.0117,1.0117,1.0117,1.0117,1.0117,1.0146,1.0146,1.0146,1.0156,1.0186,1.0186,1.0186,1.0186,1.0186,1.0186,1.0186,1.0215,1.0215,1.0215,1.0244,1.0244,1.0244,1.0244,1.0244,1.0244,1.0244,1.0244,1.0273,1.0312,1.0312,1.0342,1.0342,1.0342,1.0342,1.0342,1.0342,1.0342,1.0342,1.0342,1.0371,1.0371,1.0371,1.0371,1.0371,1.0371,1.0371,1.0371,1.0371,1.0371,0.82178,0.82178,0.82178,0.81982,0.81592,0.81982,0.82178,0.82178,0.82178,0.82178,0.82178,0.82373,0.82373,0.82568,0.82373,0.82373,0.82568,0.82568,0.82373,0.82373,0.82373,0.82373,0.82373,0.82568,0.82373,0.82373,0.82373,0.82568,0.82568,0.82568,0.82568,0.82568,0.82568,0.82568,0.82568,0.82568,0.82568,0.82568,0.82568,0.82373,0.82373,0.82373,0.82178,0.81982,0.81787,0.81787,0.81787,0.81397,0,0,0,0,0,1.0703,1.0703,1.0674,1.0674,1.0703,1.0703,1.0742,1.0771,1.0771,1.0771,1.0771,1.0771,1.0771,1.0771,1.0811,1.0771,1.0781,1.0781,1.0781,1.0781,0,0,0,0,0,0,0,0,0.82617,0.82812,0.82617,0.82617,0.82617,0.82422,0.82227,0.82227,0.81982,0.81982,0.81787,0.81787,0.81787,0.81787,0.81787,0.81787,0.81787,0.81787,0.81592,0.81592,0.81397,0.81397,0.81397,0.81201,0.81201,0.81201,0.81006,0.81006,0.81006,0.81006,0.8081,0.80615,0.80615,0.80469,0.80469,0.80469,0.80469,0.80273,0.80273,0.80273,0.80273,0.80273,0.80273,0.80078,0.79883,0.79883,0.79688,0.79688,0.79688,0.79688,0.79688,0.79492,0.79492,0.79492,0.79297,0.79297,0.79297,0.7915,0.7915,0.79297,0.7915,0.7915,0.7915,0.7915,0.78955,0.78955,0.78955,0,0,0,0,0,0,0,0,0,0,0,0,0,0,1.1328,1.1328,1.1328,1.1328,1.1328,1.1328,1.1328,1.1328,1.1328,1.1367,1.1367,1.1406,1.1406,1.1406,1.1367,1.1367,1.1367,1.1406,1.1406,1.1406,1.1445,1.1445,1.1445,1.1445,1.1445,1.1445,1.1445,1.1445,1.1406,1.1406,1.1406,1.1406,1.1367,1.1367,1.1367,1.1367,1.1367,1.1406,1.1406,1.1367,1.1367,1.1367,1.1367,1.1406,1.1406,1.1406,1.1406,1.1406,1.1406,1.1406,1.1406,1.1406,1.1406,1.1406,1.1406,1.1406,1.1406,1.1406,1.1406,1.1367,1.1367,1.1367,1.1328,1.1328,1.1328,1.1289,1.125,1.1221,1.1221,1.1221,1.1221,1.1182,1.1182,1.1182,1.1182,1.1143,1.1143,1.1182,1.1143,1.1182,1.1221,1.1289,1.1289,1.1289,1.1289,1.1289,1.126,1.126,0,0,0,0,0,0,0,2.5371,2.5176,2.5176,2.5176,2.5371,2.5371,2.5371,2.5371,2.5371,2.5371,2.498,2.498,2.4805,2.4805,2.498,2.4805,2.4805,2.498,2.4805,2.4805,2.4805,2.4805,2.4805,2.4805,2.4805,2.4805,2.4805,2.498,2.498,2.498,2.498,2.498,2.5176,2.498,2.498,2.498,2.4805,2.498,2.4805,2.4629,2.4629,2.4453,2.4453,2.4629,2.4629,2.4805,2.4805,0,0,0,0,0,0,0,0,0,0,0,0,2.248,0,0,0,0,0,0,0,0,0,0,0,0,0,0,0,0,0,0,0,0,0,0,0,0,0,0,0,0,0,0,0,0,0,0
0.71191,0.71045,0.71045,0.71045,0.71045,0.71045,0.71191,0.71191,0.71338,0.71484,0.71484,0.71631,0,0,0,0,0,0,0.99121,0.99707,0.99707,0.99707,1,1,1,1,1,1.0029,1.0029,1.0029,1.0029,1.0029,1.0059,1.0059,1.0059,1.0059,1.0059,1.0059,1.0059,1.0059,1.0088,1.0088,1.0088,1.0117,1.0117,1.0117,1.0117,1.0156,1.0156,1.0156,1.0156,1.0156,1.0156,1.0186,1.0156,1.0186,1.0186,1.0186,1.0186,1.0186,1.0186,1.0215,1.0215,1.0215,1.0244,1.0244,1.0244,1.0244,1.0244,1.0244,1.0244,1.0244,1.0273,1.0273,1.0312,1.0312,1.0342,1.0342,1.0342,1.0342,1.0371,1.0371,1.0342,1.0371,1.0342,1.0371,1.0371,1.0371,1.0371,1.0371,1.0371,1.0371,1.0371,1.0371,1.0371,0.82178,0.82178,0.82178,0.82178,0.81787,0.82178,0.82178,0.82178,0.82178,0.82178,0.82178,0.82178,0.82373,0.82373,0.82373,0.82373,0.82373,0.82373,0.82373,0.82373,0.82373,0.82178,0.82373,0.82373,0.82373,0.82373,0.82373,0.82373,0.82373,0.82373,0.82373,0.82373,0.82373,0.82373,0.82373,0.82373,0.82373,0.82373,0.82178,0.82178,0.82178,0.82178,0.81982,0.81787,0.81787,0.81592,0.81592,0.81201,0.81201,0.81006,0.8081,0.80615,0,0,0,0,1.0635,1.0703,1.0742,1.0771,1.0771,1.0771,1.0811,1.0781,1.0781,1.0781,1.0781,1.0811,1.0781,1.0781,1.0781,1.0781,0,0,0,0,0,0,0,0,0,0.82617,0.82812,0.82812,0.82617,0.82617,0.82422,0.82422,0.82227,0.82227,0.82031,0.82031,0.81787,0.81787,0.81787,0.81787,0.81787,0.81836,0.81836,0.81836,0.81592,0.81397,0.81397,0.81397,0.81397,0.81201,0.81201,0.81201,0.81201,0.81006,0.81006,0.81006,0.80859,0.80664,0.80664,0.80469,0.80469,0.80469,0.80273,0.80273,0.80273,0.80273,0.80273,0.80273,0.80273,0.80078,0.79883,0.79883,0.79883,0.79688,0.79688,0.79688,0.79688,0.79492,0.79492,0.79492,0.79492,0.79346,0.79346,0.79346,0.79346,0.79492,0.79346,0.7915,0.79346,0.7915,0.7915,0.7915,0,0.82031,0.82031,0,0,0,0,0,0,0,0,0,0,0,1.1328,1.1328,1.1328,1.1328,1.1328,1.1367,1.1367,1.1367,1.1367,1.1406,1.1406,1.1406,1.1406,1.1406,1.1406,1.1367,1.1406,1.1406,1.1406,1.1445,1.1445,1.1445,1.1445,1.1445,1.1445,1.1445,1.1445,1.1445,1.1445,1.1445,1.1445,1.1406,1.1406,1.1406,1.1406,1.1406,1.1406,1.1406,1.1406,1.1406,1.1406,1.1406,1.1406,1.1445,1.1406,1.1406,1.1406,1.1406,1.1406,1.1406,1.1406,1.1445,1.1406,1.1445,1.1445,1.1445,1.1445,1.1406,1.1406,1.1406,1.1367,1.1367,1.1367,1.1328,1.1328,1.1289,1.126,1.126,1.126,1.126,1.1221,1.1221,1.1182,1.1182,1.1182,1.1143,1.1143,1.1182,1.1182,1.1182,1.126,1.1289,1.1289,1.1328,1.1289,1.1289,1.1289,1.1289,0,0,0,0,0,0,0,2.5371,2.5371,2.5371,2.5371,2.5371,2.5371,2.5371,2.5371,2.5371,2.5371,2.498,2.498,2.4805,2.4805,2.4805,2.4805,2.4434,2.4805,2.4629,2.4805,2.4805,2.4805,2.4805,2.498,2.498,2.4805,2.4805,2.4805,2.4805,2.498,2.498,2.498,2.498,2.498,2.498,2.498,2.498,2.5,2.4805,2.4629,2.4453,2.4277,2.4277,2.4277,2.4277,0,0,0,0,0,0,0,0,0,0,0,0,0,2.2793,2.2793,2.2793,2.2949,2.2949,2.3105,2.3105,0,0,0,0,0,0,0,0,0,0,0,0,0,0,0,0,0,0,0,0,0,0,0,0,0,0,0,0,0
0.71191,0.71045,0.71045,0.70898,0.71045,0.71045,0.71191,0.71338,0.71484,0.71484,0.71484,0.71631,0,0,0,0,0,0,0.99414,0.99414,0.99707,0.99707,0.99707,0.99707,0.99707,1,1,1.0029,1.0029,1.0029,1.0059,1.0059,1.0059,1.0059,1.0059,1.0059,1.0059,1.0088,1.0088,1.0088,1.0117,1.0117,1.0088,1.0117,1.0117,1.0156,1.0156,1.0156,1.0156,1.0186,1.0186,1.0186,1.0186,1.0186,1.0186,1.0186,1.0186,1.0186,1.0186,1.0186,1.0186,1.0186,1.0215,1.0244,1.0244,1.0244,1.0244,1.0244,1.0244,1.0244,1.0273,1.0273,1.0273,1.0312,1.0312,1.0342,1.0342,1.0342,1.0342,1.0371,1.0371,1.0371,1.0371,1.0371,1.0371,1.0371,1.0371,1.0371,1.0371,1.0371,1.0371,1.0371,1.0371,1.0371,1.0371,0.82178,0.82178,0.82178,0.81982,0.81787,0.81982,0.82178,0.82178,0.82178,0.82178,0.82178,0.82178,0.82373,0.82373,0.82373,0.82373,0.82373,0.82373,0.82373,0.82178,0.82178,0.82178,0.82178,0.82373,0.82178,0.82178,0.82178,0.82178,0.82178,0.82178,0.82178,0.82178,0.82178,0.82178,0.82178,0.82178,0.82178,0.81982,0.81982,0.81982,0.81982,0.81982,0.81787,0.81592,0.81592,0.81397,0.81397,0.81006,0.81006,0.8081,0.8081,0.80615,0.80615,0.80615,0,0,0,1.0703,1.0781,1.0781,1.0811,1.0811,1.0811,1.0811,1.0811,1.0811,1.0811,1.0811,1.0811,1.0811,1.0781,1.0811,1.0811,0,0,0,0,0,0,0,0.83203,0.82812,0.83008,0.82812,0.82812,0.82617,0.82617,0.82422,0.82422,0.82227,0.82031,0.82031,0.81836,0.81836,0.81836,0.81836,0.81836,0.81836,0.81836,0.81836,0.81836,0.81641,0.81641,0.81641,0.81445,0.81445,0.8125,0.8125,0.8125,0.81055,0.81055,0.81055,0.80859,0.80859,0.80664,0.80664,0.80469,0.80469,0.80469,0.80469,0.80273,0.80273,0.80273,0.80273,0.80273,0.80273,0.80078,0.80078,0.79883,0.79883,0.79688,0.79688,0.79688,0.79688,0.79688,0.79492,0.79492,0.79492,0.79492,0.79492,0.79492,0.79492,0.79492,0.79346,0.79346,0.7915,0.7915,0.7915,0,0.81836,0.81836,0,0,0,0,0,0,0,0,0,0,0,1.1367,1.1328,1.1328,1.1367,1.1367,1.1367,1.1367,1.1367,1.1367,1.1406,1.1406,1.1406,1.1406,1.1406,1.1406,1.1406,1.1406,1.1406,1.1406,1.1445,1.1445,1.1445,1.1445,1.1445,1.1445,1.1445,1.1445,1.1445,1.1445,1.1445,1.1445,1.1445,1.1445,1.1406,1.1406,1.1445,1.1445,1.1445,1.1445,1.1406,1.1406,1.1406,1.1406,1.1445,1.1445,1.1445,1.1406,1.1406,1.1406,1.1406,1.1406,1.1445,1.1406,1.1406,1.1445,1.1406,1.1406,1.1406,1.1406,1.1406,1.1406,1.1367,1.1367,1.1367,1.1328,1.1328,1.1289,1.126,1.126,1.126,1.1221,1.1221,1.1221,1.1221,1.1182,1.1182,1.1182,1.1182,1.1221,1.1221,1.1289,1.1289,1.1328,1.1328,1.1328,1.1299,1.1299,1.1299,0,0,0,0,0,0,0,2.5176,2.5371,2.5371,2.5371,2.5371,2.5371,2.5371,2.5371,2.5371,2.5176,2.498,2.498,2.498,2.4629,2.4805,2.4805,2.4453,2.4629,2.4629,2.4453,2.4629,2.4805,2.4805,2.5,2.5,2.4805,2.4805,2.4805,2.4805,2.5,2.5,2.5,2.5176,2.5176,2.5,2.5,2.4805,2.4805,2.4629,2.4629,2.4277,2.4277,2.4102,2.4102,0,0,0,0,0,0,0,0,0,0,0,2.248,0,0,2.3105,2.2949,2.2949,2.2949,2.2949,2.2949,2.2949,2.2793,2.2637,0,0,0,0,0,0,0,0,0,0,0,0,0,0,0,0,0,0,0,0,0,0,0,0,0,0,0
0.71484,0.71045,0.71045,0.71045,0.71045,0.71045,0.71191,0.71338,0.71484,0.71484,0.71484,0.71631,0,0,0,0,0,0,0.99414,0.99414,0.99414,0.99707,1,1,1,1,1.0029,1.0029,1.0059,1.0029,1.0059,1.0059,1.0059,1.0059,1.0059,1.0059,1.0088,1.0088,1.0088,1.0088,1.0117,1.0156,1.0117,1.0156,1.0156,1.0156,1.0156,1.0186,1.0186,1.0186,1.0186,1.0186,1.0186,1.0186,1.0186,1.0186,1.0186,1.0215,1.0215,1.0215,1.0215,1.0186,1.0244,1.0244,1.0244,1.0244,1.0244,1.0244,1.0244,1.0244,1.0244,1.0273,1.0312,1.0312,1.0342,1.0342,1.0342,1.0342,1.0371,1.0371,1.0371,1.0371,1.0371,1.0371,1.0371,1.0371,1.0371,1.0371,1.0371,1.0371,1.0342,1.0371,1.0371,1.0342,0.82178,0.82178,0.81982,0.81982,0.81982,0.81787,0.81982,0.81982,0.81982,0.81982,0.82178,0.82178,0.82178,0.82373,0.82373,0.82373,0.82373,0.82373,0.82178,0.82178,0.82178,0.81982,0.81982,0.81982,0.82178,0.81787,0.81787,0.81787,0.81787,0.81982,0.81982,0.81982,0.81787,0.81787,0.81787,0.81787,0.81982,0.81787,0.81787,0.81592,0.81592,0.81787,0.81592,0.81397,0.81397,0.81201,0.81006,0.81006,0.8081,0.8081,0.80615,0.80615,0.80225,0.8042,0.80225,0,0,0,0,0,1.0811,1.0811,1.0811,1.0811,1.0811,1.085,1.085,1.085,1.085,1.085,1.085,1.0811,1.0811,1.0811,0,0,0,0,0,0,0,0.83008,0.82812,0.83008,0.82812,0.82812,0.82617,0.82617,0.82617,0.82422,0.82227,0.82227,0.82031,0.82031,0.82031,0.82031,0.81836,0.82031,0.81836,0.81836,0.81836,0.81836,0.81836,0.81836,0.81641,0.81445,0.81445,0.8125,0.8125,0.8125,0.8125,0.81055,0.81055,0.81055,0.80859,0.80859,0.80664,0.80664,0.80469,0.80469,0.80469,0.80469,0.80469,0.80469,0.80469,0.80273,0.80273,0.80273,0.80078,0.80078,0.79883,0.79883,0.79688,0.79688,0.79688,0.79688,0.79688,0.79688,0.79492,0.79492,0.79492,0.79541,0.79541,0.79541,0.79346,0.79541,0.7915,0.79346,0.79541,0.80664,0.81445,0.81641,0,0,0,0,0,0,0,0,0,0,0,0,1.1367,1.1367,1.1367,1.1367,1.1367,1.1367,1.1367,1.1406,1.1406,1.1406,1.1406,1.1445,1.1406,1.1406,1.1406,1.1406,1.1445,1.1445,1.1445,1.1445,1.1445,1.1445,1.1445,1.1445,1.1445,1.1445,1.1445,1.1445,1.1445,1.1445,1.1445,1.1445,1.1445,1.1445,1.1445,1.1445,1.1445,1.1445,1.1445,1.1445,1.1445,1.1445,1.1445,1.1445,1.1445,1.1445,1.1445,1.1445,1.1406,1.1406,1.1406,1.1406,1.1406,1.1406,1.1406,1.1406,1.1406,1.1406,1.1406,1.1406,1.1367,1.1367,1.1367,1.1367,1.1328,1.1328,1.1289,1.1289,1.126,1.126,1.1221,1.1221,1.1221,1.1221,1.1182,1.1182,1.1221,1.1221,1.1221,1.1299,1.1328,1.1328,1.1328,1.1328,1.1328,1.1328,1.1299,0,0,0,0,0,0,0,2.5176,2.5176,2.5176,2.5176,2.5176,2.5176,2.5371,2.5371,2.5176,2.5176,2.498,2.498,2.498,2.4629,2.4629,2.4629,2.4453,2.4629,2.4629,2.4453,2.4629,2.4805,2.4805,2.4805,2.4805,2.4805,2.4805,2.4805,2.4805,2.5,2.4805,2.4805,2.5,2.5,2.5,2.5,2.4805,2.4629,2.4453,2.4277,2.4277,2.4102,2.3594,2.3926,0,0,0,0,0,0,0,0,0,2.2344,2.248,2.248,2.2637,0,2.2949,2.2949,2.2949,2.2949,2.3262,2.2949,2.2949,2.2793,2.2793,2.3262,0,0,0,0,0,0,0,0,0,0,0,0,0,0,0,0,0,0,0,0,0,0,0,0,0,0
0.71484,0.71338,0.71191,0.71045,0.71045,0.71045,0.71191,0.71338,0.71484,0.71484,0.71631,0.71631,0,0,0,0,0,0,0.99414,0.99707,0.99707,1,1,1,1,1.0029,1.0029,1.0059,1.0059,1.0059,1.0059,1.0059,1.0059,1.0059,1.0059,1.0088,1.0088,1.0088,1.0117,1.0117,1.0156,1.0156,1.0156,1.0156,1.0156,1.0186,1.0186,1.0186,1.0186,1.0186,1.0186,1.0186,1.0186,1.0186,1.0186,1.0186,1.0186,1.0215,1.0215,1.0215,1.0215,1.0215,1.0244,1.0244,1.0244,1.0244,1.0244,1.0244,1.0244,1.0244,1.0244,1.0283,1.0312,1.0312,1.0342,1.0342,1.0342,1.0342,1.0371,1.0371,1.0371,0.81201,0.81201,0.81201,0.81201,0,0,0,0,1.0342,0.81592,0.81592,1.0371,1.0371,0.82178,0.81982,0.81982,0.81787,0.81787,0.81787,0.81982,0.81982,0.81982,0.81982,0.81982,0.82178,0.82178,0.82178,0.82178,0.82178,0.82178,0.82178,0.81982,0.81982,0.81982,0.81787,0.81787,0.81787,0.81982,0.81787,0.81787,0.81787,0.81787,0.81787,0.81787,0.81592,0.81592,0.81592,0.81397,0.81592,0.81787,0.81592,0.81787,0.81592,0.81201,0.81201,0.81201,0.81201,0.81006,0.8081,0.8081,0.8081,0.80615,0.80615,0.80615,0.80225,0.80225,0.80029,0.80029,0.80029,0,0,0,0,1.0811,1.0811,1.085,1.0811,1.0811,1.085,1.085,1.085,1.085,1.085,1.085,1.0811,1.0811,1.085,1.085,0,0,0,0,0,0,0.82812,0.82812,0.83008,0.83008,0.82812,0.82617,0.82617,0.82617,0.82422,0.82422,0.82422,0.82227,0.82031,0.82031,0.82031,0.82031,0.82031,0.82031,0.81836,0.82031,0.81836,0.81836,0.81836,0.81836,0.81641,0.81445,0.81445,0.8125,0.8125,0.8125,0.8125,0.81055,0.81055,0.81055,0.81055,0.80859,0.80859,0.80664,0.80664,0.80469,0.80469,0.80469,0.80469,0.80469,0.80469,0.80469,0.80273,0.80273,0.80078,0.80078,0.79883,0.79883,0.79883,0.79688,0.79688,0.79688,0.79688,0.79688,0.79688,0.79688,0.79541,0.79688,0.79688,0.79541,0.79541,0.79346,0.79541,0.80273,0.80469,0.80859,0.80859,0,0,0,0,0,0,0,0,0,0,0,1.1406,1.1367,1.1367,1.1367,1.1367,1.1367,1.1367,1.1367,1.1406,1.1406,1.1445,1.1406,1.1445,1.1445,1.1445,1.1445,1.1445,1.1445,1.1445,1.1445,1.1484,1.1445,1.1445,1.1484,1.1445,1.1445,1.1484,1.1445,1.1445,1.1484,1.1484,1.1445,1.1484,1.1445,1.1445,1.1484,1.1484,1.1445,1.1445,1.1445,1.1445,1.1445,1.1445,1.1484,1.1445,1.1484,1.1484,1.1445,1.1445,1.1445,1.1445,1.1445,1.1445,1.1445,1.1445,1.1406,1.1406,1.1445,1.1406,1.1406,1.1406,1.1406,1.1367,1.1367,1.1367,1.1328,1.1328,1.1328,1.1299,1.1299,1.126,1.126,1.126,1.1221,1.1221,1.1182,1.1182,1.1221,1.126,1.126,1.1299,1.1328,1.1328,1.1328,1.1328,1.1338,1.1299,1.1338,0,0,0,0,0,0,0,2.498,2.5176,2.5176,2.498,2.5176,2.5176,2.498,2.5176,2.5176,2.5,2.5,2.5,2.4805,2.4629,2.4805,2.4805,2.4805,2.4805,2.4629,2.4629,2.4805,2.4805,2.5,2.5,2.5,2.4805,2.4805,2.4805,2.5,2.5,2.5,0,0,0,0,0,2.4453,2.4453,2.4453,2.4277,2.4102,2.4102,2.3594,2.3594,2.3926,2.3926,2.375,2.3926,0,0,0,0,0,2.248,2.248,2.2949,2.2949,2.3105,2.3262,2.3262,2.2949,2.3105,2.3262,2.3105,2.3262,2.3262,2.3105,2.3105,0,0,0,0,0,0,0,0,0,0,0,0,0,0,0,0,0,0,0,0,0,0,0,0,0,0
0.71631,0.71484,0.71484,0.71191,0.71191,0.71338,0.71191,0.71338,0.71484,0.71631,0.71631,0.71777,0.71777,0,0,0,0,0,0.99414,0.99707,0.99707,1,1,1,1.0029,1.0029,1.0029,1.0059,1.0059,1.0059,1.0059,1.0059,1.0059,1.0059,1.0059,1.0088,1.0088,1.0127,1.0127,1.0156,1.0156,1.0186,1.0156,1.0156,1.0156,1.0156,1.0186,1.0186,1.0186,1.0186,1.0215,1.0186,1.0186,1.0186,1.0186,1.0186,1.0186,1.0215,1.0215,1.0215,1.0215,1.0215,1.0244,1.0244,1.0244,1.0244,1.0244,1.0283,1.0244,1.0244,1.0312,1.0312,1.0312,1.0342,1.0342,1.0342,1.0371,1.0371,1.0371,0.81201,0.81201,0.81006,0.81201,0.81201,0.81397,0.81201,0.81397,0.81397,0.81397,0.81592,0.81592,0.81592,0.81787,0.81787,0.81592,0.81787,0.81787,0.81787,0.81787,0.81787,0.81787,0.81787,0.81787,0.81787,0.81982,0.81982,0.82178,0.82178,0.82178,0.82178,0.81982,0.81982,0.81787,0.81787,0.81787,0.81592,0.81592,0.81592,0.81787,0.81787,0.81787,0.81592,0.81592,0.81592,0.81397,0.81201,0.81201,0.81201,0.81201,0.81201,0.81397,0.81201,0.81006,0.81201,0.81006,0.8081,0.80615,0.8081,0.80615,0.8042,0.8042,0.80225,0.80029,0.80029,0.80078,0.79883,0.79883,0.79688,0.79492,0.79492,0,0,0,0,0,1.0879,1.0879,1.085,1.0811,1.085,1.0879,1.0879,1.085,1.085,1.085,1.085,1.085,1.0879,1.085,0,0,0,0,0,0,0.83008,0.83008,0.83008,0.83008,0.82812,0.82617,0.82617,0.82617,0.82617,0.82422,0.82422,0.82227,0.82227,0.82227,0.82031,0.82031,0.82031,0.82031,0.82031,0.82031,0.82031,0.81836,0.81836,0.81836,0.81641,0.81641,0.81445,0.81445,0.8125,0.8125,0.8125,0.81055,0.81055,0.81055,0.81055,0.81055,0.80859,0.80859,0.80859,0.80664,0.80664,0.80469,0.80469,0.80469,0.80469,0.80469,0.80273,0.80273,0.80273,0.80273,0.80078,0.80078,0.80078,0.79883,0.79883,0.79688,0.79688,0.79688,0.79688,0.79688,0.79688,0.79736,0.79736,0.79541,0.79541,0.79541,0.79736,0.80273,0.80273,0.80664,0.8125,0,0,0,0,0,0,0,0,0,0,0,1.1484,1.1406,1.1367,1.1406,1.1367,1.1406,1.1406,1.1406,1.1406,1.1406,1.1445,1.1445,1.1445,1.1445,1.1445,1.1445,1.1445,1.1445,1.1484,1.1484,1.1484,1.1484,1.1484,1.1484,1.1484,1.1484,1.1484,1.1484,1.1484,1.1484,1.1484,1.1484,1.1484,1.1484,1.1484,1.1484,1.1484,1.1484,1.1484,1.1484,1.1484,1.1484,1.1445,1.1484,1.1484,1.1484,1.1484,1.1484,1.1484,1.1484,1.1484,1.1445,1.1445,1.1445,1.1406,1.1406,1.1406,1.1406,1.1406,1.1406,1.1406,1.1406,1.1367,1.1367,1.1367,1.1367,1.1328,1.1328,1.1328,1.1299,1.1299,1.126,1.126,1.126,1.1221,1.1221,1.1221,1.1221,1.126,1.126,1.1299,1.1338,1.1377,1.1338,1.1367,1.1338,1.1299,1.1299,0,0,0,0,0,0,0,2.4805,2.5,2.5,2.4805,2.4805,2.5,2.5,2.5,2.5,2.4805,2.4805,2.4805,2.4805,2.4629,2.4629,2.4805,2.4805,2.4805,2.4629,2.4629,2.4805,2.4805,2.4805,2.4805,2.5,2.4805,2.4805,2.4805,2.4805,2.4805,0,0,0,0,0,0,0,0,2.4629,2.3926,2.4277,2.3594,2.3418,2.3594,2.3594,2.3926,2.375,2.375,2.375,2.3926,2.375,2.3594,2.3418,2.3418,2.375,2.375,2.3438,2.3438,2.3438,2.3438,2.3262,2.3262,2.3438,2.3262,2.3262,2.3438,2.3438,0,0,0,0,0,0,0,0,0,0,0,0,0,0,0,0,0,0,0,0,0,0,0,0,0,0,0
0.71484,0.71484,0.71191,0.71191,0.71191,0.71338,0.71338,0.71338,0.71484,0.71631,0.71631,0.71777,0.71777,0.72266,0.72266,0,0,0,0,0,0.99707,1.0029,1.0029,1.0029,1.0029,1.0059,1.0059,1.0059,1.0059,1.0059,1.0059,1.0059,1.0059,1.0059,1.0088,1.0088,1.0127,1.0127,1.0156,1.0156,1.0186,1.0186,1.0156,1.0156,1.0186,1.0186,1.0186,1.0186,1.0186,1.0215,1.0215,1.0215,1.0215,1.0215,1.0215,1.0215,1.0186,1.0215,1.0215,1.0215,1.0215,1.0215,1.0244,1.0244,1.0244,1.0244,1.0244,1.0283,1.0283,1.0283,1.0283,1.0283,1.0312,1.0312,1.0342,1.0342,1.0342,0.81201,0.81201,0.81201,0.81201,0.81006,0.81006,0.81006,0.81397,0.81397,0.81397,0.81592,0.81592,0.81592,0.81592,0.81592,0.81592,0.81592,0.81592,0.81592,0.81592,0.81592,0.81592,0.81592,0.81592,0.81592,0.81592,0.81592,0.81592,0.81592,0.81592,0.81592,0.81592,0.81592,0.81592,0.81592,0.81397,0.81592,0.81397,0.81397,0.81397,0.81397,0.81592,0.81397,0.81397,0.81397,0.81006,0.81201,0.81006,0.81006,0.81006,0.81006,0.81006,0.8081,0.81006,0.8081,0.8081,0.8081,0.8042,0.8042,0.80225,0.80078,0.80078,0.80078,0.79883,0.79688,0.79688,0.79688,0.79688,0.79688,0.79688,0.79492,0.79492,0.79297,0.79688,0,0,0,0,1.085,1.0879,1.085,1.085,1.085,1.0879,1.0879,1.0879,1.0879,1.0879,1.0889,1.0889,1.0889,1.085,1.085,0,0,0,0.83447,0.83252,0.83057,0.83057,0.83252,0.83057,0.83057,0.82812,0.82617,0.82617,0.82617,0.82617,0.82617,0.82422,0.82227,0.82227,0.82031,0.82031,0.82031,0.82031,0.82031,0.82031,0.82031,0.82031,0.81836,0.81836,0.81836,0.81641,0.81641,0.81445,0.81445,0.8125,0.8125,0.8125,0.8125,0.8125,0.81055,0.81055,0.81055,0.81055,0.80859,0.80859,0.80664,0.80664,0.80664,0.80664,0.80469,0.80469,0.80469,0.80273,0.80273,0.80273,0.80273,0.80273,0.80078,0.80078,0.79883,0.79883,0.79883,0.79883,0.79736,0.79736,0.79736,0.79883,0.79736,0.79736,0.79736,0.79736,0.79932,0.80273,0.80469,0.8125,0.8125,0.81055,0.81055,0,0,0,0,0,0,0,0,0,1.1523,1.1406,1.1406,1.1445,1.1406,1.1445,1.1406,1.1445,1.1445,1.1445,1.1445,1.1445,1.1445,1.1445,1.1445,1.1445,1.1445,1.1484,1.1484,1.1484,1.1484,1.1484,1.1484,1.1523,1.1523,1.1484,1.1523,1.1523,1.1523,1.1523,1.1484,1.1484,1.1484,1.1484,1.1484,1.1484,1.1484,1.1484,1.1484,1.1484,1.1484,1.1484,1.1484,1.1484,1.1484,1.1484,1.1484,1.1484,1.1484,1.1484,1.1484,1.1445,1.1445,1.1445,1.1406,1.1406,1.1406,1.1406,1.1406,1.1406,1.1406,1.1406,1.1367,1.1367,1.1367,1.1367,1.1338,1.1338,1.1338,1.1299,1.1299,1.126,1.126,1.1221,1.1221,1.1221,1.1221,1.1221,1.1299,1.1299,1.1338,1.1377,1.1377,1.1377,1.1377,1.1338,1.1299,1.1338,0,0,0,0,0,0,0,2.4805,2.4805,2.4805,2.4805,2.4805,2.4805,2.5,2.5,2.5,2.4805,2.4805,2.4805,2.4805,2.4629,2.4629,2.4629,2.4629,2.4629,2.4453,2.4629,2.4629,2.4629,2.4805,2.4805,2.4805,2.4805,2.4629,2.4629,2.4277,2.4277,2.4277,0,0,0,0,0,0,0,0,0,0,2.3594,2.3594,2.375,2.375,2.375,2.3926,2.3926,2.375,2.3926,2.3926,2.3594,2.3438,2.3438,2.3594,2.3438,2.3594,2.3594,2.3594,2.3438,2.3438,2.3438,2.3438,2.3438,2.3438,2.3438,2.3438,0,0,0,0,0,0,0,0,0,0,0,0,0,0,0,0,0,0,0,0,0,0,0,0,0,0,0
0.71484,0.71338,0.71338,0.71191,0.71191,0,0.71484,0.71484,0.71631,0.71631,0.71631,0.71973,0.71973,0.71973,0.72119,0.72119,0,0,0,0,0,0.99707,1.0029,1.0059,1.0059,1.0059,1.0059,1.0059,1.0059,1.0059,1.0088,1.0059,1.0088,1.0088,1.0088,1.0127,1.0127,1.0156,1.0156,1.0156,1.0186,1.0186,1.0156,1.0186,1.0186,1.0186,1.0186,1.0186,1.0215,1.0215,1.0215,1.0215,1.0215,1.0215,1.0215,1.0215,1.0215,1.0244,1.0215,1.0215,1.0215,1.0215,1.0244,1.0244,1.0244,1.0244,1.0244,1.0283,1.0283,1.0283,1.0312,1.0312,1.0312,1.0312,1.0342,1.0371,1.0342,0.81201,0.81201,0.81201,0.81201,0.81006,0.81006,0.81006,0.81201,0.81201,0.81397,0.81397,0.81397,0.81397,0.81397,0.81397,0.81397,0.81397,0.81397,0.81397,0.81397,0.81397,0.81397,0.81397,0.81397,0.81397,0.81397,0.81397,0.81397,0.81592,0.81592,0.81592,0.81592,0.81397,0.81397,0.81397,0.81201,0.81397,0.81201,0.81201,0.81006,0.8081,0.81397,0.8081,0.8042,0.8042,0.8042,0.8042,0.80615,0.8042,0.80615,0.80615,0.80615,0.80615,0.8042,0.8042,0.80225,0.80225,0.80078,0.79883,0.79688,0.79883,0.79688,0.79688,0.79688,0.79492,0.79492,0.79492,0.79492,0.79492,0.79492,0.79492,0.79102,0.79102,0,0,0,0,0,0,1.0879,1.0811,1.0811,1.0889,1.0889,1.0889,1.0889,1.0889,1.0889,1.0889,1.0889,1.085,1.085,1.0811,0,0,0,0,0.83252,0.83252,0.83252,0.83447,0.83447,0.83252,0.83057,0.82812,0.82812,0.82812,0.82617,0.82617,0.82422,0.82227,0.82227,0.82227,0.82031,0.82031,0.82031,0.82031,0.82031,0.82031,0.82031,0.82031,0.81836,0.81836,0.81836,0.81641,0.81641,0.81445,0.81445,0.8125,0.8125,0.8125,0.8125,0.8125,0.8125,0.81055,0.81055,0.81055,0.80859,0.80859,0.80664,0.80664,0.80664,0.80469,0.80469,0.80469,0.80469,0.80273,0.80273,0.80273,0.80273,0.80273,0.80078,0.80078,0.79883,0.79883,0.79883,0.79883,0.79883,0.79736,0.79932,0.79932,0.79932,0.79932,0.79932,0.80078,0.80273,0.80273,0.80664,0.81445,0.81445,0,0,0,0,0,0,0,0,0,1.1523,1.1523,1.1445,1.1445,1.1445,1.1445,1.1445,1.1445,1.1445,1.1445,1.1445,1.1445,1.1445,1.1445,1.1445,1.1484,1.1445,1.1484,1.1484,1.1484,1.1484,1.1523,1.1484,1.1523,1.1523,1.1523,1.1523,1.1523,1.1523,1.1523,1.1523,1.1523,1.1484,1.1484,1.1484,1.1484,1.1484,1.1523,1.1484,1.1484,1.1484,1.1484,1.1484,1.1484,1.1523,1.1484,1.1484,1.1523,1.1484,1.1484,1.1484,1.1484,1.1445,1.1445,1.1445,1.1445,1.1406,1.1406,1.1445,1.1445,1.1445,1.1406,1.1406,1.1406,1.1406,1.1367,1.1367,1.1367,1.1338,1.1338,1.1338,1.1338,1.1299,1.1299,1.126,1.126,1.1221,1.1221,1.1221,1.1299,1.1299,1.1377,1.1377,1.1377,1.1377,1.1377,1.1338,1.1338,1.1338,0,0,0,0,0,0,0,2.4629,2.4805,2.4805,2.4629,2.4629,2.4805,2.4805,2.4805,2.4805,2.4805,2.4805,2.4629,2.4629,2.4453,2.4629,2.4629,2.4629,2.4629,2.4453,2.4453,2.4629,2.4629,2.4629,2.4805,2.4805,2.4805,2.4453,2.4453,2.4277,2.4277,2.4277,2.4102,0,0,0,0,0,0,0,0,2.4102,2.3594,2.3594,2.377,2.377,2.3926,2.3926,2.3926,2.3926,2.3926,2.4102,2.3926,2.377,2.3594,2.3594,2.377,2.377,2.3594,2.3594,2.3594,2.3438,2.3438,2.3438,2.3438,2.3438,2.3438,2.3438,0,0,0,0,0,0,0,0,0,0,0,0,0,0,0,0,0,0,0,0,0,0,0,0,0,0,0
0.71484,0.71484,0.71484,0.71484,0.71484,0.71484,0.71484,0.71484,0.71631,0.71631,0.71631,0.71973,0.71973,0.71973,0.72266,0.72119,0,0,0,0,0,0,1.0029,1.0029,1.0059,1.0059,1.0059,1.0059,1.0059,1.0059,1.0088,1.0098,1.0098,1.0098,1.0098,1.0127,1.0156,1.0156,1.0186,1.0186,1.0186,1.0186,1.0186,1.0186,1.0186,1.0186,1.0186,1.0186,1.0215,1.0215,1.0215,1.0215,1.0215,1.0244,1.0215,1.0244,1.0215,1.0244,1.0244,1.0215,1.0215,1.0244,1.0283,1.0283,1.0283,1.0244,1.0244,1.0283,1.0283,1.0283,1.0312,1.0312,1.0312,1.0342,1.0371,0.81201,0.81201,0.81201,0.81201,0.81201,0.81201,0.81201,0.81006,0.81201,0.81201,0.81201,0.81201,0.81201,0.81397,0.81397,0.81201,0.81201,0.81201,0.81201,0.81201,0.81201,0.81006,0.81006,0.81006,0.81006,0.81201,0.81201,0.81201,0.81006,0.81006,0.81006,0.81201,0.81006,0.81006,0.81006,0.81006,0.81006,0.81006,0.81201,0.81006,0.81006,0.8081,0.80615,0.8081,0.8042,0.80225,0.80225,0.80225,0.80225,0.80225,0.80225,0.8042,0.80225,0.8042,0.80225,0.80078,0.79688,0.79688,0.79688,0.79688,0.79492,0.79492,0.79492,0.79492,0.79492,0.79492,0.79297,0.79492,0.79492,0.79492,0.79297,0.79297,0.79102,0.78955,0.7876,0.78565,0.78565,0.7876,0,0,0,1.0811,1.0811,1.0811,1.085,1.0889,1.0889,1.0889,1.0889,1.0889,1.0889,1.0889,1.0889,1.0889,1.085,1.0811,0,0,0,0.83252,0.83252,0.83252,0.83447,0.83447,0.83447,0.83252,0.83057,0.83057,0.82861,0.82861,0.82861,0.82617,0.82422,0.82422,0.82227,0.82227,0.82227,0.82227,0.82227,0.82031,0.82031,0.82031,0.82031,0.82031,0.81836,0.81836,0.81641,0.81641,0.81445,0.81445,0.81445,0.81445,0.8125,0.8125,0.8125,0.8125,0.8125,0.8125,0.81055,0.81055,0.81055,0.80859,0.80859,0.80859,0.80664,0.80664,0.80469,0.80469,0.80469,0.80469,0.80273,0.80273,0.80273,0.80273,0.80078,0.80078,0.80078,0.80078,0.79932,0.79932,0.79932,0.79932,0.79932,0.79932,0.79932,0.79932,0.80127,0.80273,0.80273,0.80469,0.80664,0.8125,0,0,0,0,0,0,1.1641,0,1.1641,1.1602,1.1562,1.1484,1.1445,1.1484,1.1445,1.1445,1.1445,1.1445,1.1445,1.1445,1.1445,1.1445,1.1484,1.1445,1.1484,1.1484,1.1484,1.1484,1.1484,1.1523,1.1523,1.1523,1.1523,1.1523,1.1562,1.1523,1.1562,1.1523,1.1523,1.1523,1.1523,1.1523,1.1484,1.1484,1.1484,1.1523,1.1523,1.1523,1.1523,1.1523,1.1523,1.1484,1.1484,1.1523,1.1523,1.1523,1.1523,1.1523,1.1484,1.1484,1.1484,1.1484,1.1445,1.1484,1.1445,1.1445,1.1445,1.1445,1.1445,1.1445,1.1406,1.1406,1.1406,1.1406,1.1377,1.1377,1.1377,1.1338,1.1338,1.1338,1.1338,1.1299,1.1299,1.126,1.126,1.1221,1.1221,1.126,1.1338,1.1299,1.1377,1.1416,1.1416,1.1377,1.1416,1.1377,0,0,0,0,0,0,0,2.4629,2.4629,2.4629,2.4629,2.4629,2.4453,2.4629,2.4453,2.4805,2.4629,2.4629,2.4277,2.4629,2.4453,2.4453,2.4453,2.4453,2.4453,2.4453,2.4453,2.4453,2.4453,2.4629,2.4629,2.4629,2.4629,2.4805,2.4805,2.4629,2.4277,2.4277,2.4102,2.4102,0,0,0,0,0,0,0,0,2.4102,2.4102,2.377,2.3594,2.377,2.377,2.3926,2.3926,2.3926,2.3926,2.3926,2.4102,2.3926,2.377,2.3594,2.377,2.377,2.377,2.3594,2.3594,2.3594,2.3594,2.3594,2.3438,2.3438,2.3438,2.3438,2.3438,0,0,0,0,0,0,0,0,0,0,0,0,0,0,0,0,0,0,0,0,0,0,0,0,0,0,0
0.71484,0.71484,0.71484,0.71484,0.71484,0.71484,0.71484,0.71631,0.7168,0.7168,0.7168,0.71973,0.72119,0.72266,0.72412,0.72412,0.72607,0,0,0,0,0,1.0059,1.0059,1.0059,1.0059,1.0059,1.0098,1.0059,1.0098,1.0098,1.0098,1.0098,1.0098,1.0127,1.0127,1.0156,1.0156,1.0186,1.0186,1.0186,1.0186,1.0186,1.0186,1.0186,1.0186,1.0186,1.0186,1.0186,1.0215,1.0215,1.0215,1.0215,1.0244,1.0244,1.0244,1.0215,1.0244,1.0244,1.0215,1.0215,1.0244,1.0283,1.0254,1.0254,1.0254,1.0283,0.80615,0.80615,0.8081,0.81006,0.81006,0.81201,0.81201,0.81201,0.81201,0.81201,0.81201,0.81201,0.81201,0.81006,0.81006,0.81006,0.81201,0.81201,0.81006,0.81006,0.81201,0.81201,0.81201,0.81201,0.81201,0.81201,0.81201,0.81201,0.81006,0.8081,0.8081,0.8081,0.8081,0.8081,0.8081,0.8081,0.80615,0.80615,0.80615,0.8081,0.80615,0.8081,0.80615,0.8081,0.8081,0.80615,0.8081,0.8042,0.80615,0.8042,0.80225,0.80225,0.80225,0.80225,0.80225,0.80225,0.80225,0.80225,0.80273,0.80273,0.80078,0.79883,0.79688,0.79688,0.79492,0.79492,0.79492,0.79492,0.79297,0.79297,0.79297,0.79297,0.79297,0.79297,0.79297,0.79297,0.79297,0.79297,0.79102,0.78955,0.78955,0.78565,0.78565,0.78565,0.78565,0,0,0,0,0,0,1.085,1.0889,1.0889,1.0889,1.0889,1.0889,1.0918,1.0889,1.0889,1.0889,1.0889,1.085,1.085,0,0,0,0.83447,0.83447,0.83447,0.83447,0.83447,0.83447,0.83252,0.83252,0.83057,0.83057,0.82861,0.82861,0.82861,0.82666,0.82666,0.82666,0.82422,0.82422,0.82422,0.82422,0.82227,0.82227,0.82031,0.82031,0.82031,0.81836,0.81836,0.81836,0.81641,0.81445,0.81641,0.81445,0.81445,0.81445,0.81445,0.81445,0.81445,0.8125,0.8125,0.8125,0.8125,0.81055,0.81055,0.81055,0.80859,0.80859,0.80664,0.80469,0.80469,0.80469,0.80469,0.80469,0.80469,0.80273,0.80273,0.80273,0.80273,0.80273,0.80127,0.80127,0.80127,0.80127,0.80127,0.80127,0.80127,0.80127,0.80127,0.80127,0.80469,0.80322,0.80469,0.80664,0.81445,0,0,0,0,0,0,0,0,0,1.1562,1.1523,1.1484,1.1484,1.1484,1.1445,1.1445,1.1445,1.1445,1.1445,1.1445,1.1484,1.1445,1.1484,1.1484,1.1484,1.1484,1.1484,1.1484,1.1484,1.1523,1.1523,1.1523,1.1523,1.1562,1.1562,1.1562,1.1562,1.1562,1.1562,1.1562,1.1523,1.1523,1.1523,1.1484,1.1484,1.1523,1.1523,1.1523,1.1523,1.1523,1.1523,1.1523,1.1484,1.1572,1.1572,1.1523,1.1523,1.1523,1.1523,1.1523,1.1484,1.1484,1.1484,1.1484,1.1484,1.1484,1.1484,1.1445,1.1445,1.1445,1.1416,1.1416,1.1416,1.1416,1.1377,1.1377,1.1377,1.1377,1.1338,1.1338,1.1338,1.1299,1.1299,1.126,1.126,1.126,1.126,1.126,1.1299,1.1299,1.1338,1.1377,1.1377,1.1377,1.1377,1.1377,1.1377,0,0,0,0,0,0,2.4453,2.4629,2.4629,2.4629,2.4629,2.4629,2.4453,2.4453,2.4629,2.4629,2.4102,2.4102,2.4102,2.4102,2.4453,2.4277,2.4277,2.4277,2.4277,2.4277,2.4277,2.4277,2.4453,2.4453,2.4453,2.4453,2.4453,2.4453,2.4453,2.4277,2.4102,2.4102,0,0,0,0,0,0,0,0,0,2.3926,2.377,2.3594,2.377,2.377,2.377,2.3926,2.377,2.377,2.3926,2.3926,2.3926,2.377,2.377,2.377,2.377,2.3594,2.377,2.3594,2.3594,2.3594,2.3594,2.3438,2.3594,2.3438,2.3438,2.3438,2.3262,0,0,0,0,0,0,0,0,0,0,0,0,0,0,0,0,0,0,0,0,0,0,0,0,0,0,0
0.71484,0.71631,0.7168,0.7168,0.7168,0.71484,0.71484,0.71484,0.7168,0.7168,0.71826,0.71973,0.72119,0.72119,0.72119,0.72266,0.72607,0,0,0,0,0,0,1.0098,1.0059,1.0059,1.0098,1.0098,1.0059,1.0059,1.0098,1.0098,1.0098,1.0127,1.0127,1.0127,1.0156,1.0186,1.0186,1.0186,1.0186,1.0186,1.0186,1.0186,1.0215,1.0186,1.0215,1.0215,1.0215,1.0215,1.0215,1.0215,1.0244,1.0283,1.0244,1.0283,1.0254,1.0254,1.0254,1.0215,1.0215,1.0215,1.0254,0.80225,0.79834,0.79834,0.80225,0.8042,0.80615,0.80615,0.8081,0.81006,0.81006,0.81006,0.81201,0.81006,0.81201,0.81201,0.81006,0.81006,0.81006,0.81006,0.8081,0.81006,0.81006,0.8081,0.8081,0.8081,0.81006,0.81201,0.81006,0.81006,0.81006,0.81006,0.81006,0.8081,0.8081,0.8081,0.8081,0.80615,0.80615,0.80615,0.80615,0.8042,0.8042,0.8042,0.8042,0.80225,0.80078,0.80078,0.80078,0.80078,0.80078,0.79883,0.80225,0.80225,0.80225,0.80078,0.80078,0.80078,0.80078,0.80078,0.80078,0.80078,0.80078,0.79883,0.80078,0.79297,0.79492,0.79492,0.79297,0.79297,0.79297,0.79297,0.79102,0.79102,0.79102,0.79297,0.79297,0.79297,0.79297,0.79297,0.7915,0.7915,0.78955,0.7876,0.7876,0.7876,0.78565,0.78369,0.78369,0.78565,0.78565,0,0,0,0,0,1.085,1.085,1.085,1.0889,1.0889,1.0889,1.0889,1.0889,1.0889,1.0889,1.0889,1.0889,1.085,0,0,0.84277,0.83447,0.83447,0.83447,0.83691,0.83447,0.83447,0.83447,0.83447,0.83252,0.83057,0.83057,0.82861,0.82861,0.82861,0.82861,0.82666,0.82666,0.82666,0.82471,0.82471,0.82471,0.82471,0.82227,0.82227,0.82227,0.82031,0.81836,0.81836,0.81836,0.81641,0.81641,0.81641,0.81641,0.81641,0.81641,0.81445,0.81445,0.81445,0.8125,0.8125,0.8125,0.81055,0.81055,0.81055,0.81055,0.80859,0.80859,0.80664,0.80664,0.80469,0.80469,0.80469,0.80469,0.80469,0.80469,0.80469,0.80273,0.80273,0.80273,0.80322,0.80322,0.80127,0.80322,0.80322,0.80127,0.80127,0.79932,0.80127,0.80322,0.80322,0.80664,0,0.81494,0,0,0,0,0,0,0,0,0,1.1602,1.1562,1.1484,1.1484,1.1484,1.1484,1.1484,1.1484,1.1484,1.1484,1.1484,1.1484,1.1484,1.1484,1.1484,1.1484,1.1484,1.1484,1.1484,1.1523,1.1523,1.1523,1.1523,1.1562,1.1562,1.1562,1.1562,1.1611,1.1562,1.1562,1.1562,1.1562,1.1523,1.1523,1.1523,1.1484,1.1523,1.1523,1.1523,1.1523,1.1572,1.1572,1.1523,1.1523,1.1572,1.1572,1.1572,1.1572,1.1572,1.1572,1.1572,1.1533,1.1533,1.1484,1.1484,1.1484,1.1494,1.1494,1.1494,1.1494,1.1455,1.1455,1.1455,1.1416,1.1455,1.1377,1.1377,1.1377,1.1377,1.1377,1.1338,1.1338,1.1299,1.1299,1.1299,1.1299,1.1299,1.126,1.126,1.1338,1.1338,1.1377,1.1416,1.1416,1.1377,1.1377,1.1377,0,0,0,0,0,0,0,0,2.4453,2.4629,2.4629,2.4629,2.4277,2.4102,2.4277,2.4453,2.4453,2.4102,2.4102,2.4102,2.4102,2.4102,2.4102,2.4277,2.4277,2.4277,2.4277,2.4277,2.4277,2.4277,2.4453,2.4453,2.4453,2.4453,2.4453,2.4277,2.4277,2.4102,2.4102,2.377,0,0,0,0,0,0,0,0,0,2.4102,2.377,2.377,2.377,2.377,2.3926,2.377,2.377,2.377,2.3926,2.377,2.377,2.3594,2.3594,2.377,2.3594,2.3594,2.377,2.3594,2.3594,2.3594,2.3438,2.3438,2.3438,2.3438,2.3262,2.3281,0,0,0,0,0,0,0,0,0,0,0,0,0,0,0,0,0,0,0,0,0,0,0,0,0,0,0
0.71484,0.71484,0.7168,0.7168,0.7168,0.71484,0.71484,0.7168,0.7168,0.7168,0.71826,0.71973,0.72119,0.71973,0.72119,0.72266,0.72266,0,0,0,0,0,0,1.0098,1.0059,1.0059,1.0068,1.0098,1.0098,1.0098,1.0098,1.0098,1.0098,1.0127,1.0127,1.0127,1.0156,1.0156,1.0186,1.0186,1.0186,1.0186,1.0186,1.0186,1.0215,1.0215,1.0215,1.0215,1.0215,1.0215,1.0254,1.0254,1.0254,1.0283,1.0283,1.0283,1.0283,1.0283,0.80615,0.80615,0.8081,0.80615,0.8042,0.80225,0.79834,0.80029,0.8042,0.80615,0.80615,0.8081,0.8081,0.8081,0.8081,0.8081,0.81006,0.81006,0.81006,0.81006,0.8081,0.8081,0.8081,0.8081,0.8081,0.8081,0.8081,0.8081,0.80615,0.80615,0.8081,0.8081,0.8081,0.8081,0.8081,0.8081,0.80615,0.80615,0.80615,0.80615,0.80615,0.8042,0.8042,0.8042,0.8042,0.80273,0.80273,0.80078,0.80273,0.80078,0.80078,0.80078,0.80078,0.79883,0.79883,0.79883,0.79688,0.79688,0.79492,0.79688,0.79688,0.79688,0.79883,0.79883,0.79492,0.79297,0.79297,0.79297,0.79102,0.79102,0.79102,0.79102,0.79102,0.79102,0.78955,0.78955,0.78955,0.7876,0.7876,0.78955,0.78955,0.78955,0.78955,0.78955,0.7876,0.7876,0.78565,0.78565,0.78418,0.78418,0.78418,0.78418,0.78418,0.78565,0.78565,0,0,0,0,0,1.085,1.085,1.0889,1.0889,1.0889,1.0889,1.0918,1.0889,1.0889,1.0889,1.0918,1.0889,1.0889,0,0,0.84082,0.83691,0.83691,0.83691,0.83691,0.83691,0.83691,0.83447,0.83447,0.83252,0.83252,0.83057,0.82861,0.82861,0.82861,0.82861,0.82861,0.82861,0.82666,0.82861,0.82666,0.82666,0.82471,0.82471,0.82275,0.82275,0.82031,0.82031,0.82031,0.82031,0.81836,0.81836,0.82031,0.81836,0.81836,0.81641,0.81641,0.81641,0.81445,0.81445,0.8125,0.8125,0.8125,0.8125,0.81055,0.81055,0.81055,0.80859,0.80859,0.80664,0.80664,0.80664,0.80469,0.80469,0.80469,0.80469,0.80469,0.80469,0.80469,0.80322,0.80322,0.80322,0.80322,0.80322,0.80322,0.80322,0.80127,0.80127,0.80127,0.80322,0.80322,0.80908,0,0,0,0,0,0,0,0,0,0,0,0,1.1562,1.1523,1.1484,1.1484,1.1484,1.1484,1.1484,1.1484,1.1484,1.1484,1.1484,1.1484,1.1484,1.1484,1.1523,1.1523,1.1484,1.1523,1.1523,1.1523,1.1523,1.1562,1.1562,1.1562,1.1562,1.1562,1.1572,1.1572,1.1572,1.1572,1.1572,1.1523,1.1523,1.1523,1.1523,1.1533,1.1533,1.1533,1.1533,1.1533,1.1572,1.1572,1.1533,1.1572,1.1572,1.1572,1.1572,1.1572,1.1572,1.1572,1.1572,1.1533,1.1494,1.1494,1.1533,1.1533,1.1494,1.1494,1.1494,1.1494,1.1455,1.1455,1.1455,1.1455,1.1416,1.1377,1.1377,1.1377,1.1377,1.1338,1.1338,1.1338,1.1338,1.1299,1.1299,1.1299,1.126,1.1299,1.1338,1.1338,1.1377,1.1416,1.1455,1.1416,1.1377,1.1377,0,0,0,0,0,0,0,2.4629,2.4629,2.4629,2.4629,2.4453,2.4453,2.4102,2.4102,2.4102,2.4102,2.3926,2.3926,2.4102,2.4102,2.4102,2.4102,2.4102,2.4102,2.4102,2.4102,2.4102,2.4277,2.4277,2.4277,2.4277,2.4277,2.4277,2.4277,2.4277,2.4102,2.4102,2.3926,2.377,2.3438,0,0,0,0,0,0,0,0,2.3594,2.3438,2.3594,2.3594,2.377,2.377,2.377,2.377,2.377,2.377,2.377,2.377,2.377,2.3594,2.377,2.3594,2.3594,2.3438,2.3594,2.3594,2.3594,2.3438,2.3438,2.3438,2.3281,2.3281,2.3281,0,0,0,0,0,0,0,0,0,0,0,0,0,0,0,0,0,0,0,0,0,0,0,0,0,0,0
0.71484,0.71484,0.7168,0.7168,0.7168,0.71533,0.71533,0.71533,0.7168,0.7168,0.71826,0.71973,0.71973,0.72119,0.72119,0.72119,0.72461,0,0,0,0,0,0,1.0098,1.0068,1.0068,1.0068,1.0098,1.0098,1.0098,1.0098,1.0098,1.0098,1.0127,1.0127,1.0127,1.0156,1.0156,1.0186,1.0186,1.0186,1.0186,1.0186,1.0186,1.0215,1.0215,1.0215,1.0215,1.0215,1.0254,1.0254,1.0254,1.0283,1.0312,1.0283,1.0312,1.0312,0.8042,0.80615,0.80225,0.80615,0.80615,0.80615,0.8042,0.8042,0.8042,0.80615,0.80615,0.80615,0.8081,0.8081,0.8081,0.8081,0.8081,0.8081,0.8081,0.8081,0.8081,0.8081,0.8081,0.8081,0.8081,0.8081,0.8081,0.8081,0.80615,0.8042,0.8042,0.80225,0.8042,0.8042,0.8042,0.8042,0.80225,0.80225,0.80225,0.8042,0.8042,0.8042,0.80273,0.80078,0.80078,0.80078,0.80078,0.79883,0.79883,0.79883,0.79883,0.79883,0.79883,0.79883,0.79688,0.79688,0.79688,0.79297,0.79492,0.79297,0.79492,0.79492,0.79297,0.79297,0.78955,0.78955,0.78955,0.78955,0.78955,0.78955,0.78955,0.78955,0.78955,0.78955,0.78955,0.7876,0.7876,0.7876,0.78565,0.78565,0.7876,0.78955,0.78955,0.7876,0.7876,0.78955,0.78955,0.78565,0.78027,0.78027,0.78223,0.78223,0.78223,0.78223,0.75732,0.75732,0.75732,0.75732,0,0,0,0,0,0,1.0918,1.0889,1.0889,1.0918,1.0918,1.0918,1.0918,1.0889,1.0889,1.0918,1.0918,0,0.84082,0.83887,0.83691,0.83691,0.83691,0.83691,0.83691,0.83447,0.83447,0.83496,0.83252,0.83057,0.83057,0.82861,0.82861,0.82861,0.82861,0.82861,0.82861,0.82861,0.82861,0.82666,0.82666,0.82471,0.82471,0.82471,0.82275,0.82275,0.82275,0.82275,0.8208,0.8208,0.8208,0.8208,0.81836,0.81836,0.81836,0.81885,0.81641,0.81641,0.8125,0.8125,0.8125,0.8125,0.8125,0.81055,0.81055,0.81055,0.81055,0.80859,0.80664,0.80664,0.80664,0.80664,0.80518,0.80518,0.80518,0.80518,0.80518,0.80518,0.80518,0.80322,0.80322,0.80518,0.80518,0.80322,0.80322,0.80322,0.80322,0.80518,0.80518,0,0,0,0,0,0,0,0,0,0,0,0,0,1.1602,1.1523,1.1523,1.1523,1.1484,1.1484,1.1484,1.1484,1.1484,1.1484,1.1484,1.1484,1.1484,1.1484,1.1523,1.1523,1.1523,1.1523,1.1523,1.1523,1.1523,1.1523,1.1572,1.1572,1.1572,1.1572,1.1572,1.1572,1.1572,1.1572,1.1572,1.1533,1.1533,1.1533,1.1533,1.1533,1.1533,1.1533,1.1572,1.1572,1.1572,1.1572,1.1572,1.1611,1.1611,1.1611,1.1611,1.1611,1.1572,1.1572,1.1572,1.1572,1.1533,1.1533,1.1533,1.1533,1.1533,1.1494,1.1494,1.1494,1.1494,1.1455,1.1455,1.1455,1.1416,1.1377,1.1377,1.1377,1.1377,1.1377,1.1338,1.1338,1.1338,1.1299,1.1299,1.1299,1.126,1.1338,1.1377,1.1377,1.1416,1.1455,1.1455,1.1455,1.1416,1.1416,1.1416,0,0,0,0,0,0,2.4629,2.4629,2.4629,2.4629,2.4453,2.4102,2.3926,2.3926,2.4277,2.4277,2.4102,2.4102,2.4102,2.4102,2.4102,2.4102,2.4102,2.3926,2.3926,2.4102,2.3926,2.4102,2.4102,2.4102,2.4277,2.4277,2.4277,2.4102,2.4102,2.4102,2.3926,2.3926,2.3594,0,0,0,0,2.3105,0,0,0,0,2.377,2.3594,2.3594,2.377,2.3594,2.377,2.377,2.377,2.377,2.377,2.377,2.377,2.3594,2.3594,2.377,2.3594,2.3594,2.3438,2.3438,2.3438,2.3438,2.3281,2.3281,2.3438,2.3281,2.3281,2.3281,0,0,0,0,0,0,0,0,0,0,0,0,0,0,0,0,0,0,0,0,0,0,0,0,0,0,0
0.71826,0.71826,0.71826,0.7168,0.7168,0.7168,0.7168,0.7168,0.7168,0.7168,0.71826,0.71973,0.71973,0.72119,0.72119,0.72266,0.72266,0,0,0,0,0,0,1.0098,1.0068,1.0068,1.0098,1.0098,1.0098,1.0098,1.0098,1.0098,1.0098,1.0127,1.0127,1.0156,1.0156,1.0186,1.0186,1.0186,1.0186,1.0215,1.0215,1.0215,1.0215,1.0215,1.0215,1.0215,1.0215,1.0254,1.0254,1.0283,1.0283,1.0312,1.0312,1.0312,0.80225,0.80029,0.80225,0.80225,0.80615,0.80615,0.80615,0.80615,0.80615,0.80615,0.80615,0.80615,0.80615,0.8081,0.8081,0.8081,0.8081,0.8081,0.8081,0.80615,0.8081,0.8081,0.8081,0.8081,0.8081,0.80615,0.80615,0.80615,0.80615,0.8042,0.80078,0.80078,0.80078,0.79883,0.80078,0.80078,0.80078,0.79688,0.79492,0.79492,0.79883,0.79883,0.79883,0.79883,0.79688,0.79688,0.79688,0.79688,0.79688,0.79492,0.79492,0.79492,0.79492,0.79492,0.79492,0.79297,0.79492,0.7915,0.7915,0.7915,0.7915,0.79297,0.79297,0.7876,0.7876,0.7876,0.7876,0.7876,0.7876,0.7876,0.7876,0.7876,0.7876,0.7876,0.7876,0.7876,0.7876,0.78565,0.78565,0.78565,0.78565,0.78565,0.78565,0.78565,0.78418,0.7876,0.7876,0.78223,0.78223,0.77832,0.77881,0.77881,0.77881,0.75928,0.75928,0.75732,0.75732,0.75732,0.75732,0,0,0,0,0,0,1.0918,1.0918,1.0889,1.0918,1.0918,1.0918,1.0928,1.0928,1.0928,1.0918,0,0,0.84326,0.84082,0.83887,0.83887,0.83887,0.83691,0.83691,0.83691,0.83496,0.83496,0.83252,0.83252,0.83252,0.83057,0.83057,0.82861,0.82861,0.82861,0.82861,0.82861,0.82861,0.82861,0.82666,0.82666,0.82666,0.82471,0.82471,0.82471,0.82471,0.82275,0.82275,0.82275,0.8208,0.8208,0.8208,0.8208,0.81885,0.81885,0.81885,0.8169,0.8169,0.8169,0.81445,0.81494,0.8125,0.8125,0.81299,0.81055,0.81055,0.80859,0.80859,0.80859,0.80859,0.80908,0.80713,0.80713,0.80713,0.80713,0.80713,0.80518,0.80518,0.80518,0.80322,0.80518,0.80518,0.80518,0.80322,0.80322,0.80322,0.80518,0.80518,0.80713,0,0,0,0,0,0,0,0,0,0,0,0,1.1611,1.1523,1.1523,1.1523,1.1523,1.1484,1.1484,1.1484,1.1484,1.1484,1.1484,1.1523,1.1523,1.1523,1.1523,1.1523,1.1523,1.1523,1.1523,1.1523,1.1572,1.1533,1.1572,1.1611,1.1611,1.1572,1.1572,1.1572,1.1611,1.1611,1.1572,1.1533,1.1572,1.1533,1.1533,1.1533,1.1572,1.1572,1.1572,1.1611,1.1611,1.1611,1.1572,1.1611,1.1611,1.1611,1.1611,1.1611,1.1572,1.1611,1.1572,1.1572,1.1572,1.1572,1.1572,1.1572,1.1533,1.1533,1.1533,1.1494,1.1494,1.1494,1.1455,1.1455,1.1416,1.1377,1.1377,1.1377,1.1377,1.1377,1.1338,1.1338,1.1338,1.1299,1.1299,1.1299,1.1299,1.1338,1.1377,1.1377,1.1416,1.1455,1.1455,1.1455,1.1416,1.1416,1.1416,0,0,0,0,0,0,0,2.4102,2.4453,2.4453,2.4453,2.4102,2.3926,2.3926,2.4277,2.3926,2.4102,2.4102,2.4102,2.4102,2.4102,2.3926,2.4102,2.4102,2.3926,2.3926,2.3926,2.4102,2.4102,2.4102,2.4102,2.4102,2.4102,2.4102,2.4102,2.4102,2.3926,2.3926,0,0,0,0,0,2.3105,0,0,0,0,2.3594,2.3594,2.3594,2.377,2.377,2.377,2.377,2.377,2.377,2.377,2.3594,2.3594,2.3594,2.3594,2.3438,2.3438,2.3281,2.3281,2.3281,2.3281,2.3281,2.3105,2.3105,2.3105,2.3105,2.3105,2.2949,2.3105,0,0,0,0,0,0,0,0,0,0,0,0,0,0,0,0,0,0,0,0,0,0,0,0,0,0
0.7168,0.71826,0.71826,0.7168,0.7168,0.7168,0.7168,0.71826,0.7168,0.71826,0.71973,0.71973,0.72119,0.72119,0.72119,0.72266,0.72266,0,0,0,0,0,0,1.0098,1.0098,1.0098,1.0098,1.0098,1.0098,1.0098,1.0127,1.0127,1.0127,1.0127,1.0127,1.0156,1.0186,1.0186,1.0186,1.0186,1.0215,1.0215,1.0215,1.0215,1.0215,1.0215,1.0215,1.0215,1.0254,1.0254,1.0283,1.0283,1.0283,1.0312,1.0312,0.80029,0.80029,0.80029,0.80225,0.80225,0.80615,0.8042,0.80615,0.8042,0.8042,0.8042,0.8042,0.8042,0.80615,0.80615,0.80615,0.80615,0.80615,0.80615,0.80615,0.80615,0.80615,0.80615,0.80615,0.80615,0.80615,0.80615,0.80615,0.80078,0.80078,0.79883,0.79883,0.79883,0.79688,0.79492,0.79492,0.79297,0.79297,0.79297,0.79297,0.79297,0.79297,0.79492,0.79492,0.79688,0.79492,0.79492,0.79492,0.79492,0.79297,0.7915,0.79297,0.79297,0.7915,0.79297,0.7915,0.7915,0.7915,0.78955,0.78955,0.78955,0.78955,0.7915,0.7915,0.7876,0.7876,0.7876,0.7876,0.7876,0.7876,0.78565,0.78565,0.78565,0.76416,0.78565,0.78565,0.78565,0.78223,0.78223,0.78223,0.78223,0.78223,0.76953,0.76611,0.76611,0.76465,0.76123,0.76123,0.76123,0.76123,0.77685,0.77685,0.7749,0.77148,0.76123,0.75928,0.75781,0.75781,0.75781,0.75781,0,0,0,0,0,0,1.0928,1.0928,1.0928,1.0928,1.0957,1.0957,1.0928,0,0,0,0,0,0.84326,0.84082,0.84082,0.83887,0.83887,0.83887,0.83691,0.83691,0.83496,0.83496,0.83252,0.83252,0.83252,0.83252,0.83252,0.83057,0.82861,0.83057,0.83057,0.83057,0.82861,0.82861,0.82861,0.82666,0.82666,0.82666,0.82471,0.82471,0.82471,0.82471,0.82275,0.82275,0.82275,0.8208,0.8208,0.8208,0.8208,0.8208,0.81885,0.81885,0.8169,0.8169,0.8169,0.81494,0.81494,0.81299,0.81299,0.81299,0.81299,0.81103,0.81103,0.81103,0.80908,0.80908,0.80908,0.80908,0.80713,0.80713,0.80713,0.80713,0.80713,0.80518,0.80518,0.80713,0.80518,0.80518,0.80322,0.80322,0.80322,0.80518,0.80518,0.80518,0,0,0,0,0,0,0,0,0,0,0,0,0,1.1572,1.1523,1.1523,1.1523,1.1523,1.1484,1.1523,1.1523,1.1523,1.1523,1.1523,1.1523,1.1572,1.1572,1.1572,1.1533,1.1533,1.1572,1.1572,1.1572,1.1572,1.1611,1.1611,1.1611,1.1611,1.1611,1.1611,1.1611,1.1611,1.1611,1.1572,1.1572,1.1572,1.1572,1.1572,1.1611,1.1611,1.1611,1.1611,1.1611,1.1611,1.1611,1.165,1.165,1.165,1.1611,1.1611,1.1611,1.1611,1.1611,1.1572,1.1572,1.1572,1.1572,1.1572,1.1533,1.1533,1.1533,1.1533,1.1533,1.1494,1.1494,1.1494,1.1416,1.1416,1.1416,1.1416,1.1377,1.1377,1.1377,1.1338,1.1338,1.1299,1.1299,1.1299,1.1299,1.1338,1.1377,1.1338,1.1377,1.1416,1.1455,1.1455,1.1416,1.1416,1.1377,1.1416,0,0,0,0,0,0,2.4102,2.4453,2.4453,2.4102,2.3926,2.3926,2.3926,2.3926,2.3926,2.3926,2.3926,2.3926,2.3926,2.3926,2.3926,2.4102,2.4102,2.377,2.4102,2.3926,2.4102,2.4102,2.4102,2.4102,2.4102,2.4102,2.3926,2.3926,2.377,2.3594,2.3926,2.377,0,0,0,0,0,0,0,0,0,2.3594,2.3594,2.3594,2.377,2.377,2.3594,2.3594,2.377,2.3594,2.3594,2.3594,2.3438,2.3438,2.3438,2.3281,2.3105,2.3105,2.3105,2.3105,2.2949,2.3125,2.2949,2.2949,2.2949,2.2949,2.2949,2.2949,2.2949,0,0,0,0,0,0,0,0,0,0,0,0,0,0,0,0,0,0,0,0,0,0,0,0,0,0
0,0.7168,0.7168,0.71826,0.71826,0.71826,0.7168,0.71826,0.7168,0.71826,0.71973,0.71973,0.71973,0.72119,0.72119,0.72315,0.72315,0.72315,0,0,0,0,0,1.0039,1.0039,1.0098,1.0098,1.0098,1.0098,1.0127,1.0127,1.0127,1.0127,1.0127,1.0156,1.0156,1.0186,1.0186,1.0186,1.0215,1.0186,1.0215,1.0215,1.0215,1.0215,1.0215,1.0215,1.0254,0.79883,0.79883,0.79883,0.79883,0.79883,0.79883,0.79883,0.79883,0.79883,0.79883,0.80029,0.80029,0.80029,0.80029,0.80225,0.80029,0.80225,0.80225,0.80225,0.8042,0.8042,0.8042,0.8042,0.8042,0.8042,0.8042,0.80273,0.80078,0.80078,0.80078,0.80615,0.80615,0.80615,0.80615,0.79883,0.79688,0.79688,0.79492,0.79492,0.79492,0.79297,0.79297,0.79102,0.79102,0.79102,0.79102,0.79102,0.79102,0.7915,0.7915,0.7915,0.79297,0.7915,0.7915,0.7915,0.79297,0.79297,0.78955,0.78955,0.78955,0.78955,0.78955,0.78565,0,0.78955,0.78565,0.78565,0.78565,0.7876,0.78955,0.78955,0.7876,0.7876,0.78565,0.78565,0.78565,0.78565,0.78565,0.78418,0.76465,0.76465,0.76611,0.76465,0.76611,0.77344,0.77344,0.77344,0.77148,0.76807,0.76611,0.76611,0.76611,0.76465,0.76123,0.76123,0.76123,0.76123,0.76465,0.76465,0.76465,0.7627,0.76123,0.76123,0.75928,0.75781,0.75781,0.75781,0.75781,0,0,0,0,0,0,1.0928,1.0928,1.0928,1.0957,1.0957,1.0928,1.0928,0,0,0,0,0.84961,0.84961,0.84082,0.83887,0.84082,0.84131,0.83887,0.83887,0.83691,0.83496,0.83496,0.83496,0.83496,0.83496,0.83301,0.83301,0.83057,0.83301,0.83301,0.83301,0.83057,0.83057,0.82861,0.82861,0.82861,0.82666,0.82666,0.82666,0.82666,0.82471,0.82275,0.82275,0.82275,0.82275,0.8208,0.8208,0.8208,0.8208,0.81885,0.81885,0.81885,0.81885,0.8169,0.8169,0.81494,0.81494,0.81494,0.81299,0.81299,0.81299,0.81299,0.81103,0.81103,0.81103,0.81103,0.81103,0.81103,0.80908,0.80908,0.80713,0.80713,0.80713,0.80518,0.80713,0.80518,0.80518,0.80518,0.80518,0.80518,0.80518,0.80518,0.80713,0,0,0,0,0,0,0,0,0,0,0,0,1.1611,1.1572,1.1572,1.1533,1.1533,1.1533,1.1533,1.1533,1.1533,1.1533,1.1533,1.1533,1.1572,1.1572,1.1572,1.1572,1.1533,1.1533,1.1572,1.1572,1.1611,1.1611,1.165,1.165,1.165,1.1611,1.1611,1.165,1.165,1.165,1.1611,1.1611,1.1611,1.1611,1.1611,1.1611,1.1611,1.1611,1.1611,1.1611,1.1611,1.1611,1.1611,1.165,1.165,1.165,1.165,1.1611,1.1611,1.1611,1.1611,1.1611,1.1611,1.1611,1.1611,1.1572,1.1572,1.1572,1.1533,1.1533,1.1533,1.1494,1.1494,1.1494,1.1455,1.1455,1.1455,1.1416,1.1416,1.1377,1.1377,1.1377,1.1377,1.1338,1.1338,1.1338,1.1299,1.1299,1.1338,1.1338,1.1377,1.1455,1.1455,1.1455,1.1455,1.1416,1.1416,1.1416,0,0,0,0,0,0,0,2.4453,2.4453,2.4453,2.4102,2.3926,2.4102,2.4277,2.4102,2.3926,2.3926,2.3926,2.4102,2.3926,2.3926,2.4102,2.3926,2.3926,2.4102,2.4102,2.4102,2.4102,2.4102,2.4102,2.4102,2.3945,2.377,2.377,2.377,2.3594,2.3438,2.3281,2.3105,0,0,0,0,0,2.2949,2.3105,2.3281,2.3438,2.3438,2.3594,2.3594,2.3594,2.3594,2.3594,2.3594,2.3594,2.3594,2.3594,2.3438,2.3438,2.3281,2.3281,2.3125,2.3125,2.2949,2.2949,2.2949,2.2949,2.2949,2.2949,2.2812,2.2812,2.2812,2.2812,0,0,0,0,0,0,0,0,0,0,0,0,0,0,0,0,0,0,0,0,0,0,0,0,0,0,0
0.71533,0.7168,0.7168,0.7168,0.71826,0.71826,0.7168,0.71826,0.71826,0.71826,0.71973,0.72119,0.72119,0.72315,0.72315,0.72315,0.72315,0.72315,0.72607,0,0,0,0,0,1.0039,1.0098,1.0098,1.0098,1.0127,1.0127,1.0127,1.0127,1.0127,1.0156,1.0156,1.0156,1.0186,1.0186,1.0215,1.0215,1.0215,1.0215,1.0215,1.0215,1.0254,1.0254,0.79688,0.79688,0.79688,0.79688,0.79883,0.79883,0.79883,0.79883,0.79883,0.79883,0.79883,0.79883,0.80078,0.80078,0.80078,0.80078,0.80078,0.80078,0.80078,0.80078,0.80225,0.80273,0.8042,0.80273,0.80078,0.80273,0.80273,0.80078,0.80078,0.79883,0.79688,0.79688,0.79883,0.79688,0.79492,0.79492,0.79492,0.79492,0.79492,0.79297,0.79297,0.79297,0.79102,0.7915,0.7915,0.7915,0.78955,0.78955,0.78955,0.78955,0.78955,0.78955,0.78955,0.7915,0.78955,0.78955,0.78955,0.7876,0.7876,0.7876,0.7876,0.7876,0.77295,0.77685,0.77685,0.7749,0.78223,0.78223,0.78027,0.78223,0.78418,0.78418,0.7876,0.78565,0.78565,0.78565,0.78565,0.78565,0.78565,0.76611,0.76465,0.76465,0.76465,0.76611,0.76465,0.76611,0.76611,0.76611,0.76611,0.76611,0.76611,0.76611,0.76465,0.76465,0.76465,0.76123,0.76123,0.76123,0.7627,0.76123,0.7627,0.7627,0.76123,0.76123,0.76123,0.75928,0.75928,0.75928,0.75928,0.75781,0.75781,0.75781,0,0,0,0,1.0928,1.0928,1.0957,1.0957,1.0957,1.0957,1.0957,0,0,0,0,0.84961,0.84326,0.84131,0.84131,0.84326,0.84131,0.84131,0.84131,0.83887,0.83691,0.83496,0.83496,0.83496,0.83496,0.83496,0.83496,0.83301,0.83496,0.83496,0.83301,0.83301,0.83301,0.83301,0.83057,0.82861,0.82861,0.82666,0.82666,0.82666,0.82471,0.82471,0.82275,0.82275,0.82275,0.8208,0.8208,0.8208,0.8208,0.8208,0.8208,0.81885,0.81885,0.81885,0.81885,0.8169,0.8169,0.81494,0.81494,0.81299,0.81299,0.81299,0.81299,0.81103,0.81103,0.81103,0.81103,0.81103,0.81103,0.80908,0.80908,0.80908,0.80908,0.80908,0.80908,0.80713,0.80713,0.80518,0.80518,0.80518,0.80713,0.80713,0.80713,0,0,0,0,0,0,0,0,0,0,0,0,1.1572,1.1572,1.1572,1.1572,1.1572,1.1533,1.1533,1.1572,1.1572,1.1611,1.1572,1.1572,1.1572,1.1572,1.1611,1.1572,1.1572,1.1572,1.1611,1.1611,1.1611,1.165,1.165,1.165,1.165,1.165,1.165,1.165,1.165,1.165,1.1611,1.165,1.165,1.165,1.1611,1.1611,1.1611,1.165,1.1611,1.1611,1.165,1.165,1.1611,1.165,1.165,1.165,1.165,1.165,1.1611,1.165,1.1611,1.1611,1.1611,1.1611,1.1572,1.1611,1.1572,1.1572,1.1533,1.1533,1.1533,1.1533,1.1533,1.1494,1.1494,1.1494,1.1494,1.1455,1.1455,1.1455,1.1455,1.1416,1.1377,1.1377,1.1377,1.1338,1.1338,1.1338,1.1377,1.1377,1.1416,1.1455,1.1494,1.1494,1.1455,1.1416,1.1416,1.1416,0,0,0,0,0,0,0,2.4277,2.4453,2.4453,2.4453,2.4102,2.4453,2.4453,2.4277,2.4102,2.3926,2.3926,2.4102,2.3926,2.3926,2.4102,2.4102,2.3945,2.4102,2.4102,2.4102,2.3945,2.3945,2.3945,2.3945,2.3945,2.377,2.3594,2.3594,2.3438,2.3438,2.3281,2.3281,0,0,0,2.2949,2.2949,2.2949,2.2949,2.3105,2.3594,2.3594,2.3594,2.3594,2.3594,2.3594,2.3594,2.3594,2.3594,2.3594,2.3438,2.3438,2.3438,2.3281,2.3281,2.3125,2.3125,2.2969,2.2969,2.2969,2.2969,2.2969,2.2812,2.2812,2.2812,2.2812,2.2812,0,0,0,0,0,0,0,0,0,0,0,0,0,0,0,0,0,0,0,0,0,0,0,0,0,0,0
0.71533,0.71533,0.7168,0,0.71826,0.71973,0.71826,0.71826,0.71826,0.71973,0.72119,0.72119,0.72119,0.72315,0.72315,0.72461,0.72315,0.72315,0.72607,0,0,0,0,0,0,1.0068,1.0068,1.0098,1.0098,1.0127,1.0127,1.0156,1.0156,1.0156,1.0156,1.0186,1.0186,1.0186,1.0225,1.0225,1.0225,1.0225,1.0225,1.0225,1.0254,1.0254,1.0254,0.79492,0.79492,0.79688,0.79688,0.79883,0.79883,0.79688,0.79688,0.79883,0.79883,0.79688,0.79883,0.79883,0.80078,0.79883,0.79883,0.79883,0.79688,0.79688,0.80078,0.80078,0.80078,0.79883,0.79688,0.79883,0.79883,0.79688,0.79688,0.79688,0.79492,0.79492,0.79492,0.79297,0.79297,0.79297,0.79297,0.7915,0.7915,0.7915,0.7915,0.78955,0.7915,0.78955,0.7915,0.78955,0.78955,0.7876,0.7876,0.78955,0.7876,0.7876,0.7876,0.7876,0.7876,0.78565,0.78565,0.78565,0.78418,0.78565,0.78565,0.77295,0.77295,0.77344,0.77148,0.77148,0.77148,0.77148,0.77344,0.77148,0.77148,0.76953,0.76807,0.76465,0,0.76465,0.76465,0.76611,0.76611,0.76611,0.76465,0.76611,0.76465,0.76465,0.76465,0.76465,0.76465,0.76465,0.76465,0.76465,0.76465,0.76465,0.76465,0.7627,0.7627,0.7627,0.7627,0.76123,0.76123,0.76123,0.7627,0.7627,0.76123,0.76123,0.75928,0.75928,0.75928,0.75928,0.75928,0.75928,0.75781,0.75781,0,0,0,0,0,0,1.0996,1.0996,1.0996,1.0957,1.0996,0,0,0,0,0.84961,0.84961,0.84131,0.84131,0.84326,0.84326,0.84131,0.84131,0.84131,0.83691,0.83691,0.83691,0.83691,0.83691,0.83496,0.83496,0.83496,0.83496,0.83496,0.83496,0.83301,0.83301,0.83301,0.83105,0.83105,0.82861,0.82861,0.82861,0.82666,0.82666,0.82471,0.82471,0.82471,0.82471,0.82275,0.82275,0.8208,0.8208,0.8208,0.8208,0.8208,0.81885,0.81885,0.81885,0.81885,0.8169,0.8169,0.8169,0.81494,0.81494,0.81299,0.81299,0.81299,0.81103,0.81103,0.81103,0.81103,0.81103,0.81103,0.81103,0.81103,0.81103,0.80908,0.81103,0.80908,0.80713,0.80713,0.80713,0.80713,0.80713,0.80713,0.80713,0,0,0,0,0,0,0,0,0,0,0,0,1.1572,1.1572,1.1572,1.1572,1.1572,1.1572,1.1572,1.1572,1.1611,1.1611,1.1611,1.1611,1.1611,1.1611,1.1611,1.1611,1.1572,1.1572,1.1611,1.1611,1.165,1.165,1.165,1.165,1.165,1.165,1.165,1.165,1.165,1.165,1.165,1.165,1.165,1.165,1.165,1.165,1.165,1.165,1.1611,1.1611,1.1611,1.165,1.1611,1.165,1.165,1.165,1.165,1.165,1.1611,1.1611,1.1611,1.1611,1.1611,1.1611,1.1611,1.1611,1.1572,1.1572,1.1572,1.1533,1.1533,1.1533,1.1533,1.1533,1.1494,1.1494,1.1494,1.1494,1.1494,1.1455,1.1455,1.1455,1.1416,1.1377,1.1377,1.1377,1.1338,1.1377,1.1377,1.1416,1.1455,1.1494,1.1494,1.1494,1.1494,1.1455,1.1416,1.1416,0,0,0,0,0,0,0,2.4453,2.4453,2.4453,2.3926,2.3926,2.4453,2.4453,2.4102,2.3945,2.3945,2.3945,2.3945,2.377,2.377,2.3945,2.3945,2.377,2.3945,2.3945,2.3945,2.3945,2.377,2.377,2.3945,2.377,2.3594,2.3594,2.3594,2.3438,2.3438,2.3281,2.3281,2.3281,2.3281,2.3281,2.3125,2.3125,2.3281,2.3281,2.3438,2.3438,2.3438,2.3594,2.3594,2.3594,2.3594,2.3613,2.3438,2.3438,2.3438,2.3438,2.3281,2.3281,2.3281,2.3125,2.3125,2.2969,2.2969,2.2969,2.2969,2.2969,2.2812,2.2812,2.2812,2.2812,2.2812,2.2656,0,0,0,0,0,0,0,0,0,0,0,0,0,0,0,0,0,0,0,0,0,0,0,0,0,0,0
0.7168,0.7168,0.7168,0.7168,0.72119,0.72119,0.71973,0.71973,0.71973,0.71973,0.72168,0.72168,0.72315,0.72315,0.72461,0.72461,0.72607,0.72607,0.72461,0.72461,0,0,0,0,0,0,1.0127,1.0127,1.0156,1.0156,1.0156,1.0186,1.0186,1.0186,1.0186,1.0186,1.0186,1.0225,1.0225,1.0225,1.0225,1.0225,1.0225,1.0225,1.0254,0.79102,0.79297,0.79492,0.79492,0.79492,0.79688,0.79688,0.79688,0.79688,0.79688,0.79688,0.79688,0.79688,0.79883,0.79883,0.79883,0.79883,0.79883,0.79688,0.79688,0.79688,0.79688,0.79492,0.79492,0.79297,0.79297,0.7915,0.7915,0.78955,0.79102,0.79297,0.7915,0.78955,0.78955,0.78955,0.7915,0.7915,0.78955,0.78955,0.78955,0.7915,0.78955,0.78955,0.78955,0.7876,0.7876,0.78955,0.7876,0.78565,0.78565,0.78565,0.78565,0.78565,0.78565,0.78565,0.78418,0.78027,0.78418,0.78027,0.77881,0.77881,0.77344,0.77344,0.77148,0.77148,0.76953,0.76953,0.77148,0.77148,0.77344,0.76953,0.76953,0.76953,0.76953,0.76611,0.76611,0.76611,0.76611,0.76611,0.76611,0.76611,0.76465,0.76465,0.76465,0.76465,0.76465,0.76465,0.76465,0.76465,0.76465,0.76465,0.76465,0.76465,0.7627,0.7627,0.7627,0.7627,0.7627,0.76123,0.7627,0.7627,0.7627,0.7627,0.76123,0.76123,0.76123,0.76123,0.76123,0.75928,0.75928,0.75928,0.75928,0.75928,0,0,0,0,0,0,1.1064,1.1064,1.1035,1.0996,1.1064,1.1064,1.1104,1.1104,0,0,0.84961,0.84326,0.84131,0.84326,0.84326,0.84326,0.84326,0.84131,0.83887,0.83691,0.83691,0.83691,0.83691,0.83691,0.83691,0.83496,0.83496,0.83496,0.83496,0.83496,0.83496,0.83301,0.83301,0.83105,0.83105,0.82861,0.82861,0.82861,0.82666,0.82666,0.82666,0.82666,0.82471,0.82471,0.8208,0.82275,0.8208,0.8208,0.8208,0.8208,0.8208,0.8208,0.81885,0.81885,0.81885,0.81885,0.81885,0.8169,0.81494,0.81494,0.81299,0.81299,0.81299,0.81299,0.81299,0.81103,0.81103,0.81103,0.81103,0.81103,0.81103,0.81103,0.81103,0.80908,0.80908,0.80713,0.80713,0.80713,0.80713,0.80908,0.80713,0,0,0,0,0,0,0,0,0,0,0,0,1.1572,1.1572,1.1572,1.1572,1.1572,1.1572,1.1572,1.1611,1.1611,1.1611,1.1611,1.1611,1.1611,1.1611,1.1611,1.1611,1.1611,1.1611,1.1611,1.165,1.165,1.165,1.165,1.1689,1.165,1.165,1.165,1.165,1.165,1.165,1.165,1.165,1.165,1.165,1.165,1.165,1.165,1.165,1.165,1.165,1.165,1.165,1.165,1.1689,1.1689,1.165,1.165,1.165,1.1611,1.165,1.1611,1.1611,1.1611,1.1611,1.1611,1.1611,1.1572,1.1572,1.1572,1.1533,1.1533,1.1533,1.1533,1.1533,1.1533,1.1494,1.1494,1.1494,1.1494,1.1494,1.1494,1.1455,1.1455,1.1416,1.1377,1.1377,1.1338,1.1377,1.1416,1.1416,1.1455,1.1494,1.1494,1.1494,1.1494,1.1455,1.1416,1.1416,1.1416,0,0,0,0,0,0,2.4277,2.4277,2.3945,2.3945,2.3945,2.4453,2.4277,2.3945,2.3945,2.377,2.377,2.3945,2.377,2.377,2.3945,2.4102,2.3945,2.3438,2.3438,2.3594,2.4102,2.3945,2.3945,2.3945,2.377,2.377,2.3594,2.3594,2.3594,2.3438,2.3281,2.3438,2.3438,2.3281,2.3281,2.3281,2.3281,2.3281,2.3281,2.3438,2.3438,2.3438,2.3438,2.3438,2.3438,2.3438,2.3438,2.3438,2.3438,2.3438,2.3438,2.3438,2.3281,2.3281,2.2969,2.2969,2.2969,2.2969,2.2969,2.2969,2.2812,2.2812,2.2812,2.2812,2.2812,2.2656,2.2656,0,0,0,0,0,0,0,0,0,0,0,0,0,0,0,0,0,0,0,0,0,0,0,0,0,0,0
0.7168,0.71826,0.71826,0.71826,0.71973,0.72168,0.72168,0.71973,0.72168,0.72168,0.72168,0.72315,0.72315,0.72315,0.72461,0.72461,0.72607,0.72607,0.72607,0,0,0,0,0,0,1.0127,1.0156,1.0156,1.0186,1.0156,1.0156,1.0186,1.0186,1.0225,1.0186,1.0225,1.0225,1.0225,1.0225,1.0225,1.0225,1.0225,1.0225,0,0,0.79297,0.79297,0.79492,0.79492,0.79492,0.79492,0.79688,0.79688,0.79492,0.79688,0.79688,0.79688,0.79688,0.79883,0.79883,0.79883,0.79688,0.79688,0.79492,0.79492,0.79492,0.79492,0.79492,0.79297,0.7915,0.7915,0.78955,0.78955,0.7876,0.78955,0.7876,0.7876,0.78565,0.78565,0.78565,0.78955,0.78955,0.7876,0.7876,0.78955,0.78955,0.78955,0.78565,0.7876,0.78565,0.78565,0.78565,0.78565,0.78418,0.78418,0.78418,0.78418,0.78418,0.78418,0.78418,0.78027,0.77685,0.7749,0.7749,0.77344,0.77344,0.76953,0.76953,0.76807,0.76953,0.76807,0.76807,0.76807,0.76807,0.76953,0.76807,0.76807,0.76807,0.76807,0.76611,0.76611,0.76611,0.76611,0.76611,0.76465,0.76465,0.76465,0.76465,0.76465,0.76465,0.76465,0.76465,0.76465,0.76465,0.76465,0.76465,0.76465,0.7627,0.7627,0.7627,0.7627,0.7627,0.7627,0.7627,0.7627,0.7627,0.7627,0.7627,0.7627,0.76123,0.76123,0.76123,0.76123,0.75928,0.75928,0.75928,0.75928,0.75928,0,0,0,0,0,0,1.1064,1.1074,1.1035,1.1035,1.1074,1.1074,1.1074,0,0,0,0,0.84326,0.84131,0.84326,0.84326,0.84326,0.84326,0.84326,0.84131,0.83935,0.83935,0.83691,0.83691,0.83691,0.83691,0.83691,0.83691,0.83691,0.83496,0.83496,0.83496,0.83496,0.83301,0.83301,0.83105,0.83105,0.8291,0.8291,0.8291,0.8291,0.82666,0.82666,0.82666,0.82471,0.82275,0.82275,0.82275,0.8208,0.8208,0.8208,0.8208,0.8208,0.8208,0.81885,0.81885,0.81885,0.81885,0.8169,0.8169,0.81494,0.81299,0.81299,0.81299,0.81299,0.81299,0.81299,0.81299,0.81103,0.81103,0.81103,0.81103,0.81103,0.81299,0.81103,0.81103,0.80908,0.80908,0.80908,0.80908,0.80908,0.81103,0,0,0,0,0,0,0,0,0,0,0,0,0,1.1611,1.1611,1.1572,1.1572,1.1611,1.1611,1.1611,1.1611,1.165,1.165,1.165,1.1611,1.165,1.1611,1.1611,1.1611,1.1611,1.165,1.165,1.165,1.165,1.1689,1.1689,1.165,1.1689,1.1689,1.1689,1.165,1.165,1.165,1.1689,1.165,1.165,1.165,1.1689,1.165,1.1689,1.165,1.165,1.165,1.165,1.165,1.1689,1.1689,1.165,1.165,1.165,1.165,1.165,1.1611,1.1611,1.1611,1.1611,1.1611,1.1611,1.1611,1.1572,1.1572,1.1572,1.1572,1.1572,1.1533,1.1533,1.1533,1.1533,1.1494,1.1494,1.1494,1.1494,1.1494,1.1494,1.1455,1.1416,1.1377,1.1377,1.1377,1.1377,1.1377,1.1416,1.1494,1.1494,1.1494,1.1494,1.1494,1.1455,1.1416,1.1377,1.1377,0,0,0,0,0,0,0,2.4102,2.4102,2.4102,2.4102,2.4277,2.4102,2.3945,2.3945,2.377,2.377,2.377,2.3594,2.377,2.3945,2.4102,2.3945,2.3281,2.377,2.3594,2.3945,2.377,2.377,2.377,2.377,2.3613,2.3613,2.3613,2.3613,2.3438,2.3438,2.3438,2.3438,2.3438,2.3281,2.3281,2.3281,2.3281,2.3281,2.3438,2.3438,2.3281,2.3438,2.3281,2.3281,2.3281,2.3281,2.3281,2.3281,2.3281,2.3281,2.3281,2.3281,2.2969,2.2969,2.2969,2.2812,2.2812,2.2812,2.2812,2.2812,2.2812,2.2812,2.2812,2.2812,2.2656,2.2656,0,0,0,0,0,0,0,0,0,0,0,0,0,0,0,0,0,0,0,0,0,0,0,0,0,0,0
0.7168,0.71826,0.71973,0.71973,0.72168,0.72461,0.72315,0.72168,0.72168,0.72315,0.72168,0.72315,0.72315,0.72461,0.72461,0.72607,0.72754,0.72607,0.72754,0.72754,0,0,0,0,0,0,1.0186,1.0156,1.0186,1.0186,1.0186,1.0186,1.0225,1.0225,1.0225,1.0225,1.0225,1.0225,1.0225,1.0225,1.0186,1.0225,1.0225,0,0,0,0.79102,0.79492,0.79492,0.79492,0.79492,0.79688,0.79688,0.79492,0.79492,0.79492,0.79492,0.79492,0.79492,0.79297,0.78955,0,0.78955,0.79297,0.79297,0.79297,0.79297,0.79297,0.79297,0.7915,0.78955,0.78955,0.78955,0.7876,0.7876,0.78565,0.78565,0.78418,0.78418,0.78418,0.78223,0.77881,0.7749,0.77344,0.77344,0.78418,0.77148,0.77148,0.77148,0.78418,0.77881,0.78223,0.78223,0.78223,0.78223,0.78223,0.77881,0.77881,0.77344,0.77344,0.77148,0.77344,0.77148,0.76953,0.76953,0.76953,0.76807,0.76953,0.76807,0.76953,0.76807,0.76807,0.76807,0.76807,0.76953,0.76807,0.76611,0.76807,0.76807,0.76611,0.76807,0.76611,0.76611,0.76611,0.76465,0.76611,0.76465,0.76611,0.76465,0.76465,0.76465,0.76465,0.76465,0.76465,0.76465,0.76465,0.76465,0.76465,0.7627,0.7627,0.76465,0.7627,0.7627,0.7627,0.7627,0.7627,0.76465,0.76465,0.7627,0.76318,0.76318,0.76123,0.76123,0.76123,0.76123,0.75977,0.75977,0.75977,0,0,0,0,0,0,1.1104,1.1074,1.1074,1.1074,1.1074,1.1074,1.1074,1.1104,0,0,0,0,0.84326,0.84326,0.84326,0.8457,0.84326,0.84326,0.84131,0.84131,0.83935,0.83935,0.83691,0.83691,0.83691,0.83691,0.83691,0.83691,0.83496,0.83496,0.83496,0.83496,0.83496,0.83301,0.83301,0.83105,0.83105,0.8291,0.8291,0.8291,0.82666,0.82666,0.82666,0.82666,0.82471,0.82275,0.82275,0.82275,0.82275,0.82275,0.8208,0.8208,0.8208,0.8208,0.8208,0.81885,0.81885,0.81885,0.81885,0.8169,0.81494,0.81299,0.81299,0.81299,0.81299,0.81299,0.81299,0.81299,0.81299,0.81103,0.81103,0.81103,0.81299,0.81299,0.81103,0.81103,0.81103,0.80908,0.80908,0.81103,0.80908,0,0,0,0,0,0,0,0,0,0,0,0,0,1.1611,1.1611,1.1611,1.1611,1.1611,1.1611,1.1611,1.165,1.165,1.165,1.165,1.165,1.165,1.1611,1.1611,1.1611,1.1611,1.165,1.1689,1.1689,1.1689,1.1689,1.1689,1.1689,1.1689,1.1689,1.1689,1.165,1.165,1.165,1.165,1.165,1.1689,1.1689,1.1689,1.1689,1.1689,1.1689,1.165,1.165,1.165,1.165,1.1689,1.1689,1.165,1.165,1.165,1.165,1.165,1.165,1.165,1.165,1.165,1.165,1.165,1.1611,1.1611,1.1611,1.1572,1.1572,1.1572,1.1572,1.1533,1.1533,1.1533,1.1494,1.1494,1.1494,1.1494,1.1494,1.1494,1.1455,1.1416,1.1416,1.1377,1.1377,1.1416,1.1416,1.1455,1.1533,1.1533,1.1533,1.1533,1.1533,1.1494,1.1455,0,0,0,0,0,0,0,2.377,2.3945,2.3945,2.4102,2.4102,2.3945,2.4102,2.3945,2.3945,2.3945,2.377,2.377,2.377,2.3594,2.3438,2.3594,2.3594,2.377,2.4121,2.377,2.377,2.377,2.377,2.377,2.3613,2.3613,2.3613,2.3438,2.3438,2.3438,2.3281,2.3281,2.3125,2.3438,2.3438,2.3281,2.3281,2.3281,2.3281,2.3281,2.3438,2.3438,2.3281,2.3281,2.3438,2.3281,2.3281,2.3125,2.3125,2.3438,2.3125,2.3125,2.3125,2.3125,2.2969,2.2969,2.2812,2.2812,2.2812,2.2812,2.2812,2.2812,2.2812,2.2812,2.2812,2.2812,2.2812,2.2656,0,0,0,0,0,0,0,0,0,0,0,0,0,0,0,0,0,0,0,0,0,0,0,0,0,0,0
0.71826,0.71826,0.72022,0.72168,0.72168,0.72315,0.72315,0.72315,0.72315,0.72315,0.72315,0.72315,0.72461,0.72461,0.72607,0.72607,0.72803,0.72803,0.72803,0.72803,0,0,0,0,0,0,1.0186,1.0186,1.0186,1.0186,1.0225,1.0225,1.0225,1.0225,1.0225,1.0254,1.0254,1.0254,1.0283,0,0,0,0,0,0,0,0.7915,0.79297,0.79297,0.7915,0.7915,0.79492,0.79492,0.79492,0.79297,0.79297,0.79297,0.79297,0.7915,0.7876,0.7876,0.7876,0.7876,0.78027,0.77832,0.77832,0.77832,0.77832,0.78027,0.7876,0.78565,0.78565,0.78565,0.78418,0.78418,0.78418,0.78418,0.78223,0.78223,0.77881,0.77344,0.77344,0.77344,0.77344,0.77344,0.77148,0.77148,0.77148,0.77148,0.76953,0.76953,0.76953,0.77148,0.77148,0.77148,0.77148,0.77148,0.77148,0.77148,0.77148,0.77148,0.76953,0.76953,0.76953,0.76953,0.76953,0.76807,0.76953,0.76807,0.77002,0.76807,0.76807,0.76611,0.76807,0.76807,0.76807,0.76611,0.76807,0.76807,0.76611,0.76611,0.76611,0.76611,0.76611,0.76611,0.76611,0.76611,0.76611,0.76611,0.7666,0.7666,0.7666,0.76465,0.76465,0.76465,0.76465,0.76465,0.76465,0.76465,0.76465,0.76465,0.76465,0.76465,0.76465,0.76465,0.76465,0.76465,0.76465,0.76465,0.76318,0.76318,0.76318,0.76318,0.76123,0.76123,0.76123,0.75977,0.75977,0,0,0,0,0,0,1.1074,1.1074,1.1074,1.1074,1.1074,1.1074,1.1074,1.1104,0,0,0,0,0.84326,0.84326,0.84326,0.8457,0.8457,0.84326,0.84326,0.84131,0.84131,0.84131,0.83935,0.83935,0.83935,0.83691,0.83691,0.83691,0.83691,0.83496,0.83496,0.83496,0.83301,0.83301,0.83301,0.83301,0.83105,0.8291,0.8291,0.8291,0.8291,0.8291,0.82715,0.82715,0.82715,0.82471,0.82471,0.82471,0.82471,0.82275,0.82275,0.8208,0.82275,0.8208,0.8208,0.8208,0.8208,0.81885,0.81885,0.8169,0.81494,0.81494,0.81494,0.81494,0.81299,0.81299,0.81299,0.81299,0.81299,0.81299,0.81299,0.81299,0.81299,0.81299,0.81103,0.81103,0.81103,0.80908,0.80908,0.80908,0.81494,0,0,0,0,0,0,0,0,0,0,0,0,0,1.165,1.165,1.1611,1.1611,1.1611,1.1611,1.165,1.165,1.165,1.165,1.165,1.165,1.165,1.165,1.165,1.165,1.165,1.165,1.1689,1.1689,1.1689,1.1689,1.1689,1.1689,1.1689,1.1689,1.1738,1.1689,1.1689,1.1689,1.1689,1.1689,1.165,1.1689,1.1689,1.1689,1.1689,1.165,1.165,1.165,1.165,1.165,1.1689,1.1689,1.1689,1.165,1.1689,1.165,1.165,1.165,1.165,1.165,1.165,1.165,1.165,1.165,1.165,1.165,1.1611,1.1611,1.1611,1.1572,1.1572,1.1533,1.1533,1.1494,1.1494,1.1494,1.1494,1.1494,1.1494,1.1455,1.1455,1.1416,1.1416,1.1416,1.1416,1.1455,1.1533,1.1533,1.1533,1.1572,1.1533,1.1533,1.1494,1.1455,0,0,0,0,0,0,0,2.377,2.3945,2.3945,2.3945,2.4121,2.3945,2.3945,2.3945,2.3945,2.377,2.377,2.377,2.377,2.3613,2.3438,2.3613,2.3613,2.377,2.3613,2.3613,2.377,2.377,2.377,2.3613,2.3613,2.3613,2.3613,2.3438,2.3438,2.3438,2.3438,2.3281,2.3125,2.3281,2.3281,2.3438,2.3281,2.3281,2.3281,2.3281,2.3281,2.3281,2.3281,2.3281,2.3281,2.3281,2.3281,2.3125,2.3125,2.3125,2.2969,2.3125,2.3125,2.2969,2.2969,2.2969,2.2812,2.2812,2.2812,2.2812,2.2812,2.2812,2.2812,2.2812,2.2812,2.2812,2.2656,2.25,0,0,0,0,0,0,0,0,0,0,0,0,0,0,0,0,0,0,0,0,0,0,0,0,0,0,0
0.72022,0.71826,0.72315,0.72315,0.72315,0.72315,0.72461,0.72315,0.72315,0.72315,0.72315,0.72315,0.72315,0.72461,0.72607,0.72803,0.72803,0.72803,0.72949,0.72949,0.72949,0,0,0,0,0,0,1.0225,1.0225,1.0225,1.0225,1.0225,1.0225,1.0225,1.0254,1.0254,1.0254,1.0254,1.0283,0,0,0,0,0,0,0,0.7876,0.78955,0.7915,0.7915,0.7876,0.7876,0.78955,0.7915,0.7915,0.7915,0.78955,0.78565,0.78565,0.78565,0.78418,0.78223,0.78027,0.77832,0.77832,0.77685,0.77685,0.77685,0.77685,0.77685,0.78223,0.78418,0.78418,0.78223,0.78223,0.78223,0.77881,0.7749,0.7749,0.7749,0.77344,0.77344,0.77344,0.77148,0.77148,0.77148,0.77148,0.77148,0.76953,0.76953,0.76953,0.76953,0.77148,0.76953,0.77002,0.77002,0.77002,0.77002,0.77002,0.77002,0.77002,0.77002,0.77002,0.76807,0.77002,0.77002,0.76807,0.77002,0.76807,0.76807,0.76807,0.76807,0.76807,0.76807,0.76807,0.76807,0.76611,0.76807,0.76807,0.76611,0.76807,0.7666,0.7666,0.7666,0.7666,0.7666,0.7666,0.7666,0.7666,0.7666,0.7666,0.7666,0.7666,0.7666,0.7666,0.7666,0.7666,0.7666,0.7666,0.76465,0.7666,0.76465,0.76465,0.76465,0.76465,0.76465,0.76465,0.76465,0.76465,0.76465,0.76465,0.76465,0.76318,0.76318,0.76318,0.76123,0.76123,0.76123,0,0,0,0,0,0,1.1074,1.1074,1.1074,1.1074,1.1074,1.1074,1.1074,0,0,0,0,0,0,0.8457,0.8457,0.8457,0.8457,0.84326,0.84326,0.84326,0.84131,0.84131,0.84131,0.83935,0.83935,0.83935,0.83935,0.8374,0.8374,0.8374,0.8374,0.83496,0.83496,0.83496,0.83496,0.83301,0.83105,0.83105,0.83105,0.8291,0.8291,0.8291,0.82715,0.8291,0.82715,0.82715,0.82715,0.82715,0.8252,0.8252,0.82275,0.82275,0.82275,0.82275,0.8208,0.8208,0.8208,0.8208,0.81885,0.81885,0.8169,0.8169,0.81494,0.81494,0.81494,0.81299,0.81494,0.81299,0.81494,0.81299,0.81299,0.81299,0.81494,0.81299,0.81299,0.81299,0.81299,0.81103,0.80908,0.81103,0.81494,0,0,0,0,0,0,0,0,0,0,0,0,0,0,1.165,1.165,1.165,1.165,1.1611,1.165,1.165,1.165,1.165,1.165,1.165,1.165,1.165,1.165,1.165,1.1689,1.1689,1.1689,1.1689,1.1738,1.1738,1.1738,1.1738,1.1738,1.1738,1.1738,1.1738,1.1738,1.1738,1.1738,1.1689,1.1738,1.1738,1.1689,1.1699,1.1689,1.1689,1.165,1.165,1.165,1.165,1.1699,1.1699,1.1699,1.165,1.1699,1.1699,1.165,1.165,1.165,1.165,1.1699,1.165,1.165,1.165,1.165,1.165,1.1611,1.1611,1.1611,1.1611,1.1572,1.1572,1.1533,1.1533,1.1533,1.1494,1.1494,1.1494,1.1494,1.1494,1.1455,1.1416,1.1416,1.1416,1.1416,1.1455,1.1494,1.1533,1.1572,1.1533,1.1533,1.1533,1.1494,0,0,0,0,0,0,0,2.377,2.3613,2.3945,2.3945,2.3945,2.3945,2.3945,2.377,2.3945,2.3945,2.3945,2.377,2.377,2.377,2.3613,2.3438,2.3438,2.3613,2.377,2.3613,2.3613,2.3613,2.3613,2.3613,2.3613,2.3438,2.3613,2.3613,2.3438,2.3438,2.3438,2.3438,2.3281,2.3281,2.3281,2.3438,2.3438,2.3281,2.3281,2.3281,2.3281,2.3281,2.3125,2.3125,2.3125,2.2969,2.2969,2.2969,2.3125,2.2969,2.2969,2.2969,2.2969,2.2969,2.2969,2.2812,2.2812,2.2812,2.2812,2.2812,2.2812,2.2812,2.2812,2.2812,2.2812,2.2812,2.2812,2.25,2.25,0,0,0,0,0,0,0,0,0,0,0,0,0,0,0,0,0,0,0,0,0,0,0,0,0,0,0
0.72168,0.72022,0.72315,0.72461,0.72315,0.72315,0.72461,0.72461,0.72315,0.72315,0.72315,0.72315,0.72461,0.72461,0.72607,0.72607,0.72803,0.72803,0.72803,0.72803,0.72803,0,0,0,0,0,0,1.0195,1.0225,1.0225,1.0254,1.0254,1.0283,1.0283,1.0254,1.0254,1.0283,1.0283,1.0283,1.0312,0,0,0,0,0,0,0.78565,0.78565,0.78955,0.7876,0.78565,0.78418,0.78027,0.78955,0.78027,0.78027,0.78027,0.78418,0.78418,0.78418,0.78027,0.77881,0.77881,0.77881,0.77685,0.77685,0.7749,0.7749,0.77344,0.77344,0.77344,0.77344,0.77344,0.77881,0.77685,0.77881,0.77685,0.77344,0.77344,0.77344,0.77344,0.77344,0.77148,0.77148,0.77148,0.77148,0.77148,0.77148,0.77002,0.77148,0.77148,0.77148,0.77002,0.77002,0.77002,0.77002,0.77002,0.77002,0.77002,0.77002,0.77002,0.77002,0.77002,0.76807,0.76807,0.77002,0.76807,0.76807,0.76807,0.77002,0.76807,0.76807,0.76807,0.76807,0.76807,0.76807,0.76807,0.76807,0.76807,0.76807,0.76807,0.76807,0.76807,0.76807,0.76807,0.76807,0.7666,0.7666,0.7666,0.7666,0.76807,0.7666,0.7666,0.7666,0.7666,0.7666,0.7666,0.7666,0.7666,0.7666,0.7666,0.7666,0.76465,0.76465,0.76465,0.76465,0.76465,0.76465,0.76465,0.76465,0.76465,0.76465,0.76465,0.76465,0.76318,0.76318,0.76318,0.76318,0,0,0,0,0,0,1.1104,1.1074,1.1074,1.1074,1.1074,1.1074,1.1074,0,0,0,0,0,0,0.84766,0.84766,0.84766,0.84766,0.8457,0.8457,0.84326,0.84326,0.84326,0.84326,0.84131,0.84131,0.83935,0.83935,0.83935,0.8374,0.8374,0.8374,0.8374,0.83496,0.83496,0.83496,0.83301,0.83301,0.83105,0.83105,0.83105,0.83105,0.83105,0.8291,0.8291,0.8291,0.82715,0.82715,0.82715,0.82715,0.8252,0.8252,0.82275,0.8252,0.82324,0.82324,0.8208,0.8208,0.8208,0.8208,0.81885,0.81885,0.81885,0.8169,0.8169,0.8169,0.81494,0.81494,0.81494,0.81494,0.81299,0.81299,0.81299,0.81494,0.81494,0.81299,0.81299,0.81299,0.81103,0.81103,0.81103,0.81738,0,0,0,0,0,0,0,0,0,0,0,0,0,0,1.165,1.165,1.165,1.165,1.165,1.165,1.165,1.165,1.165,1.165,1.165,1.165,1.165,1.165,1.1689,1.1689,1.1689,1.1689,1.1738,1.1738,1.1738,1.1777,1.1777,1.1777,1.1777,1.1777,1.1777,1.1777,1.1738,1.1738,1.1699,1.1738,1.1738,1.1699,1.1699,1.1699,1.1699,1.1699,1.1699,1.165,1.165,1.1699,1.1699,1.1699,1.1699,1.1699,1.1699,1.165,1.165,1.165,1.165,1.165,1.165,1.165,1.165,1.166,1.166,1.166,1.166,1.166,1.1611,1.1611,1.1572,1.1572,1.1533,1.1533,1.1533,1.1494,1.1494,1.1494,1.1494,1.1455,1.1455,1.1416,1.1416,1.1416,1.1455,1.1533,1.1533,1.1572,1.1572,1.1572,1.1533,1.1533,0,0,0,0,0,0,0,2.377,2.3613,2.3613,2.3613,2.3613,2.3613,2.3438,2.377,2.3945,2.3945,2.3945,2.3945,2.377,2.377,2.3613,2.3438,2.3438,2.3613,2.3613,2.3438,2.3613,2.3613,2.3613,2.3613,2.3438,2.3438,2.3613,2.3438,2.3438,2.3438,2.3438,2.3438,2.3438,2.3281,2.3438,2.3281,2.3281,2.3281,2.3281,2.3125,2.3125,2.3125,2.2969,2.2969,2.2969,2.2969,2.2969,2.2969,2.2969,2.2969,2.2812,2.2812,2.2812,2.2812,2.2812,2.2812,2.2812,2.2656,2.2656,2.2656,2.2656,2.2656,2.2656,2.2656,2.2656,2.2656,2.25,2.25,2.25,0,0,0,0,0,0,0,0,0,0,0,0,0,0,0,0,0,0,0,0,0,0,0,0,0,0,0
0.72168,0.72168,0.72315,0.72607,0.72315,0.72315,0.72315,0.72315,0.72315,0.72315,0.72315,0.72315,0.72315,0.72461,0.72656,0.72656,0.72803,0.72803,0.72803,0.72803,0.73096,0,0,0,0,0,0,1.0283,1.0254,1.0254,1.0254,1.0254,1.0283,1.0283,1.0283,1.0283,1.0283,1.0283,1.0312,1.0352,0,0,0,0,0,0,0.78418,0.78418,0.78565,0.7876,0.78223,0.78027,0.77685,0.77685,0.77685,0.77685,0.77881,0.78223,0.78027,0.78027,0.77881,0.77881,0.77881,0.77685,0.77685,0.7749,0.7749,0.77344,0.77344,0.77344,0.77344,0.77344,0.77344,0.77685,0.7749,0.77685,0.7749,0.77344,0.77344,0.77344,0.77344,0.77148,0.77148,0.77148,0.77148,0.77148,0.77148,0.77148,0.77148,0.77148,0.77148,0.77148,0.77148,0.77002,0.77148,0.77148,0.77002,0.77002,0.77002,0.77002,0.77002,0.77002,0.77002,0.77002,0.77002,0.77002,0.77002,0.77002,0.76807,0.77002,0.77002,0.77002,0.77002,0.76807,0.76807,0.76807,0.76807,0.77002,0.77002,0.76807,0.76807,0.76807,0.76807,0.76807,0.76807,0.76807,0.76807,0.76807,0.76807,0.76807,0.76807,0.76807,0.7666,0.7666,0.7666,0.7666,0.7666,0.7666,0.7666,0.7666,0.7666,0.7666,0.7666,0.7666,0.7666,0.7666,0.7666,0.7666,0.7666,0.7666,0.7666,0.7666,0.76465,0.76465,0.76465,0.76465,0.76465,0.76465,0,0,0,0,0,0,1.1104,1.1104,1.1074,1.1104,1.1074,1.1074,1.1074,0,0,0,0,0,0,0.84766,0.8501,0.84766,0.84766,0.84766,0.84766,0.8457,0.8457,0.8457,0.8457,0.84375,0.84375,0.84131,0.84131,0.84131,0.83935,0.83935,0.8374,0.8374,0.83496,0.83496,0.83545,0.83301,0.83301,0.83301,0.83105,0.83105,0.83105,0.83105,0.8291,0.8291,0.8291,0.8291,0.82715,0.82715,0.82715,0.82715,0.8252,0.8252,0.8252,0.8252,0.82324,0.82324,0.82324,0.82129,0.82129,0.82129,0.81885,0.81885,0.81885,0.81885,0.81885,0.8169,0.8169,0.81494,0.8169,0.81494,0.81494,0.81494,0.81494,0.81494,0.81299,0.81299,0.81299,0.81299,0.81299,0.81299,0.81738,0,0,0,0,0,0,0,0,0,0,0,0,0,1.1777,1.1689,1.1689,1.1689,1.165,1.165,1.165,1.165,1.165,1.165,1.165,1.165,1.1689,1.1689,1.1689,1.1689,1.1689,1.1689,1.1738,1.1738,1.1738,1.1738,1.1738,1.1777,1.1777,1.1777,1.1777,1.1777,1.1777,1.1738,1.1738,1.1738,1.1738,1.1738,1.1699,1.1738,1.1738,1.1738,1.1738,1.1738,1.1699,1.1699,1.1738,1.1738,1.1738,1.1699,1.1699,1.1699,1.165,1.1699,1.166,1.1699,1.1699,1.1699,1.1699,1.166,1.166,1.166,1.1611,1.1611,1.1611,1.1611,1.1611,1.1572,1.1572,1.1533,1.1533,1.1533,1.1494,1.1494,1.1494,1.1494,1.1494,1.1455,1.1455,1.1416,1.1455,1.1494,1.1533,1.1533,1.1572,1.1621,1.1582,1.1582,1.1582,1.1582,0,0,0,0,0,0,2.377,2.3613,2.3613,2.3613,2.377,2.3438,0,2.377,2.3945,2.3945,2.3945,2.377,2.377,2.3613,2.3438,2.3438,2.3438,2.3613,2.3438,2.3438,2.3438,2.3438,2.3438,2.3613,2.3613,2.3438,2.3438,2.3438,2.3438,2.3438,2.3438,2.3438,2.3438,2.3281,2.3281,2.3281,2.3281,2.3281,2.3125,2.3125,2.3125,2.3125,2.2969,2.2969,2.2969,2.2969,2.2812,2.2812,2.2969,2.2969,2.2812,2.2812,2.2812,2.2812,2.2656,2.2656,2.2656,2.2656,2.2656,2.2656,2.25,2.25,2.2656,2.2656,2.25,2.25,2.25,2.2363,2.2363,0,0,0,0,0,0,0,0,0,0,0,0,0,0,0,0,0,0,0,0,0,0,0,0,0,0,0
0.72022,0.72315,0.72315,0.72461,0.72315,0.72461,0.72315,0.72461,0.72461,0.72461,0.72315,0.72461,0.72461,0.72461,0.72803,0.72803,0.72803,0.72803,0.72803,0.72803,0.72949,0,0,0,0,0,0,1.0312,1.0283,1.0283,1.0283,1.0283,1.0283,1.0283,1.0283,1.0283,1.0283,1.0283,1.0322,0,0,0,0,0,0,0,0.78418,0.78418,0.78565,0.78418,0.78027,0.77881,0.77685,0.7749,0.7749,0.7749,0.7749,0.77881,0.77881,0.77881,0.77685,0.77685,0.77685,0.77685,0.7749,0.7749,0.77344,0.77344,0.77148,0.77148,0.77148,0.77148,0.77344,0.7749,0.7749,0.7749,0.77344,0.77344,0.77344,0.77148,0.77148,0.77148,0.77148,0.77148,0.77148,0.77148,0.77148,0.77148,0.77148,0.77148,0.77148,0.77148,0.77148,0.77148,0.77148,0.77148,0.77148,0.77148,0.77002,0.77002,0.77002,0.77002,0.77002,0.77002,0.77002,0.77002,0.77002,0.77002,0.77002,0.77002,0.77002,0.77002,0.77002,0.77002,0.77002,0.76807,0.76807,0.77002,0.77002,0.77002,0.77002,0.77002,0.77002,0.77002,0.77002,0.77002,0.77002,0.76807,0.77002,0.76807,0.77002,0.76807,0.76807,0.76807,0.76807,0.76807,0.76807,0.7666,0.7666,0.7666,0.7666,0.7666,0.7666,0.7666,0.7666,0.7666,0.7666,0.7666,0.7666,0.7666,0.7666,0.7666,0.7666,0.7666,0.76465,0.7666,0.7666,0.7666,0,0,0,0,0,0,1.1113,1.1113,1.1113,1.1113,1.1074,1.1113,1.1074,0,0,0,0,0,0,0,0.85205,0.85205,0.85205,0.8501,0.8501,0.84766,0.84766,0.8457,0.8457,0.8457,0.84375,0.84375,0.84375,0.84375,0.84375,0.84131,0.84131,0.83935,0.8374,0.8374,0.83545,0.83545,0.83545,0.83301,0.83105,0.83105,0.83105,0.83105,0.8291,0.8291,0.8291,0.8291,0.8291,0.82715,0.82715,0.82715,0.8252,0.8252,0.8252,0.8252,0.82324,0.82324,0.82324,0.82324,0.82324,0.82129,0.82129,0.82129,0.82129,0.81934,0.81934,0.81934,0.81738,0.81738,0.81738,0.81494,0.81494,0.81494,0.81543,0.81543,0.81299,0.81348,0.81543,0.81348,0.81348,0.81152,0.81348,0,0,0,0,0,0,0,0,0,0,0,0,0,1.1689,1.1689,1.1738,1.1689,1.1689,1.165,1.165,1.165,1.165,1.165,1.165,1.165,1.1689,1.1699,1.1699,1.1738,1.1738,1.1738,1.1738,1.1738,1.1738,1.1738,1.1777,1.1738,1.1777,1.1777,1.1777,1.1777,1.1777,1.1777,1.1738,1.1738,1.1738,1.1738,1.1738,1.1738,1.1738,1.1777,1.1777,1.1777,1.1738,1.1738,1.1777,1.1777,1.1777,1.1738,1.1699,1.1699,1.1699,1.1699,1.1699,1.1699,1.1699,1.1699,1.1699,1.1699,1.166,1.166,1.1611,1.1611,1.166,1.1621,1.1621,1.1621,1.1572,1.1533,1.1533,1.1533,1.1533,1.1533,1.1494,1.1494,1.1494,1.1494,1.1455,1.1455,1.1494,1.1494,1.1533,1.1582,1.1621,1.1621,1.1621,1.1621,0,0,0,0,0,0,0,0,0,2.3613,2.3613,2.3613,2.377,2.3438,2.3438,2.3613,2.377,2.3945,2.3945,2.377,2.3613,2.3613,2.3438,2.3281,2.3438,2.3438,2.3281,2.3281,2.3281,2.3281,2.3438,2.3438,2.3438,2.3438,2.3438,2.3438,2.3438,2.3438,2.3438,2.3281,2.3281,2.3281,2.3281,2.3281,2.3281,2.3125,2.3125,2.3125,2.3125,2.2969,2.2969,2.2969,2.2969,2.2812,2.2812,2.2812,2.2812,2.2969,2.2812,2.2812,2.2812,2.2656,2.2656,2.2656,2.2656,2.2656,2.2656,2.25,2.25,2.2363,2.2363,2.2363,2.2207,2.25,2.2363,2.2363,2.2363,0,0,0,0,0,0,0,0,0,0,0,0,0,0,0,0,0,0,0,0,0,0,0,0,0,0,0
