0.86621,0.86621,0.86816,0.86816,0.86816,0.86816,0.86816,0.86816,0.86816,0.86816,0.86816,0.86816,0.86816,0.8706,0.8706,0.87305,0.87305,0.87305,0.87305,0.87305,0.87305,0.87305,0.87305,0.875,0.87744,0.87744,0.87744,0.87988,0.87988,0.87988,0.88184,0.87988,0.88184,0.88184,0.88184,0.88184,0.88184,0.88184,0.88428,0.88428,0.88428,0.88428,0.88672,0.88672,0.88672,0.88672,0.88672,0.88672,0.88672,0.8916,0.8916,0.8916,0.8916,0.8916,0.89355,0.896,0.896,0.896,0.896,0.896,0.896,0.896,0.89844,0.89844,0.89844,0.89844,0.89844,0.89844,0.90088,0.90088,0.90088,0.90088,0.90088,0.90332,0.90332,0.90576,0.90576,0.90576,0.90576,0.9082,0.9082,0.9082,0.9082,0.9082,0.9082,0.91065,0.91065,0.91065,0.91309,0.91309,0.91553,0.91553,0.91553,0.91553,0.91553,0.91797,0.91797,0.91553,0.91797,0.91846,0.91846,0.9209,0.9209,0.9209,0.9209,0.9209,0.92334,0.92334,0.92334,0.92334,0.92578,0.92578,0.92822,0.92822,0.93115,0.93115,0.93115,0.93115,0.93359,0.93359,0.93359,0.93359,0.93359,0.93359,0.93359,0.93603,0,1.0459,1.043,1.043,1.0391,1.04,1.04,1.04,1.04,1.04,1.0361,1.0361,1.0361,1.04,1.0361,1.0332,1.0332,1.0332,1.0361,1.0332,1.0361,1.0332,1.0332,1.0332,1.0332,1.0332,1.0332,1.0332,1.0303,1.0303,1.0303,1.0303,1.0303,1.0303,1.0273,1.0273,1.0273,1.0244,1.0244,1.0273,1.0273,1.0273,1.0244,1.0244,1.0273,1.0273,1.0273,1.0244,1.0244,1.0244,1.0244,1.0244,1.0244,1.0244,1.0273,1.0244,1.0244,1.0244,1.0244,1.0244,1.0244,1.0244,1.0244,1.0215,1.0215,1.0215,1.0215,1.0215,1.0215,1.0215,1.0176,1.0146,1.0146,1.0146,0,0,0,0,0,0,0,0,0,0,0,0,0,0.70654,0.70215,0.70215,0.70068,0.70068,0.69922,0.69922,0.69922,0.69922,0.69775,0.69775,0.69775,0.69775,0.69629,0,0,0,0.65332,0.65185,0.65185,0.65088,0.64941,0.64844,0.64941,0.64941,0.64844,0.64697,0.646,0.646,0.646,0.646,0.64453,0.64453,0.64453,0.64453,0.64453,0.64453,0.64209,0.64355,0.64111,0.64209,0.64209,0.64209,0.64209,0.64209,0.64111,0,0,0.68213,0.68213,0.68359,0.68506,0.68652,0.68652,0.68799,0.68799,0.68945,0,0.72949,0.72949,0.72949,0.72949,0.72949,0.72949,0.72949,0.73096,0.73096,0.73096,0.73242,0.73584,0.73584,0.70215,0.70068,0.69922,0.69775,0.69629,0.69482,0.69238,0.69092,0.68945,0.68799,0.68799,0.68506,0.68408,0.68115,0.67969,0.67822,0.67725,0.67578,0.67432,0.67041,0.66895,0.66797,0.66797,0.6665,0.66504,0.66504,0.6626,0.65869,0.65723,0.65625,0.65381,0.65234,0.65137,0.6499,0.64844,0.646,0.646,0.64502,0.64355,0.64111,0.64014,0.63867,0.6377,0.63672,0.63525,0.63428,0.63184,0.63086,0.6294,0.62695,0.62353,0.62353,0.62256,0.62158,0.62012,0.61914,0.61914,0.61816,0.6167,0.61475,0.61475,0.61377,0.61377,0.6123,0.61035,0.60938,0.60938,0.60693,0.60693,0.60498,0.604,0.604,0.60156,0.60156,0.60059,0.59863,0.59766,0.59766,0.61377,0.6123,0.61475,0.61475,0.61377,0.61475,0.61377,0.59522,0.59619,0.59619,0.59961,0.59961,0.59766,0.59619,0,0.61035,0.60693,0.61035,0.61035,0.61133,0,0,0.60596,0.60303,0.60156,0,0.60498,0.60498,0.60498,0.60498,0.60596,0.60498,0.60498,0.60498,0.604,0,0,0,0,0,0,0,0,0,0,0,0,0,0,0,0,0,0,0,0,0,0,0,0,0,0,0,0,0,0,0,0,0,0,0,0,0,0,0,0,0,0,0,0,0
0.86621,0.86621,0.86816,0.86816,0.86816,0.8706,0.8706,0.8706,0.86816,0.8706,0.8706,0.8706,0.8706,0.8706,0.8706,0.87305,0.87305,0.87305,0.87305,0.87305,0.87305,0.875,0.87744,0.87744,0.87744,0.87744,0.87988,0.87988,0.87988,0.87988,0.88184,0.87988,0.88184,0.88184,0.88184,0.88184,0.88184,0.88184,0.88428,0.88428,0.88428,0.88428,0.88672,0.88672,0.88672,0.88672,0.88672,0.88672,0.88916,0.8916,0.8916,0.8916,0.8916,0.89355,0.89355,0.896,0.896,0.896,0.896,0.896,0.896,0.89844,0.89844,0.89844,0.89844,0.89844,0.89844,0.89844,0.90088,0.90088,0.90088,0.90088,0.90332,0.90332,0.90576,0.90576,0.90576,0.9082,0.9082,0.9082,0.9082,0.9082,0.9082,0.9082,0.9082,0.91065,0.91065,0.91065,0.91065,0.91309,0.91309,0.91553,0.91553,0.91553,0.91553,0.91553,0.91553,0.91553,0.91846,0.91846,0.91846,0.9209,0.9209,0.9209,0.9209,0.92334,0.92334,0.92334,0.92334,0.92578,0.92578,0.92578,0.92822,0.92822,0.93115,0.93115,0.93359,0.93359,0.93359,0.93359,0.93359,0.93359,0.93359,0.93359,0.93359,0.93603,0.93603,1.043,1.04,1.04,1.04,1.0361,1.0361,1.0361,1.0361,1.0361,1.0361,1.0361,1.0361,1.0361,1.0361,1.0361,1.0332,1.0332,1.0332,1.0361,1.0332,1.0332,1.0303,1.0273,1.0273,1.0303,1.0273,1.0273,1.0303,1.0303,1.0303,1.0273,1.0273,1.0273,1.0244,1.0244,1.0244,1.0244,1.0244,1.0244,1.0244,1.0244,1.0244,1.0244,1.0244,1.0244,1.0244,1.0244,1.0244,1.0244,1.0244,1.0244,1.0215,1.0215,1.0244,1.0244,1.0215,1.0215,1.0215,1.0215,1.0215,1.0215,1.0215,1.0215,1.0215,1.0215,1.0215,1.0215,1.0186,1.0186,1.0186,1.0146,1.0146,0,0,0,0,0,0,0,0,0,0,0,0,0,0,0,0.70215,0.70068,0.69922,0.69922,0.69775,0.69922,0.69775,0.69775,0.69775,0.69775,0.69775,0.69775,0,0,0,0,0,0.65234,0.65088,0.64941,0.64844,0.64697,0.64844,0.64844,0.64697,0.646,0.64453,0.64453,0.64453,0.64453,0.64355,0.64355,0.64355,0.64209,0.64355,0.64209,0.64111,0.64014,0.64014,0.64111,0.64014,0.64014,0.64111,0.64014,0.64014,0,0,0.68262,0.68359,0.68359,0.68506,0.68652,0.68652,0.68799,0.68945,0.68945,0,0.72949,0.72949,0.72949,0.72949,0.72949,0.73096,0.73096,0.73096,0.73096,0.73096,0.73242,0.73584,0.73584,0.70215,0.70068,0.69922,0.69775,0.69629,0.69482,0.69385,0.69238,0.68945,0.68799,0.68799,0.68506,0.68408,0.68262,0.68115,0.67969,0.67822,0.67725,0.67578,0.67188,0.67041,0.66895,0.66895,0.66797,0.6665,0.66504,0.66406,0.66113,0.65869,0.65723,0.65625,0.65478,0.65234,0.65137,0.6499,0.64746,0.646,0.646,0.64258,0.64258,0.64111,0.63916,0.6377,0.63672,0.63525,0.63428,0.63281,0.63184,0.63086,0.62842,0.625,0.62353,0.62256,0.62158,0.62158,0.62012,0.61914,0.61816,0.61816,0.61475,0.61377,0.61377,0.61377,0.6123,0.61035,0.60938,0.60938,0.60596,0.60596,0.60498,0.604,0.60156,0.60156,0.59961,0.59961,0.59766,0.59766,0.59619,0.59619,0.59522,0.59522,0.59522,0.59424,0.59424,0.59522,0.59522,0.59619,0.59424,0.59863,0.59863,0.59766,0.59522,0,0,0,0,0,0,0,0,0.60303,0.59863,0.59863,0.59863,0.59863,0.59766,0,0,0,0,0,0,0,0,0,0,0,0,0,0,0,0,0,0,0,0,0,0,0,0,0,0,0,0,0,0,0,0,0,0,0,0,0,0,0,0,0,0,0,0,0,0,0,0,0,0,0,0
0.86621,0.86621,0.86816,0.86816,0.86816,0.8706,0.8706,0.8706,0.86865,0.8706,0.8706,0.8706,0.8706,0.8706,0.8706,0.87305,0.87305,0.87305,0.875,0.875,0.875,0.875,0.87744,0.87744,0.87744,0.87744,0.87988,0.87988,0.87988,0.88232,0.88232,0.88232,0.88232,0.88232,0.88232,0.88428,0.88428,0.88428,0.88428,0.88672,0.88428,0.88672,0.88672,0.88672,0.88672,0.88672,0.88672,0.88672,0.88916,0.8916,0.8916,0.8916,0.89404,0.89404,0.89404,0.896,0.896,0.896,0.896,0.89844,0.89844,0.89844,0.89844,0.89844,0.89844,0.89844,0.90088,0.90088,0.90088,0.90088,0.90088,0.90088,0.90332,0.90332,0.90576,0.90576,0.9082,0.9082,0.9082,0.9082,0.9082,0.9082,0.9082,0.9082,0.9082,0.91065,0.91065,0.91065,0.91065,0.91309,0.91309,0.91309,0.91602,0.91602,0.91602,0.91846,0.91602,0.91602,0.91846,0.91846,0.9209,0.9209,0.9209,0.9209,0.92334,0.92334,0.92334,0.92334,0.92578,0.92578,0.92578,0.92578,0.92822,0.92822,0.93115,0.93115,0.93359,0.93359,0.93359,0.93359,0.93359,0.93359,0.93359,0.93359,0.93359,0.93603,0.93603,0,1.0361,1.0361,1.0361,1.0361,1.0361,1.0361,1.0332,1.0332,1.0332,1.0332,1.0332,1.0332,1.0332,1.0332,1.0332,1.0332,1.0332,1.0332,1.0332,1.0332,1.0273,1.0273,1.0244,1.0244,1.0244,1.0244,1.0273,1.0273,1.0273,1.0273,1.0244,1.0244,1.0244,1.0244,1.0244,1.0215,1.0215,1.0215,1.0215,1.0215,1.0215,1.0215,1.0215,1.0215,1.0215,1.0215,1.0215,1.0215,1.0215,1.0215,1.0176,1.0176,1.0215,1.0176,1.0176,1.0176,1.0146,1.0146,1.0146,1.0146,1.0146,1.0146,1.0146,1.0186,1.0146,1.0146,1.0146,1.0186,1.0146,1.0117,1.0117,0,0,0,0,0,0,0,0,0,0,0,0,0,0,0,0.69922,0.69922,0.69775,0.69775,0.69775,0.69775,0.69775,0.69629,0.69629,0.69629,0,0,0,0,0,0,0,0.64941,0.64844,0.64697,0.64697,0.646,0.64697,0.646,0.64453,0.64453,0.64355,0.64355,0.64209,0.64209,0.64209,0.64209,0.64111,0.64111,0.64111,0.64111,0.63867,0.63867,0.6377,0.6377,0.6377,0.63867,0.63867,0.64014,0.63867,0.63867,0,0.68262,0.68359,0.68506,0.68652,0.68652,0.68652,0.68799,0.68799,0.68799,0,0.72949,0.73096,0.73096,0.73096,0.72949,0.72949,0.73096,0.73096,0.73242,0.73096,0.73242,0,0,0,0.70068,0,0.69922,0.69629,0.69385,0.69385,0.69238,0.69092,0.68945,0.68799,0.68652,0.68506,0.68262,0.68262,0.68115,0.67822,0.67725,0.67578,0.67188,0.67188,0.66895,0.66895,0.66797,0.6665,0.6665,0.66406,0.6626,0.66016,0.65869,0.65625,0.65625,0.65478,0.65234,0.65137,0.64746,0.64746,0.64648,0.64355,0.64258,0.64258,0.64014,0.63916,0.63672,0.63525,0.63525,0.63428,0.63281,0.63184,0.63086,0.62842,0.625,0.62353,0.62256,0.62158,0.62012,0.61914,0.61914,0.61816,0.61572,0.61475,0.61377,0.61377,0.6123,0.61035,0.60938,0.6084,0.60596,0.60498,0.60498,0.604,0.60156,0.60059,0.59961,0.59766,0.59766,0.59766,0.59668,0.59668,0.59668,0.59668,0.59522,0.59522,0.59424,0.59522,0.59326,0.59326,0.59228,0.59228,0.59228,0.59863,0.59668,0,0,0,0,0,0,0,0,0.59863,0.59863,0.59863,0.59766,0.59961,0.59766,0,0,0,0,0,0,0,0,0,0,0,0,0,0,0,0,0,0,0,0,0,0,0,0,0,0,0,0,0,0,0,0,0,0,0,0,0,0,0,0,0,0,0,0,0,0,0,0,0,0,0,0
0.86621,0.86621,0.86865,0.86865,0.86865,0.86865,0.86865,0.8706,0.86865,0.8706,0.8706,0.8706,0.8706,0.8706,0.8706,0.87305,0.87305,0.875,0.875,0.87549,0.87744,0.87549,0.87744,0.87744,0.87744,0.87744,0.87988,0.87988,0.87988,0.87988,0.88232,0.88232,0.88232,0.88232,0.88232,0.88428,0.88428,0.88428,0.88428,0.88672,0.88672,0.88672,0.88672,0.88672,0.88672,0.88672,0.88672,0.88916,0.88916,0.8916,0.8916,0.8916,0.89404,0.89404,0.89404,0.896,0.89648,0.89648,0.89648,0.89844,0.89844,0.89844,0.89844,0.89844,0.89844,0.89844,0.90088,0.90088,0.90088,0.90088,0.90088,0.90088,0.90332,0.90332,0.90576,0.90576,0.9082,0.9082,0.9082,0.9082,0.9082,0.9082,0.9082,0.9082,0.91065,0.91065,0.91065,0.91065,0.91065,0.91309,0.91309,0.91602,0.91602,0.91602,0.91602,0.91846,0.91602,0.91602,0.91846,0.91846,0.9209,0.9209,0.9209,0.9209,0.9209,0.9209,0.92334,0.92334,0.92578,0.92578,0.92578,0.92822,0.92822,0.92871,0.93115,0.93115,0.93115,0.93359,0.93359,0.93359,0.93359,0.93359,0.93359,0.93359,0.93359,0.93603,0.93603,0,1.0303,1.0303,1.0303,1.0303,1.0303,1.0303,1.0332,1.0303,1.0303,1.0332,1.0303,1.0303,1.0303,1.0273,1.0303,1.0303,1.0273,1.0273,1.0273,1.0244,1.0244,1.0244,1.0244,1.0244,1.0244,1.0244,1.0244,1.0244,1.0244,1.0244,1.0215,1.0215,1.0215,1.0215,1.0215,1.0215,1.0176,1.0176,1.0176,1.0176,1.0176,1.0176,1.0176,1.0215,1.0215,1.0215,1.0215,1.0176,1.0176,1.0186,1.0146,1.0146,1.0186,1.0146,1.0146,1.0146,1.0146,1.0146,1.0117,1.0117,1.0146,1.0117,1.0146,1.0146,1.0146,1.0146,1.0146,1.0146,1.0117,1.0117,0,0,0,0,0,0,0,0,0,0,0,0,0,0,0,0.70068,0.69922,0.69775,0.69775,0.69629,0.69629,0.69629,0.69482,0.69629,0.69629,0,0,0,0,0,0,0,0.64844,0.64697,0.64697,0.646,0.64453,0.64453,0.64453,0.64453,0.64355,0.64355,0.64209,0.64111,0.64111,0.64111,0.64111,0.64014,0.64014,0.64014,0.63867,0.64014,0.6377,0.6377,0.63623,0.6377,0.63623,0.6377,0.6377,0.6377,0.6377,0.63623,0.63623,0,0,0.68652,0.68652,0.68799,0.68652,0.68799,0.68945,0.68945,0,0,0.72949,0.73096,0.73096,0.72949,0.72949,0.73096,0.72949,0.73096,0.73096,0.73242,0,0,0,0,0,0,0,0,0.76904,0.69238,0.69092,0.68945,0.68799,0.68652,0.68555,0.68408,0.68262,0.68262,0.68115,0.67871,0.67725,0.67578,0.67334,0.67041,0.67041,0.66895,0.66797,0.6665,0.66406,0.6626,0.66016,0.65869,0.65772,0.65625,0.65478,0.65381,0.65234,0.64893,0.64746,0.64648,0.64502,0.64404,0.64258,0.6416,0.6416,0.63916,0.63672,0.63525,0.63525,0.63281,0.63281,0.63184,0.6294,0.62598,0.62353,0.62256,0.62158,0.6206,0.6206,0.61914,0.61816,0.61572,0.61475,0.61475,0.61377,0.61279,0.61133,0.60938,0.60596,0.60596,0.60498,0.60498,0.60303,0.60156,0.60059,0.59961,0.59766,0.59766,0.59668,0.59668,0.59668,0.59668,0.59522,0.59522,0.59522,0.59424,0.59326,0.59326,0.59228,0.59131,0.59228,0.59668,0.59668,0.5957,0.59522,0,0,0,0,0,0,0,0,0.59766,0.59766,0.59766,0.59668,0.59668,0,0,0,0,0,0,0,0,0,0,0,0,0,0,0,0,0,0,0,0,0,0,0,0,0,0,0,0,0,0,0,0,0,0,0,0,0,0,0,0,0,0,0,0,0,0,0,0,0,0,0,0
0.86621,0.86621,0.86865,0.86865,0.86865,0.86865,0.8706,0.8706,0.86865,0.8706,0.8706,0.8706,0.8706,0.8706,0.8706,0.87305,0.87305,0.87549,0.87549,0.87744,0.87744,0.87744,0.87744,0.87744,0.87744,0.87744,0.87988,0.87988,0.87988,0.87988,0.88232,0.88232,0.88232,0.88232,0.88428,0.88428,0.88428,0.88428,0.88672,0.88672,0.88672,0.88672,0.88672,0.88672,0.88672,0.88672,0.88916,0.88916,0.88916,0.89404,0.89404,0.89404,0.89648,0.89404,0.89648,0.89648,0.89648,0.89648,0.89648,0.89844,0.89844,0.89844,0.89893,0.89893,0.89893,0.90088,0.90088,0.90088,0.90088,0.90088,0.90332,0.90332,0.90332,0.90576,0.90576,0.90576,0.9082,0.9082,0.9082,0.9082,0.91065,0.9082,0.91065,0.91065,0.91065,0.91065,0.91065,0.91113,0.91357,0.91357,0.91357,0.91602,0.91602,0.91602,0.91602,0.91846,0.91846,0.91846,0.91846,0.91846,0.9209,0.9209,0.9209,0.9209,0.9209,0.9209,0.92334,0.92334,0.92578,0.92578,0.92871,0.92871,0.92871,0.92871,0.93115,0.93115,0.93115,0.93359,0.93359,0.93359,0.93359,0.93359,0.93359,0.93359,0.93359,0.93603,0.93603,0,1.0244,1.0244,1.0244,1.0244,1.0273,1.0244,1.0273,1.0244,1.0244,1.0244,1.0244,1.0244,1.0244,1.0244,1.0244,1.0244,1.0244,1.0244,1.0244,1.0244,1.0244,1.0244,1.0244,1.0244,1.0244,1.0244,1.0244,1.0244,1.0244,1.0215,1.0215,1.0215,1.0215,1.0215,1.0215,1.0146,1.0146,1.0146,1.0146,1.0146,1.0146,1.0146,1.0146,1.0146,1.0186,1.0186,1.0186,1.0146,1.0146,1.0146,1.0146,1.0117,1.0146,1.0146,1.0117,1.0117,1.0117,1.0117,1.0117,1.0117,1.0117,1.0117,1.0117,1.0117,1.0117,1.0117,1.0117,1.0117,1.0117,1.0088,0,0,0,0,0,0,0,0,0,0,0,0,0,0,0.70215,0.70068,0.69922,0.69775,0.69775,0.69629,0.69629,0.69629,0.69482,0.69482,0.69482,0,0,0,0,0,0,0,0,0.64746,0.64453,0.64453,0.64355,0.64355,0.64258,0.64258,0.64258,0.64111,0.64111,0.64014,0.64014,0.63867,0.63867,0.6377,0.6377,0.6377,0.63623,0.6377,0.6377,0.63623,0.63623,0.63623,0.63623,0.63623,0.6377,0.6377,0.6377,0.63623,0.63623,0.63525,0,0,0.68799,0.68799,0.68799,0.68799,0.69238,0.69385,0.69385,0.73096,0.73096,0.73096,0.72949,0.72949,0.72949,0.72949,0.73096,0.73242,0.73438,0.74072,0.74072,0,0,0,0,0,0,0.771,0.76904,0.76904,0.69238,0.69092,0.68945,0.68652,0.68555,0.68408,0.68408,0.68262,0.68115,0.67969,0.67871,0.67725,0.67334,0.67188,0.67188,0.67041,0.66895,0.66797,0.6665,0.66406,0.66113,0.66016,0.65869,0.65772,0.65625,0.65478,0.65381,0.64893,0.64746,0.64648,0.64648,0.64404,0.64258,0.64258,0.6416,0.6377,0.63672,0.63672,0.63525,0.63428,0.6333,0.63184,0.63086,0.62744,0.625,0.62402,0.62256,0.62158,0.6206,0.61914,0.61816,0.61572,0.61572,0.61572,0.61475,0.61377,0.61133,0.61035,0.60693,0.60693,0.60596,0.60498,0.604,0.60156,0.60059,0.59961,0.59766,0.59766,0.59668,0.59668,0.59668,0.59668,0.5957,0.59424,0.59424,0.59326,0.59228,0.59131,0.59131,0.59033,0.58935,0.59033,0.58935,0.58935,0.59326,0,0,0,0,0,0,0,0,0,0,0,0,0,0,0,0,0,0,0,0,0,0,0,0,0,0,0,0,0,0,0,0,0,0,0,0,0,0,0,0,0,0,0,0,0,0,0,0,0,0,0,0,0,0,0,0,0,0,0,0,0,0,0,0,0
0.86621,0.86621,0.86621,0.86621,0.86865,0.86865,0.86865,0.86865,0.8706,0.8706,0.8706,0.8706,0.8706,0.8706,0.8706,0.87305,0.87305,0.87549,0.87549,0.87744,0.87744,0.87744,0.87744,0.87744,0.87744,0.87988,0.87988,0.87988,0.87988,0.87988,0.88232,0.88232,0.88232,0.88477,0.88477,0.88477,0.88477,0.88477,0.88672,0.88672,0.88672,0.88672,0.88672,0.88672,0.88672,0.88916,0.88916,0.88916,0.88916,0.89404,0.89404,0.89404,0.89648,0.89648,0.89648,0.89648,0.89648,0.89648,0.89893,0.89893,0.89893,0.89893,0.90137,0.90137,0.90137,0.90137,0.90137,0.90137,0.90332,0.90332,0.90332,0.90332,0.90576,0.90576,0.90576,0.9082,0.9082,0.9082,0.9082,0.90869,0.91113,0.91113,0.91113,0.91113,0.91113,0.91113,0.91113,0.91357,0.91357,0.91357,0.91357,0.91602,0.91602,0.91602,0.91846,0.91846,0.91846,0.91846,0.91846,0.9209,0.9209,0.9209,0.92334,0.92334,0.92334,0.92334,0.92578,0.92578,0.92578,0.92871,0.92871,0.92871,0.92871,0.92871,0.93359,0.93359,0.93115,0.93359,0.93359,0.93359,0.93359,0.93359,0.93359,0.93359,0.93652,0.93652,0.93652,0,1.0244,1.0244,1.0244,1.0244,1.0244,1.0215,1.0244,1.0215,1.0215,1.0215,1.0215,1.0215,1.0215,1.0215,1.0215,1.0215,1.0176,1.0215,1.0215,1.0215,1.0215,1.0244,1.0244,1.0244,1.0215,1.0215,1.0215,1.0215,1.0215,1.0215,1.0176,1.0176,1.0146,1.0146,1.0146,1.0146,1.0146,1.0117,1.0117,1.0117,1.0117,1.0117,1.0117,1.0117,1.0117,1.0117,1.0117,1.0117,1.0117,1.0117,1.0117,1.0117,1.0117,1.0117,1.0117,1.0117,1.0088,1.0088,1.0088,1.0088,1.0088,1.0088,1.0088,1.0088,1.0088,1.0088,1.0117,1.0088,1.0088,1.0059,0,0,0,0,0,0,0,0,0,0,0,0,0,0.70215,0.70215,0.70068,0.70068,0.69922,0.69775,0.69629,0.69629,0.69629,0.69336,0.69482,0,0,0,0,0,0,0,0,0.64746,0.646,0.64502,0.64502,0.64355,0.64355,0.64258,0.64111,0.64014,0.64014,0.63867,0.63867,0.6377,0.63623,0.63623,0.63623,0.63623,0.63623,0.63525,0.63623,0.63623,0.63525,0.63525,0.63525,0.63428,0.63525,0.63525,0.63525,0.63428,0.63281,0.63281,0.63184,0,0,0.68652,0.68799,0.68799,0.68945,0.68945,0.69092,0,0,0.73096,0.73096,0.73096,0.72949,0.72949,0.72949,0.73096,0.73242,0.73584,0.73926,0.74072,0.74072,0,0,0.76221,0,0,0.76904,0.76904,0.76904,0.77295,0.68945,0.68799,0.68652,0.68555,0.68408,0.68408,0.68262,0.68262,0.67969,0.67969,0.67725,0.67334,0.67334,0.67334,0.67188,0.66943,0.66797,0.6665,0.66406,0.66162,0.66016,0.65869,0.65772,0.65772,0.65625,0.65527,0.65234,0.64893,0.64746,0.64648,0.64502,0.64404,0.64404,0.64258,0.6377,0.63672,0.63672,0.63525,0.63525,0.63428,0.6333,0.63086,0.6294,0.62598,0.625,0.62402,0.62256,0.62158,0.6206,0.61914,0.61719,0.61719,0.61572,0.61475,0.61377,0.61279,0.61133,0.60938,0.60596,0.60693,0.60498,0.604,0.60303,0.60156,0.59961,0.59766,0.59766,0.59668,0.59668,0.59668,0.59668,0.5957,0.59424,0.59326,0.59131,0.59033,0.58935,0.58935,0.58838,0.5874,0.5874,0.58643,0.58447,0.5835,0,0,0,0,0,0.57617,0.5752,0.5752,0,0,0,0.56787,0.5669,0,0,0,0,0,0,0,0,0,0,0,0,0,0,0,0,0,0,0,0,0,0,0,0,0,0,0,0,0,0,0,0,0,0,0,0,0,0,0,0,0,0,0,0,0,0,0,0,0,0,0,0
0.86621,0.86621,0.86865,0.86865,0.86865,0.86865,0.86865,0.86865,0.86865,0.8706,0.8706,0.8706,0.8706,0.8706,0.8706,0.87305,0.87549,0.87549,0.87744,0.87744,0.87744,0.87744,0.87744,0.87744,0.87744,0.87988,0.87988,0.87988,0.87988,0.87988,0.87988,0.88232,0.88232,0.88232,0.88477,0.88477,0.88672,0.88672,0.88672,0.88672,0.88672,0.88672,0.88672,0.88672,0.88916,0.88916,0.88916,0.88916,0.8916,0.89404,0.89648,0.89648,0.89648,0.89648,0.89648,0.89648,0.89648,0.89893,0.89893,0.89893,0.89893,0.89893,0.90137,0.90137,0.90137,0.90137,0.90381,0.90381,0.90381,0.90381,0.90625,0.90625,0.90625,0.90625,0.90869,0.90869,0.90869,0.90869,0.90869,0.91113,0.91113,0.91113,0.91113,0.91113,0.91113,0.91113,0.91357,0.91357,0.91357,0.91357,0.91357,0.91602,0.91602,0.91602,0.91846,0.91846,0.91846,0.91846,0.91846,0.9209,0.9209,0.9209,0.92334,0.92334,0.92578,0.92578,0.92578,0.92578,0.92871,0.92871,0.92871,0.92871,0.92871,0.92871,0.93359,0.93359,0.93359,0.93359,0.93359,0.93359,0.93359,0.93652,0.93652,0.93652,0.93652,0.93652,0.93652,0,1.0215,1.0215,1.0215,1.0215,1.0215,1.0215,1.0215,1.0215,1.0176,1.0176,1.0176,1.0176,1.0176,1.0176,1.0146,1.0176,1.0176,1.0176,1.0176,1.0176,1.0146,1.0146,1.0186,1.0186,1.0146,1.0146,1.0146,1.0186,1.0186,1.0146,1.0117,1.0117,1.0117,1.0117,1.0117,1.0117,1.0117,1.0117,1.0117,1.0117,1.0088,1.0088,1.0088,1.0088,1.0088,1.0088,1.0088,1.0088,1.0088,1.0088,1.0088,1.0088,1.0117,1.0088,1.0088,1.0088,1.0088,1.0088,1.0059,1.0059,1.0059,1.0059,1.0059,1.0059,1.0059,1.0059,1.0088,1.0059,1.0059,1.0029,0,0,0,0,0,0,0,0,0,0,0,0,0,0.70215,0.70215,0.70068,0.70068,0.69922,0.69775,0.69629,0.69629,0.69482,0.69336,0,0,0,0,0,0,0,0,0,0.64746,0.64502,0.64502,0.64258,0.64258,0.64014,0.64014,0.6377,0.63867,0.6377,0.6377,0.63623,0.63525,0.63525,0.63525,0.63525,0.63525,0.63525,0.63428,0.63525,0.63428,0.63428,0.63428,0.63428,0.63281,0.63184,0.63184,0.63184,0.63037,0.6294,0.6294,0.62598,0.62695,0.62598,0.62256,0.62158,0.62256,0,0,0.69092,0,0.73096,0.73096,0.73096,0.73096,0.72949,0.72949,0.73096,0.73291,0.73438,0.7373,0.74072,0.74072,0,0.74219,0,0,0.76416,0,0.76758,0.76758,0.76758,0.771,0.771,0.77295,0.68701,0.68555,0.68555,0.68408,0.68408,0.68262,0.67969,0.67969,0.67871,0.67578,0.67432,0.67334,0.67188,0.67041,0.66943,0.6665,0.66553,0.66162,0.66162,0.66016,0.65869,0.65772,0.65772,0.65625,0.65527,0.6499,0.64746,0.64648,0.64648,0.64404,0.64404,0.64258,0.6416,0.6377,0.63672,0.63672,0.63525,0.63428,0.6333,0.63184,0.62842,0.62744,0.62598,0.625,0.62402,0.62256,0.62158,0.61914,0.61816,0.61816,0.61719,0.61572,0.61475,0.61377,0.61279,0.61035,0.6084,0.60742,0.60596,0.60498,0.604,0.60205,0.60059,0.59863,0.59766,0.59766,0.59668,0.59668,0.59668,0.5957,0.59424,0.59326,0.59131,0.59033,0.58935,0.58838,0.5874,0.58643,0.58643,0.58643,0.5835,0.58252,0.58252,0.58154,0.57812,0.57812,0.57812,0.5752,0.57422,0.57422,0.57324,0.57275,0.57178,0.56885,0.56787,0.5669,0.5669,0,0,0.56397,0,0,0,0,0,0,0,0,0,0,0,0,0,0,0,0,0,0,0,0,0,0,0,0,0,0,0,0,0,0,0,0,0,0,0,0,0,0,0,0,0,0,0,0,0,0,0
0.86865,0.86865,0.86865,0.86865,0.86865,0.86865,0.86865,0.86865,0.86865,0.8706,0.8706,0.8706,0.87109,0.87109,0.87305,0.87305,0.87549,0.87549,0.87744,0.87744,0.87744,0.87744,0.87744,0.87744,0.87744,0.87744,0.87988,0.87988,0.87988,0.87988,0.87988,0.88232,0.88232,0.88477,0.88477,0.88477,0.88672,0.88672,0.88672,0.88672,0.88672,0.88672,0.88672,0.88721,0.88916,0.88916,0.88916,0.8916,0.8916,0.89648,0.89648,0.89648,0.89648,0.89648,0.89893,0.89648,0.89893,0.89893,0.89893,0.89893,0.89893,0.90137,0.90137,0.90137,0.90137,0.90137,0.90381,0.90381,0.90381,0.90625,0.90625,0.90625,0.90625,0.90625,0.90869,0.90869,0.90869,0.90869,0.91113,0.91113,0.91113,0.91113,0.91113,0.91113,0.91113,0.91357,0.91357,0.91602,0.91602,0.91602,0.91602,0.91846,0.91846,0.91846,0.91846,0.91846,0.91846,0.91846,0.91846,0.9209,0.9209,0.92334,0.92334,0.92334,0.92627,0.92627,0.92627,0.92627,0.92871,0.92871,0.92871,0.92871,0.92871,0.92871,0.93115,0.93115,0.93359,0.93359,0.93359,0.93359,0.93652,0.93652,0.93652,0.93652,0.93652,0.93897,0.93897,0,1.0176,1.0176,1.0176,1.0176,1.0176,1.0146,1.0176,1.0176,1.0146,1.0146,1.0146,1.0117,1.0146,1.0117,1.0117,1.0146,1.0117,1.0117,1.0117,1.0117,1.0117,1.0117,1.0117,1.0117,1.0117,1.0088,1.0088,1.0088,1.0088,1.0088,1.0088,1.0088,1.0088,1.0088,1.0088,1.0117,1.0117,1.0088,1.0088,1.0088,1.0088,1.0088,1.0059,1.0059,1.0029,1.0029,1.0029,1.0059,1.0059,1.0059,1.0059,1.0088,1.0088,1.0088,1.0059,1.0059,1.0029,1.0029,1.0029,1.0029,1.0029,1.0029,1.0029,1.0029,1.0029,1.0029,1.0059,1.0059,1.0059,1.0029,0,0,0,0,0,0,0,0,0,0,0,0.70361,0.70361,0.70361,0.70215,0.70215,0.70068,0.70068,0.69922,0.69775,0.69775,0.69775,0.69629,0,0,0,0,0,0,0,0,0,0.64746,0.64502,0.64355,0.64258,0.64014,0.64014,0.63867,0.6377,0.63623,0.63623,0.63525,0.63525,0.63428,0.63428,0.63281,0.63281,0.63428,0.63281,0.63281,0.63281,0.63281,0.63281,0.63184,0.63184,0.63037,0.6294,0.62842,0.62842,0.62695,0.62695,0.62695,0.625,0.62598,0.62353,0.62256,0.62158,0.62256,0.62158,0.62158,0.62158,0.62158,0,0,0,0,0.72949,0.72949,0.73096,0.73096,0.73438,0.7373,0.74072,0.74219,0.74072,0.74219,0.74219,0.76074,0.76562,0.76562,0.76758,0.76758,0.76758,0.771,0.77295,0.77441,0.77637,0.77637,0.77832,0.68262,0.68262,0.68262,0.68115,0.68018,0.67871,0.67578,0.67578,0.6748,0.67334,0.67188,0.67041,0.66797,0.66553,0.6626,0.66162,0.66016,0.65869,0.65772,0.65772,0.65625,0.65527,0.65137,0.6499,0.64893,0.64746,0.64502,0.64502,0.64258,0.6416,0.6377,0.6377,0.63672,0.63672,0.63574,0.63428,0.6333,0.62842,0.62744,0.62744,0.62598,0.625,0.62402,0.62158,0.61914,0.61816,0.61816,0.61816,0.61621,0.61621,0.61475,0.61279,0.61133,0.6084,0.60938,0.60742,0.60498,0.604,0.60205,0.60059,0.59863,0.59863,0.59863,0.59766,0.59668,0.59668,0.5957,0.59473,0.59326,0.59131,0.59033,0.58935,0.58935,0.58838,0.5874,0.58643,0.58545,0.5835,0.58252,0.58154,0.58154,0.57959,0.57812,0.57812,0.57617,0.5752,0.57471,0.57373,0.57373,0.57178,0.5708,0.56885,0.56787,0.5669,0.56592,0.56592,0.56494,0,0,0,0,0,0,0,0,0,0,0,0,0,0,0,0,0,0,0,0,0,0,0,0,0,0,0,0,0,0,0,0,0,0,0,0,0,0,0,0,0,0,0,0,0,0,0
0.86865,0.86865,0.86865,0.86865,0.86865,0.86865,0.86865,0.87109,0.87109,0.87109,0.87109,0.87109,0.87305,0.87305,0.87305,0.87305,0.87549,0.87744,0.87793,0.87793,0.87793,0.87793,0.87793,0.87793,0.87793,0.87988,0.87988,0.87988,0.87988,0.87988,0.88232,0.88232,0.88477,0.88477,0.88672,0.88721,0.88721,0.88721,0.88721,0.88721,0.88721,0.88916,0.88721,0.88916,0.88916,0.88916,0.88916,0.8916,0.8916,0.89648,0.89648,0.89648,0.89648,0.89648,0.89893,0.89893,0.89893,0.89893,0.89893,0.89893,0.89893,0.90137,0.90137,0.90137,0.90137,0.90381,0.90381,0.90625,0.90625,0.90625,0.90625,0.90625,0.90869,0.90869,0.90869,0.90869,0.90869,0.91113,0.91113,0.91113,0.91113,0.91357,0.91357,0.91357,0.91602,0.91602,0.91602,0.91602,0.91602,0.91602,0.91602,0.91602,0.91602,0.91602,0.91846,0.91846,0.91846,0.91846,0.9209,0.9209,0.92334,0.92334,0.92334,0.92627,0.92627,0.92627,0.92627,0.92627,0.92871,0.92871,0.92871,0.92871,0.92871,0.92871,0.93359,0.93359,0.93359,0.93359,0.93359,0.93652,0.93897,0.93652,0.93652,0.93897,0.93897,0.93897,0.94141,0,1.0146,1.0146,1.0146,1.0146,1.0146,1.0117,1.0117,1.0117,1.0117,1.0117,1.0117,1.0088,1.0088,1.0088,1.0088,1.0088,1.0088,1.0088,1.0088,1.0088,1.0088,1.0088,1.0088,1.0088,1.0088,1.0088,1.0059,1.0059,1.0059,1.0059,1.0059,1.0059,1.0059,1.0059,1.0059,1.0029,1.0029,1.0029,1.0029,1.0029,1,1,1.0029,1.0029,1,1,1,1.0029,1.0029,1.0029,1.0029,1.0059,1.0059,1.0029,1.0029,1.0029,1.0029,1.0029,1,1,1,1,1,0.99756,1,1.0029,1.0029,1.0029,1.0029,0,0,0,0,0,0,0,0,0,0,0,0,0.70361,0.70361,0.70361,0.70361,0.70215,0.70215,0.70068,0.69922,0.69775,0.69629,0.69922,0,0,0,0,0,0,0,0,0.6499,0.64746,0.646,0.64502,0.64355,0.64258,0.64014,0.64014,0.63867,0.6377,0.63623,0.63525,0.63525,0.63428,0.63428,0.63281,0.63184,0.63184,0.63037,0.63037,0.6294,0.62842,0.62842,0.62695,0.62842,0.62842,0.62842,0.62695,0.62695,0.62695,0.62598,0.62598,0.625,0.62353,0.625,0.62353,0.62256,0.62158,0.62158,0.62158,0.62158,0.62158,0.62158,0.61914,0.62158,0.61914,0.6167,0.62158,0.62158,0,0,0,0,0.73926,0.74219,0.74219,0.74414,0.74414,0.76221,0.76562,0.76562,0.76758,0.76758,0.76758,0.771,0.77295,0.77441,0.77637,0.77832,0.77832,0.77832,0.77978,0.68115,0.68115,0.67871,0.67871,0.67578,0.67578,0.6748,0.67334,0.67334,0.67188,0.67041,0.6665,0.66406,0.6626,0.66162,0.66016,0.65869,0.65772,0.65772,0.65625,0.65527,0.65137,0.64893,0.64746,0.64648,0.64502,0.64258,0.64258,0.63916,0.6377,0.63672,0.63672,0.63574,0.63428,0.6333,0.63184,0.62842,0.62744,0.62744,0.62598,0.625,0.62256,0.6206,0.61914,0.61816,0.61816,0.61719,0.61621,0.61475,0.61377,0.61035,0.60938,0.60938,0.6084,0.60596,0.60498,0.604,0.60205,0.59961,0.59961,0.59863,0.59766,0.59668,0.59668,0.5957,0.59473,0.59228,0.59131,0.59033,0.59033,0.58935,0.58838,0.5874,0.58643,0.58545,0.58447,0.58252,0.58154,0.58057,0.58057,0.57861,0.57861,0.57666,0.57568,0.57471,0.57373,0.57373,0.57275,0.5708,0.56885,0.56787,0.56885,0.5669,0.5669,0.56397,0,0,0,0,0,0,0,0,0,0,0,0,0,0,0,0,0,0,0,0,0,0,0,0,0,0,0,0,0,0,0,0,0,0,0,0,0,0,0,0,0,0,0,0,0,0,0
0.86865,0.86865,0.86865,0.86865,0.86865,0.86865,0.87109,0.87109,0.87109,0.87109,0.87109,0.87109,0.87305,0.87305,0.87305,0.87549,0.87549,0.87793,0.87793,0.87793,0.87793,0.87793,0.87793,0.87793,0.87988,0.87988,0.87988,0.87988,0.87988,0.87988,0.87988,0.88232,0.88232,0.88477,0.88721,0.88721,0.88721,0.88721,0.88721,0.88721,0.88721,0.88916,0.88916,0.88916,0.88916,0.88916,0.88916,0.8916,0.8916,0.89648,0.89648,0.89648,0.89648,0.89648,0.89893,0.89893,0.89893,0.89893,0.89893,0.89893,0.90137,0.90137,0.90137,0.90137,0.90137,0.90381,0.90625,0.90625,0.90625,0.90625,0.90625,0.90869,0.90869,0.90869,0.90869,0.90869,0.90869,0.91113,0.91113,0.91113,0.91357,0.91357,0.91357,0.91602,0.91602,0.91846,0.91846,0.91846,0.91846,0.91846,0.91846,0.91846,0.91846,0.91846,0.91846,0.91846,0.91846,0.9209,0.9209,0.9209,0.92334,0.92627,0.92627,0.92627,0.92627,0.92627,0.92871,0.92871,0.92871,0.92871,0.92871,0.92871,0.92871,0.92871,0.93359,0.93359,0.93359,0.93359,0.93408,0.93652,0.93652,0.93652,0.93897,0.93897,0.93652,0.93897,0.9419,0,1.0117,1.0117,1.0146,1.0146,1.0117,1.0088,1.0088,1.0088,1.0088,1.0088,1.0088,1.0088,1.0088,1.0088,1.0088,1.0088,1.0088,1.0059,1.0059,1.0059,1.0059,1.0059,1.0029,1.0029,1.0029,1.0029,1.0029,1.0029,1.0029,1.0029,1.0029,1.0029,1.0029,1.0029,1.0029,1,1,1,1,1,1,1,1,1,0.99756,0.99756,0.99756,0.99756,1,1,1,1.0029,1.0029,1,1,1,1,1,1,0.99756,1,1,0.99756,0.99756,1,1.0029,1.0029,1.0029,1.0029,0,0,0,0,0,0,0,0,0,0,0,0.70361,0.70361,0.70361,0.70361,0.70361,0.70215,0.70215,0.70068,0.69922,0.69775,0.70215,0.70215,0,0,0,0,0,0,0,0,0.6499,0.64746,0.646,0.64502,0.64355,0.64258,0.64014,0.63867,0.63867,0.6377,0.63672,0.63525,0.63525,0.63428,0.63428,0.63281,0.63184,0.63184,0.63037,0.6294,0.62842,0.62842,0.62695,0.62598,0.62598,0.62598,0.62598,0.62598,0.62353,0.62598,0.625,0.625,0.625,0.62353,0.62353,0.62256,0.62256,0.62158,0.62158,0.62158,0.62158,0.62158,0.62158,0.62012,0.62012,0.61816,0.6167,0.6167,0.6167,0.61572,0.61719,0.61572,0.61572,0.61475,0,0,0,0,0.76416,0.76611,0.76758,0.76758,0.76758,0.76758,0.76953,0.771,0.77441,0.77637,0.77637,0.77832,0.77832,0.77978,0.77978,0.77832,0.77832,0.67871,0.67725,0.6748,0.6748,0.6748,0.67334,0.67188,0.6709,0.66797,0.6665,0.66406,0.6626,0.66016,0.65918,0.65918,0.65772,0.65625,0.65527,0.65283,0.65137,0.64893,0.64648,0.64648,0.64404,0.64258,0.63916,0.63916,0.63818,0.63672,0.63574,0.63428,0.6333,0.63184,0.62842,0.62842,0.62744,0.62647,0.625,0.62402,0.62158,0.61963,0.61963,0.61963,0.61816,0.61719,0.61621,0.61475,0.61035,0.60938,0.60938,0.60938,0.60742,0.60596,0.60498,0.60303,0.60107,0.60107,0.59961,0.59863,0.59766,0.59766,0.59668,0.59473,0.59473,0.59228,0.59131,0.59033,0.58935,0.58935,0.58838,0.58838,0.5874,0.58545,0.58252,0.58154,0.58057,0.58057,0.57861,0.57764,0.57666,0.57568,0.57471,0.57373,0.57275,0.57178,0.5708,0.56982,0.56982,0.56982,0.56787,0.5669,0.56494,0,0,0,0,0,0,0,0,0,0,0,0,0,0,0,0,0,0,0,0,0,0,0,0,0,0,0,0,0,0,0,0,0,0,0,0,0,0,0,0,0,0,0,0,0,0,0
0.86865,0.86865,0.86865,0.86865,0.86865,0.86865,0.87109,0.87109,0.87109,0.87109,0.87109,0.87109,0.87305,0.87305,0.87305,0.87549,0.87793,0.87793,0.87988,0.87988,0.87988,0.87988,0.87988,0.87988,0.87988,0.87988,0.87988,0.87988,0.87988,0.87988,0.88232,0.88232,0.88232,0.88477,0.88721,0.88721,0.88721,0.88721,0.88721,0.88721,0.88916,0.88916,0.88916,0.88916,0.88965,0.88965,0.8916,0.8916,0.89404,0.89648,0.89648,0.89648,0.89893,0.89893,0.89893,0.89893,0.89893,0.90137,0.90137,0.90137,0.90137,0.90137,0.90137,0.90137,0.90137,0.90381,0.90625,0.90625,0.90869,0.90869,0.90869,0.90869,0.90869,0.90869,0.90869,0.90869,0.90869,0.91113,0.91113,0.91113,0.91357,0.91357,0.91357,0.91602,0.91602,0.91846,0.91846,0.91846,0.91846,0.91846,0.91846,0.91846,0.91846,0.91846,0.91846,0.9209,0.9209,0.9209,0.9209,0.92383,0.92627,0.92627,0.92627,0.92627,0.92627,0.92627,0.92871,0.92871,0.92871,0.92871,0.92871,0.93115,0.93115,0.93115,0.93408,0.93408,0.93408,0.93408,0.93408,0.93652,0.93897,0.93652,0.93897,0.93897,0.93652,0.9419,0.9419,0,1.0117,1.0117,1.0117,1.0117,1.0088,1.0088,1.0088,1.0059,1.0059,1.0059,1.0059,1.0059,1.0059,1.0059,1.0059,1.0059,1.0029,1.0029,1.0029,1.0029,1.0029,1.0029,1.0029,1.0029,1,1,1,1,1,1,1,1.0029,1,1,1,0.99756,0.99756,0.99756,0.99756,0.99756,0.99756,0.99756,0.99756,0.99756,0.99756,0.99756,0.99756,0.99756,0.99463,0.99463,0.99463,0.99463,0.99463,0.99463,0.99756,0.99756,0.99756,0.99756,0.99463,0.99463,0.99463,0.99463,0.99463,0.9917,1,1.0029,1.0029,1.0029,0,0,0,0,0,0,0,0,0,0,0,0,0.70361,0.70361,0.70361,0.70361,0.70361,0.70215,0.70215,0.70068,0.70068,0.69922,0.70215,0.70215,0,0,0,0,0,0,0,0,0.64844,0.646,0.646,0.64502,0.64355,0.64258,0.64014,0.64014,0.63867,0.6377,0.63672,0.63525,0.63428,0.63428,0.63281,0.63184,0.63184,0.63086,0.6294,0.62842,0.62842,0.62695,0.62598,0.62598,0.625,0.625,0.62353,0.62353,0.62353,0.62353,0.62353,0.62256,0.62256,0.62256,0.62158,0.62012,0.62158,0.62158,0.62158,0.62158,0.62012,0.62158,0.62158,0.62012,0.61914,0.61719,0.61572,0.61572,0.61572,0.61475,0.61377,0.61475,0.61475,0.61475,0,0,0,0,0,0.7627,0.76416,0.76611,0.76611,0.76758,0.76953,0.771,0.77295,0.7749,0.77637,0.77832,0.77832,0.77832,0.77832,0.77832,0.77832,0.78027,0.67725,0.67578,0.6748,0.67334,0.67334,0.67188,0.6709,0.66943,0.66553,0.66406,0.66406,0.66309,0.66016,0.66016,0.65918,0.65772,0.65625,0.65527,0.65283,0.65039,0.64893,0.64746,0.64502,0.64404,0.64062,0.63916,0.63818,0.63818,0.63672,0.63574,0.63428,0.6333,0.62842,0.62842,0.62744,0.62744,0.62647,0.62402,0.62305,0.61963,0.6206,0.61963,0.61816,0.61816,0.61621,0.61475,0.61279,0.61035,0.61035,0.60938,0.60938,0.6084,0.60645,0.60498,0.60205,0.60107,0.59961,0.59863,0.59766,0.59863,0.59668,0.5957,0.59375,0.59375,0.59131,0.59033,0.59033,0.58935,0.58838,0.58838,0.5874,0.58545,0.5835,0.58252,0.58154,0.58057,0.57959,0.57959,0.57764,0.57666,0.57471,0.57373,0.57275,0.57178,0.57178,0.5708,0.56982,0.56982,0.56885,0.5669,0.56494,0,0,0,0,0,0,0,0,0,0,0,0,0,0,0,0,0,0,0,0,0,0,0,0,0,0,0,0,0,0,0,0,0,0,0,0,0,0,0,0,0,0,0,0,0,0,0
0.86865,0.86865,0.86865,0.86865,0.87109,0.87109,0.87109,0.87109,0.87109,0.87109,0.87109,0.87305,0.87305,0.87549,0.87549,0.87549,0.87793,0.87793,0.87988,0.87988,0.87988,0.87988,0.87988,0.87988,0.87988,0.87988,0.87988,0.87988,0.87988,0.88232,0.88232,0.88232,0.88477,0.88721,0.88721,0.88721,0.88721,0.88965,0.88965,0.88965,0.88965,0.88965,0.88965,0.88965,0.88965,0.88965,0.8916,0.8916,0.89404,0.89648,0.89648,0.89893,0.89893,0.89893,0.89893,0.90137,0.90137,0.90137,0.90137,0.90137,0.90137,0.90137,0.90137,0.90137,0.90381,0.90381,0.90625,0.90869,0.90869,0.90869,0.90869,0.90869,0.90869,0.90869,0.90869,0.90869,0.91113,0.91113,0.91113,0.91113,0.91357,0.91357,0.91602,0.91602,0.91602,0.91846,0.91846,0.91846,0.91846,0.91846,0.91846,0.91846,0.91846,0.91846,0.9209,0.9209,0.92139,0.92139,0.92139,0.92383,0.92627,0.92627,0.92627,0.92627,0.92871,0.92871,0.92871,0.92871,0.92871,0.92871,0.92871,0.93115,0.93115,0.93115,0.93408,0.93408,0.93408,0.93408,0.93652,0.93897,0.93897,0.93897,0.93897,0.93897,0.93897,0.9419,0.9419,0,1.0088,1.0088,1.0088,1.0088,1.0088,1.0059,1.0059,1.0029,1.0029,1.0029,1.0059,1.0029,1.0029,1.0029,1.0029,1.0029,1.0029,1,1,1,1,1,1,1,1,1,1,1,1,1,1,1,0.99756,0.99756,0.99756,0.99463,0.99756,0.99463,0.99463,0.99463,0.99463,0.99463,0.99756,0.99463,0.99463,0.99463,0.99463,0.99463,0.9917,0.9917,0.9917,0.9917,0.99463,0.9917,0.9917,0.9917,0.9917,0.9917,0.98877,0.98877,0.9917,0.9917,0.9917,0.9917,1,1.0029,1.0039,1.0039,0,0,0,0,0,0,0,0,0,0,0,0,0.70361,0.70361,0.70361,0.70361,0.70361,0.70215,0.70215,0.70215,0.70068,0.70215,0.70361,0,0,0,0,0,0,0,0,0.6499,0.64746,0.646,0.64502,0.64502,0.64355,0.64258,0.64014,0.64014,0.6377,0.63672,0.63525,0.63525,0.63428,0.63281,0.63281,0.63184,0.63086,0.63086,0.6294,0.62842,0.62695,0.62695,0.62598,0.62598,0.625,0.62353,0.62353,0.62353,0.62353,0.62353,0.62353,0.62256,0.62256,0.62256,0.62158,0.62012,0.62012,0.61914,0.61914,0.61816,0.61816,0.61719,0.62012,0.61719,0.61572,0.61572,0.61475,0.61475,0.61475,0.61475,0.61377,0.61377,0.61377,0.61279,0,0,0,0,0,0.7627,0.7627,0.76611,0.76611,0.76758,0.76953,0.771,0.77295,0.7749,0.77637,0.77637,0.77832,0.77832,0.77832,0.77832,0.77832,0.77832,0.77832,0.78027,0.78027,0.67334,0.67334,0.67188,0.6709,0.66943,0.66553,0.66553,0.66553,0.66309,0.66162,0.66016,0.65918,0.65772,0.65772,0.65527,0.65527,0.65283,0.65283,0.65039,0.64795,0.64551,0.64307,0.64307,0.6416,0.63916,0.63818,0.63672,0.63574,0.63428,0.63086,0.62842,0.62842,0.62744,0.62647,0.625,0.62402,0.6206,0.6206,0.6206,0.61963,0.61816,0.61719,0.61475,0.61377,0.61035,0.61035,0.61035,0.60938,0.60938,0.6084,0.60645,0.604,0.60205,0.60107,0.59961,0.59961,0.59961,0.59766,0.5957,0.5957,0.59375,0.59131,0.59131,0.59033,0.58935,0.58935,0.58838,0.58838,0.58643,0.58447,0.5835,0.58252,0.58154,0.58057,0.58057,0.57764,0.57666,0.57568,0.57373,0.57373,0.57275,0.57178,0.5708,0.56982,0.56982,0.56885,0.5669,0.56592,0,0,0,0,0,0,0,0,0,0,0,0,0,0,0,0,0,0,0,0,0,0,0,0,0,0,0,0,0,0,0,0,0,0,0,0,0,0,0,0,0,0,0,0,0,0,0
0.86865,0.86865,0.87109,0.87109,0.87109,0.87109,0.87109,0.87109,0.87109,0.87109,0.87109,0.87305,0.87549,0.87549,0.87793,0.87793,0.87793,0.87793,0.87988,0.87988,0.87988,0.87988,0.88037,0.88037,0.88037,0.88037,0.88037,0.88232,0.88232,0.88232,0.88232,0.88477,0.88477,0.88721,0.88721,0.88721,0.88721,0.88965,0.88965,0.88965,0.88965,0.88965,0.88965,0.88965,0.8916,0.8916,0.8916,0.8916,0.89404,0.89648,0.89893,0.89893,0.89893,0.89893,0.90137,0.90137,0.90137,0.90137,0.90137,0.90137,0.90137,0.90137,0.90137,0.90137,0.90381,0.90625,0.90869,0.90869,0.90869,0.90869,0.90869,0.90869,0.90869,0.90869,0.90869,0.90869,0.91113,0.91113,0.91113,0.91113,0.91357,0.91357,0.91602,0.91602,0.91602,0.91846,0.91846,0.91846,0.91846,0.91846,0.91846,0.91846,0.91846,0.91846,0.91846,0.92139,0.92139,0.92139,0.92139,0.92383,0.92627,0.92627,0.92627,0.92627,0.92871,0.92871,0.92871,0.92871,0.92871,0.92871,0.92871,0.93115,0.93115,0.93164,0.93408,0.93408,0.93652,0.93652,0.93652,0.93897,0.93897,0.9419,0.93897,0.93897,0.93897,0.9419,0.9419,0,1.0088,1.0059,1.0059,1.0059,1.0029,1.0029,1.0029,1,1,1,1.0029,1,1,1,1,1,1,0.99756,0.99756,0.99756,0.99756,0.99756,0.99756,0.99756,0.99756,0.99756,0.99756,0.99756,0.99756,0.99756,0.99756,0.99756,0.99756,0.99463,0.9917,0.99463,0.99463,0.99463,0.9917,0.9917,0.9917,0.99463,0.99463,0.99463,0.9917,0.9917,0.9917,0.9917,0.98877,0.98877,0.98877,0.9917,0.9917,0.98877,0.9917,0.9917,0.98877,0.98877,0.98877,0.98877,0.98584,0.98584,0.98584,0.98584,1.0039,1.0039,1.0039,0,0,0,0,0,0,0,0,0,0,0,0.70801,0.70801,0.70508,0.70361,0.70361,0.70361,0.70215,0.70215,0.70068,0.70068,0.70215,0.70215,0.70215,0,0,0,0,0,0,0,0,0,0.646,0.64502,0.64502,0.64502,0.64355,0.64258,0.64014,0.64014,0.63916,0.6377,0.63672,0.63525,0.63428,0.63281,0.63281,0.63184,0.63086,0.6294,0.62842,0.62842,0.62695,0.62598,0.62598,0.625,0.625,0.62353,0.62353,0.62353,0.62256,0.62256,0.62256,0.62256,0.62158,0.62158,0.6206,0.61914,0.61914,0.61816,0.61816,0.61719,0.61572,0.61475,0.61475,0.61475,0.61377,0.61475,0.61377,0.61377,0.61377,0.61377,0.61377,0.61377,0.61279,0.61279,0.61279,0.61279,0,0,0,0,0,0.76611,0.76758,0.76758,0.76953,0.771,0.771,0.7749,0.7749,0.7749,0.77637,0.77637,0.77832,0.77832,0.77637,0.77637,0.77637,0.78027,0.78027,0.77832,0.67334,0.67188,0.6709,0.66797,0.66699,0.66553,0.66553,0.66309,0.66162,0.66016,0.65918,0.65772,0.65772,0.65674,0.65527,0.65381,0.65283,0.65137,0.64795,0.64648,0.64551,0.64307,0.64307,0.6416,0.64062,0.63818,0.63672,0.63672,0.63428,0.63232,0.62988,0.62842,0.62744,0.62744,0.62647,0.62402,0.62305,0.6206,0.61963,0.61963,0.61719,0.61621,0.61523,0.61182,0.61182,0.61084,0.61084,0.60938,0.6084,0.60742,0.60645,0.60205,0.60107,0.60107,0.60107,0.60107,0.59863,0.59766,0.59766,0.59473,0.59375,0.59277,0.59131,0.59033,0.58935,0.58935,0.58935,0.5874,0.58545,0.5835,0.58252,0.58154,0.58154,0.58057,0.57861,0.57764,0.57666,0.57471,0.57373,0.57275,0.57275,0.5708,0.5708,0.56982,0.56885,0.56787,0.5669,0,0,0,0,0,0,0,0,0,0,0,0,0,0,0,0,0,0,0,0,0,0,0,0,0,0,0,0,0,0,0,0,0,0,0,0,0,0,0,0,0,0,0,0,0,0,0
0.86865,0.86865,0.87109,0.87109,0.87109,0.87109,0.87109,0.87109,0.87109,0.87109,0.87353,0.87353,0.87549,0.87793,0.87793,0.87793,0.87793,0.87793,0.87793,0.88037,0.88037,0.88037,0.88037,0.88037,0.88037,0.88037,0.88037,0.88232,0.88232,0.88232,0.88232,0.88477,0.88477,0.88721,0.88721,0.88721,0.88965,0.88965,0.88965,0.88965,0.88965,0.88965,0.88965,0.88965,0.89209,0.89209,0.89209,0.89404,0.89404,0.89893,0.89893,0.89893,0.89893,0.89893,0.90137,0.90137,0.90137,0.90137,0.90137,0.90137,0.90137,0.90137,0.90381,0.90137,0.90381,0.90625,0.90869,0.90869,0.90869,0.90869,0.90869,0.90869,0.90869,0.91113,0.91113,0.91113,0.91113,0.91113,0.91113,0.91357,0.91357,0.91357,0.91602,0.91602,0.91602,0.91846,0.91846,0.91846,0.91846,0.91846,0.91846,0.91846,0.91895,0.91895,0.92139,0.92139,0.92139,0.92139,0.92383,0.92627,0.92627,0.92627,0.92871,0.92627,0.92871,0.92871,0.92871,0.92871,0.92871,0.92871,0.92871,0.93164,0.93164,0.93164,0.93408,0.93408,0.93652,0.93652,0.93897,0.9419,0.9419,0.9419,0.9419,0.9419,0.93897,0.93897,0.9419,0.9419,0,1.0059,1.0029,1.0029,1.0029,1,1,1,1,1,1,1,1,1,0.99756,0.99756,0.99756,0.99756,0.99756,0.99463,0.99463,0.99463,0.99463,0.99756,0.99756,0.99756,0.99756,0.99756,0.99756,0.99756,0.99756,0.99463,0.99463,0.99463,0.9917,0.9917,0.9917,0.9917,0.98877,0.98877,0.98877,0.98877,0.9917,0.9917,0.98877,0.98877,0.98877,0.98877,0.98877,0.98584,0.98584,0.98877,0.98877,0.98877,0.98877,0.98877,0.98584,0.98584,0.98584,0.98584,0.98291,0.98291,0.98291,0.98291,0.98291,1.001,0,0,0,0,0,0,0,0,0,0,0,0.70947,0.70801,0.70801,0.70654,0.70361,0.70361,0.70361,0.70361,0.70215,0.70215,0.70068,0.70215,0,0,0.77441,0.77441,0.77441,0,0,0,0,0,0,0.64502,0.64502,0.64502,0.64404,0.64404,0.64258,0.64014,0.64014,0.63916,0.6377,0.63672,0.63525,0.63525,0.63281,0.63281,0.63086,0.63086,0.6294,0.62842,0.62744,0.62744,0.62598,0.625,0.62353,0.62353,0.62256,0.62256,0.62256,0.62256,0.62158,0.62158,0.62158,0.62158,0.6206,0.61914,0.61816,0.61816,0.61719,0.61719,0.61572,0.61475,0.61475,0.61475,0.61377,0.61377,0.61377,0.61377,0.61377,0.61377,0.61279,0.61279,0.61279,0.61279,0.61279,0.61279,0.61133,0.61133,0,0,0,0,0,0.76611,0.76758,0.76758,0.76758,0.77148,0.77295,0.7749,0.7749,0.77637,0.77637,0.77637,0.77637,0.77637,0.77637,0.77637,0.78027,0.77832,0.77832,0.77832,0.7749,0.7749,0,0.66553,0.66406,0.66406,0.66406,0.66309,0.66162,0.66162,0.65918,0.65772,0.65674,0.65527,0.65381,0.65283,0.65039,0.64893,0.64648,0.64648,0.64404,0.64307,0.64307,0.6416,0.64062,0.63818,0.63672,0.6333,0.63232,0.63086,0.63086,0.62988,0.62891,0.62647,0.625,0.62402,0.62305,0.62158,0.6206,0.61963,0.61719,0.61621,0.61523,0.61279,0.61182,0.61084,0.61084,0.60938,0.6084,0.60742,0.60303,0.60205,0.60205,0.60107,0.60205,0.6001,0.59863,0.59863,0.5957,0.59473,0.59375,0.59277,0.5918,0.59033,0.58935,0.58935,0.58838,0.58643,0.58545,0.5835,0.58252,0.58154,0.58057,0.57959,0.57861,0.57764,0.57666,0.57471,0.57373,0.57373,0.57178,0.5708,0.5708,0.56982,0.56787,0.5669,0,0,0,0,0,0,0,0,0,0,0,0,0,0,0,0,0,0,0,0,0,0,0,0,0,0,0,0,0,0,0,0,0,0,0,0,0,0,0,0,0,0,0,0,0,0,0
0.86865,0.86865,0.87109,0.87109,0.87109,0.87109,0.87109,0.87109,0.87109,0.87353,0.87353,0.87549,0.87549,0.87793,0.87793,0.87793,0.87793,0.87793,0.87793,0.87793,0.88037,0.88037,0.88037,0.88037,0.88037,0.88037,0.88037,0.88232,0.88232,0.88232,0.88477,0.88477,0.88477,0.88721,0.88721,0.88721,0.88965,0.88965,0.88965,0.88965,0.88965,0.88965,0.88965,0.89209,0.89209,0.89209,0.89209,0.89404,0.89648,0.89893,0.89893,0.89893,0.89893,0.89893,0.90137,0.90137,0.90137,0.90137,0.90137,0.90137,0.90137,0.90381,0.90381,0.90381,0.90625,0.90625,0.90869,0.90869,0.90869,0.90869,0.90869,0.90869,0.91113,0.91113,0.91113,0.91113,0.91113,0.91113,0.91113,0.91357,0.91357,0.91602,0.91602,0.91602,0.91602,0.91846,0.91895,0.91895,0.91895,0.91895,0.91895,0.91895,0.91895,0.91895,0.92139,0.92139,0.92139,0.92139,0.92383,0.92627,0.92627,0.92627,0.92627,0.92871,0.92871,0.92871,0.92871,0.92871,0.92871,0.92871,0.93164,0.93164,0.93164,0.93164,0.93652,0.93652,0.93652,0.93945,0.93945,0.93945,0.9419,0.9419,0.93945,0.93945,0.93945,0.93945,0.93945,0.9419,0.9419,1.0029,1,1,1,1,1,0.99756,1,1,1,1,0.99756,0.99756,0.99756,0.99463,0.99463,0.99463,0.99463,0.99463,0.9917,0.99463,0.99463,0.99463,0.99463,0.99463,0.99463,0.99463,0.99463,0.99463,0.9917,0.98877,0.98877,0.98877,0.98877,0.98877,0.98877,0.98877,0.98877,0.98877,0.98584,0.98584,0.98877,0.98877,0.98584,0.98584,0.98584,0.98584,0.98584,0.98291,0.98291,0.98584,0.98584,0.98584,0.98584,0.98584,0.98584,0.98291,0.98584,0.9834,0.9834,0.9834,0.9834,0.98047,0.9834,0,0,0,0,0,0,0,0,0,0,0.75049,0,0.70947,0.70801,0.70801,0.70654,0.70508,0.70361,0.70361,0.70361,0.70361,0.70215,0.70068,0.70215,0,0,0.77441,0.77441,0.77441,0.77637,0,0,0,0,0,0.64502,0.64502,0.64502,0.64404,0.64404,0.64258,0.64014,0.64014,0.64014,0.63916,0.6377,0.63672,0.63525,0.6333,0.63184,0.63086,0.63086,0.6294,0.62842,0.62744,0.62744,0.62598,0.625,0.62402,0.62402,0.62256,0.62256,0.62256,0.62158,0.62158,0.62158,0.62158,0.6206,0.61914,0.61816,0.61816,0.61719,0.61719,0.61572,0.61475,0.61475,0.61377,0.61377,0.61377,0.61377,0.61377,0.61377,0.61279,0.61279,0.61279,0.61279,0.61279,0.61133,0.61133,0.61133,0.61035,0.61035,0.60938,0.60938,0.60938,0,0,0,0,0,0.76758,0.76758,0.76953,0.7749,0.7749,0.77637,0.7749,0.77637,0.77685,0.77685,0.7749,0.7749,0.77685,0.77685,0.77685,0.7749,0.77295,0.77295,0.7749,0.7749,0.66553,0.66406,0.66406,0.66309,0.66162,0.66016,0.65918,0.65772,0.65674,0.65527,0.6543,0.65283,0.65137,0.64893,0.64795,0.64648,0.64404,0.64307,0.64307,0.6416,0.6416,0.64062,0.63916,0.6333,0.63232,0.63232,0.63086,0.62988,0.62891,0.62744,0.62647,0.62402,0.62305,0.62305,0.6206,0.61963,0.61865,0.61719,0.61621,0.61279,0.61182,0.61182,0.61084,0.60938,0.60938,0.6084,0.60742,0.604,0.60303,0.60205,0.60205,0.60107,0.6001,0.59863,0.59668,0.5957,0.59473,0.59277,0.5918,0.59033,0.59033,0.58935,0.58838,0.5874,0.58545,0.58447,0.58252,0.58252,0.58154,0.57959,0.57861,0.57764,0.57666,0.57568,0.57471,0.57373,0.57275,0.57178,0.5708,0.56982,0.56885,0.56787,0,0,0,0,0,0,0,0,0,0,0,0,0,0,0,0,0,0,0,0,0,0,0,0,0,0,0,0,0,0,0,0,0,0,0,0,0,0,0,0,0,0,0,0,0,0,0
0.86865,0.87109,0.87109,0.87109,0.87109,0.87109,0.87109,0.87109,0.87353,0.87353,0.87353,0.87549,0.87549,0.87793,0.87793,0.87793,0.87793,0.87793,0.87793,0.87793,0.88037,0.88037,0.88037,0.88037,0.88037,0.88281,0.88281,0.88281,0.88281,0.88477,0.88477,0.88477,0.88477,0.88721,0.88965,0.88965,0.88965,0.88965,0.88965,0.88965,0.88965,0.88965,0.88965,0.89209,0.89209,0.89209,0.89453,0.89648,0.89648,0.89893,0.89893,0.89893,0.89893,0.90137,0.90137,0.90137,0.90137,0.90137,0.90137,0.90381,0.90381,0.90381,0.90381,0.90625,0.90625,0.90869,0.90869,0.90869,0.90869,0.90869,0.90869,0.90869,0.91113,0.91113,0.91113,0.91113,0.91113,0.91113,0.91113,0.91357,0.91357,0.91602,0.91602,0.91895,0.91602,0.91895,0.91895,0.91895,0.91895,0.91895,0.91895,0.91895,0.91895,0.92139,0.92139,0.92139,0.92383,0.92383,0.92627,0.92627,0.92871,0.92871,0.92871,0.92871,0.92871,0.92871,0.92871,0.92871,0.92871,0.93164,0.93164,0.93164,0.93164,0.93164,0.93408,0.93408,0.93652,0.93945,0.93945,0.93945,0.9419,0.9419,0.93945,0.93945,0.9419,0.93945,0.9419,0.9419,0.9419,1,1,1,1,1,0.99756,0.99756,1,0.99756,1,1,0.99756,0.99756,0.99756,0.99463,0.99463,0.99463,0.9917,0.9917,0.9917,0.9917,0.9917,0.9917,0.9917,0.9917,0.9917,0.9917,0.9917,0.98877,0.98877,0.98877,0.98877,0.98877,0.98877,0.98584,0.98877,0.98584,0.98584,0.98584,0.98291,0.98291,0.98291,0.98291,0.98291,0.98291,0.98291,0.98291,0.98291,0.98291,0.98047,0.9834,0.9834,0.9834,0.9834,0.9834,0.9834,0.9834,0.98047,0.98047,0.98047,0.98047,0.98047,0.98047,0.98047,0,0,0,0,0,0,0,0,0,0,0,0,0.70801,0.70801,0.70801,0.70654,0.70654,0.70361,0.70361,0.70361,0.70215,0.70117,0.70264,0,0,0.77441,0.77637,0.77637,0.77441,0.77637,0.77637,0.77637,0,0,0,0,0.64502,0.64502,0.64404,0.64404,0.64258,0.64014,0.64014,0.64014,0.63916,0.63672,0.63525,0.63525,0.6333,0.6333,0.63086,0.63086,0.6294,0.62842,0.62744,0.62744,0.62598,0.625,0.62402,0.62256,0.62256,0.62256,0.62256,0.62158,0.62158,0.62158,0.6206,0.6206,0.61914,0.61816,0.61719,0.61719,0.61572,0.61572,0.61475,0.61475,0.61377,0.61377,0.61377,0.61279,0.61377,0.61279,0.61279,0.61279,0.61279,0.61133,0.61133,0.61182,0.61182,0.61035,0.61035,0.60938,0.60938,0.60938,0.61035,0.61182,0.61182,0.61182,0,0,0,0,0,0.7749,0.7749,0.7749,0.7749,0.7749,0.7749,0.7749,0.7749,0.7749,0.7749,0.7749,0.77295,0.77295,0.77148,0.77148,0.77148,0.77148,0.76953,0.66699,0.66309,0.66309,0.66162,0.65918,0.65772,0.65772,0.65674,0.65527,0.6543,0.65283,0.65137,0.65039,0.64795,0.64648,0.64404,0.64404,0.64307,0.6416,0.6416,0.64062,0.63916,0.63672,0.6333,0.63232,0.63232,0.63086,0.62988,0.62891,0.62647,0.62549,0.62402,0.62305,0.62207,0.6206,0.61963,0.61865,0.61719,0.61377,0.61279,0.61182,0.61084,0.61084,0.60938,0.6084,0.60742,0.60547,0.604,0.60303,0.60303,0.60205,0.60107,0.6001,0.59912,0.59668,0.5957,0.59473,0.59277,0.59277,0.5918,0.59082,0.58838,0.5874,0.58643,0.58545,0.58447,0.5835,0.58252,0.58057,0.57959,0.57861,0.57764,0.57666,0.57568,0.57471,0.57275,0.57178,0.57178,0.5708,0.56982,0.56885,0,0,0,0,0,0,0,0,0,0,0,0,0,0,0,0,0,0,0,0,0,0,0,0,0,0,0,0,0,0,0,0,0,0,0,0,0,0,0,0,0,0,0,0,0,0,0
0.86914,0.87109,0.87109,0.87109,0.87109,0.87109,0.87109,0.87109,0.87353,0.87353,0.87353,0.87549,0.87793,0.87793,0.87793,0.87793,0.87793,0.87793,0.87793,0.88037,0.88037,0.88037,0.88037,0.88037,0.88037,0.88281,0.88281,0.88281,0.88281,0.88477,0.88477,0.88477,0.88477,0.88721,0.88965,0.88965,0.88965,0.88965,0.88965,0.88965,0.88965,0.88965,0.89209,0.89209,0.89209,0.89453,0.89453,0.89648,0.89648,0.89893,0.89893,0.90137,0.90137,0.90137,0.90137,0.90137,0.90137,0.90137,0.90137,0.90381,0.90381,0.90381,0.90381,0.90625,0.90625,0.90869,0.90869,0.90869,0.90869,0.90869,0.91113,0.91113,0.91113,0.91113,0.91113,0.91113,0.91113,0.91113,0.91357,0.91357,0.9165,0.9165,0.9165,0.9165,0.9165,0.91895,0.91895,0.91895,0.91895,0.91895,0.91895,0.91895,0.92139,0.92139,0.92139,0.92383,0.92383,0.92383,0.92627,0.92627,0.92871,0.92871,0.92871,0.92871,0.92871,0.92871,0.9292,0.9292,0.93164,0.93164,0.93164,0.93164,0.93164,0.93164,0.93408,0.93408,0.93652,0.93652,0.93945,0.93945,0.93945,0.9419,0.93945,0.9419,0.9419,0.93652,0.93408,0.93408,0,0.99756,0.99756,0.99756,1,1,1,1,0.93945,0.93408,0.93408,0.93408,0.99756,0.99463,0.99463,0.9917,0.9917,0.9917,0.9917,0.9917,0.98877,0.98877,0.98877,0.98877,0.9917,0.98877,0.98877,0.98877,0.98877,0.98877,0.98584,0.98584,0.98584,0.98584,0.98584,0.98584,0.98584,0.98584,0.98291,0.98291,0.98047,0.98047,0.98047,0.98047,0.98047,0.98047,0.98047,0.98047,0.98047,0.98047,0.97754,0.98047,0.98047,0.98047,0.98047,0.98047,0.98047,0.98047,0.98047,0.98047,0.98047,0.98047,0.98047,0.97754,0.98047,0,0,0,0,0,0,0,0,0,0,0.74707,0.70996,0.70996,0.7085,0.7085,0.70703,0.70703,0.70557,0.7041,0.7041,0.7041,0.70264,0,0,0.77441,0.77441,0.77637,0.77441,0.77441,0.77441,0.77637,0.77441,0.77441,0,0,0,0,0.64404,0.64404,0.64404,0.6416,0.64014,0.64014,0.64014,0.63916,0.63672,0.63672,0.63525,0.6333,0.6333,0.63184,0.63086,0.63086,0.62842,0.62744,0.62744,0.62598,0.625,0.62402,0.62256,0.62256,0.62256,0.62158,0.62158,0.62158,0.62158,0.62158,0.6206,0.61914,0.61816,0.61719,0.61719,0.61621,0.61621,0.61475,0.61475,0.61377,0.61377,0.61377,0.61377,0.61279,0.61279,0.61279,0.61279,0.61182,0.61182,0.61035,0.61035,0.61035,0.61035,0.61035,0.60938,0.60938,0.61035,0.61035,0.61182,0.61182,0.61279,0.61816,0,0,0,0,0.77685,0.77685,0.77685,0.7749,0.7749,0.7749,0.7749,0.77295,0.77295,0.77295,0.77295,0.77295,0.77148,0.77148,0.76953,0.76953,0.76953,0.76953,0.66162,0.66162,0.66065,0.66065,0.65772,0.65772,0.65674,0.65674,0.65527,0.65527,0.65283,0.65137,0.65039,0.64893,0.64795,0.64551,0.64404,0.64307,0.6416,0.6416,0.64062,0.64062,0.63818,0.63477,0.6333,0.63232,0.63232,0.63086,0.62891,0.62744,0.62647,0.62402,0.62402,0.62207,0.6206,0.61963,0.61865,0.61719,0.61426,0.61426,0.61279,0.61182,0.61084,0.60986,0.60986,0.60742,0.60547,0.604,0.60303,0.60303,0.60205,0.60107,0.60107,0.59912,0.59766,0.5957,0.59473,0.59375,0.59277,0.5918,0.59082,0.58838,0.5874,0.58643,0.58643,0.58545,0.58545,0.58447,0.58154,0.58057,0.57959,0.57861,0.57764,0.57666,0.57471,0.57373,0.57275,0.57178,0.5708,0.56982,0.56885,0,0,0,0,0,0,0,0,0,0,0,0,0,0,0,0,0,0,0,0,0,0,0,0,0,0,0,0,0,0,0,0,0,0,0,0,0,0,0,0,0,0,0,0,0,0,0
0.86914,0.87109,0.87109,0.87109,0.87109,0.87109,0.87109,0.87109,0.87353,0.87549,0.87353,0.87598,0.87793,0.87793,0.87793,0.87793,0.87793,0.87793,0.87793,0.88037,0.88037,0.88037,0.88037,0.88037,0.88037,0.88037,0.88037,0.88281,0.88281,0.88281,0.88477,0.88477,0.88721,0.88721,0.88965,0.88965,0.88965,0.88965,0.88965,0.88965,0.88965,0.88965,0.89209,0.89209,0.89453,0.89453,0.89453,0.89697,0.89697,0.89893,0.89893,0.89893,0.90137,0.90137,0.90137,0.90137,0.90137,0.90137,0.90137,0.90381,0.90381,0.90625,0.90625,0.90625,0.90869,0.90869,0.90869,0.90869,0.90869,0.91113,0.91113,0.91113,0.91113,0.91113,0.91357,0.91113,0.91113,0.91357,0.91406,0.9165,0.9165,0.9165,0.9165,0.91895,0.91895,0.91895,0.91895,0.91895,0.91895,0.91895,0.92139,0.92139,0.92139,0.92139,0.92139,0.92383,0.92627,0.92627,0.92627,0.92627,0.9292,0.9292,0.9292,0.9292,0.9292,0.9292,0.9292,0.9292,0.93164,0.93164,0.93164,0.93164,0.93164,0.93164,0.93408,0.93652,0.93652,0.93945,0.93945,0.93945,0.93945,0.93945,0.93945,0.93945,0.93945,0.93701,0.93408,0.93408,0.93408,0.93408,0.93408,0.93164,0.93164,0.93164,0.93408,0.93701,0.93408,0.93408,0.93408,0.93408,0.93408,0.99463,0.9917,0.9917,0.9917,0.9917,0.98877,0.98877,0.98877,0.98877,0.98584,0.98584,0.98584,0.98584,0.98584,0.98291,0.98291,0.98291,0.98291,0.98584,0.98584,0.98584,0.98291,0.98291,0.9834,0.9834,0.9834,0.98047,0.98047,0.97754,0.98047,0.98047,0.97754,0.97754,0.97754,0.97754,0.97754,0.97754,0.97461,0.97754,0.97754,0.97754,0.97754,0.97754,0.97754,0.98047,0.98047,0.97754,0.97754,0.97754,0.97754,0.97754,0,0,0,0,0,0,0,0,0,0,0,0.74707,0.70996,0.70996,0.7085,0.7085,0.7085,0.70703,0.70557,0.7041,0.7041,0.70264,0.70264,0,0,0.77441,0.77441,0.77637,0.77441,0.77637,0.77637,0.77637,0.77441,0.77441,0.77637,0,0,0,0,0,0.64404,0.64258,0.64014,0.64014,0.64014,0.6377,0.63672,0.63672,0.63574,0.6333,0.6333,0.63184,0.63086,0.63086,0.62988,0.62842,0.62744,0.62598,0.62598,0.62402,0.62402,0.62256,0.62256,0.62158,0.62158,0.62158,0.62158,0.6206,0.6206,0.61914,0.61816,0.61816,0.61719,0.61719,0.61621,0.61475,0.61475,0.61377,0.61377,0.61377,0.61279,0.61279,0.61279,0.61279,0.61279,0.61182,0.61035,0.61035,0.61035,0.60938,0.60938,0.60938,0.60938,0.61035,0.61182,0.61182,0.61279,0.61279,0.61377,0.61621,0.61621,0.61621,0.61719,0,0,0.7749,0.7749,0.7749,0.77295,0.77295,0.77295,0.77148,0.77295,0.77148,0.77148,0.77148,0.76953,0.76953,0.76807,0.76807,0.76807,0.76611,0.76611,0.76465,0.7627,0.76123,0.76123,0.76123,0.65674,0.65527,0.65674,0.65527,0.6543,0.65283,0.65185,0.65039,0.64795,0.64551,0.64404,0.64307,0.64307,0.6416,0.64062,0.63965,0.63818,0.63574,0.6333,0.6333,0.63232,0.63135,0.62988,0.62891,0.62744,0.62549,0.62402,0.62305,0.62207,0.6206,0.61963,0.61865,0.61621,0.61523,0.61426,0.61182,0.61084,0.61084,0.60986,0.6084,0.60645,0.60547,0.60449,0.60449,0.60303,0.60205,0.60107,0.6001,0.59815,0.59668,0.5957,0.59375,0.59375,0.59277,0.5918,0.58984,0.58887,0.5874,0.58643,0.58545,0.58545,0.58447,0.58154,0.58057,0.57959,0.57861,0.57861,0.57764,0.57666,0.57471,0.57373,0.57275,0.57275,0.5708,0.56982,0,0,0,0,0,0,0,0,0,0,0,0,0,0,0,0,0,0,0,0,0,0,0,0,0,0,0,0,0,0,0,0,0,0,0,0,0,0,0,0,0,0,0,0,0,0,0
0.87109,0.87109,0.87109,0.87109,0.87109,0.87109,0.87109,0.87109,0.87109,0.87598,0.87353,0.87598,0.87793,0.87793,0.87793,0.87793,0.87793,0.87793,0.88037,0.88037,0.88037,0.88037,0.88037,0.88037,0.88037,0.88281,0.88281,0.88281,0.88477,0.88477,0.88525,0.88525,0.88721,0.88721,0.88965,0.88965,0.88965,0.88965,0.88965,0.89209,0.88965,0.88965,0.89209,0.89453,0.89453,0.89453,0.89453,0.89697,0.89697,0.89941,0.89941,0.89941,0.89941,0.90185,0.90185,0.90137,0.90137,0.90137,0.90137,0.90381,0.90381,0.90625,0.90625,0.90625,0.90869,0.90869,0.90869,0.90869,0.90869,0.91113,0.91113,0.91113,0.91113,0.91162,0.91406,0.91162,0.91162,0.91406,0.91406,0.9165,0.9165,0.9165,0.9165,0.91895,0.91895,0.91895,0.91895,0.91895,0.91895,0.91895,0.92139,0.92139,0.92139,0.92139,0.92139,0.92383,0.92627,0.92627,0.9292,0.9292,0.9292,0.9292,0.9292,0.9292,0.9292,0.9292,0.9292,0.9292,0.93164,0.93164,0.93164,0.93164,0.93164,0.93164,0.93408,0.93408,0.93701,0.93701,0.93701,0.93701,0.93701,0.93945,0.93701,0.93701,0.93701,0.93408,0.93408,0.93408,0.93408,0.93408,0.93408,0.93408,0.93164,0.93408,0.93408,0.93408,0.93164,0.93408,0.93408,0.93164,0.93164,0.93457,0.98877,0.98584,0.98877,0.98584,0.98584,0.98584,0.98584,0.98584,0.98584,0.98584,0.98291,0.98291,0.98047,0.98047,0.98047,0.98047,0.98047,0.9834,0.9834,0.9834,0.98047,0.98047,0.98047,0.98047,0.98047,0.97754,0.97754,0.97754,0.97754,0.97754,0.97754,0.97754,0.97461,0.97461,0.97461,0.97461,0.97461,0.97461,0.97461,0.97461,0.97461,0.97461,0.97461,0.97754,0.97754,0.97754,0.97754,0.97754,0.97754,0.97754,0,0,0,0,0,0,0,0,0,0,0.74707,0.71143,0.71143,0.70996,0.70996,0.7085,0.7085,0.70703,0.70557,0.70557,0.7041,0.7041,0.70264,0,0,0.77441,0.77637,0.77637,0.77441,0.77637,0.77637,0.77637,0.7749,0.7749,0.7749,0,0,0,0,0,0,0.64258,0,0,0.63916,0.63916,0.6377,0.63672,0.63574,0.6333,0.6333,0.63184,0.63086,0.63086,0.62988,0.62842,0.62744,0.62598,0.62598,0.625,0.62256,0.62256,0.62256,0.62158,0.62158,0.62158,0.6206,0.6206,0.6206,0.61914,0.61816,0.61816,0.61719,0.61719,0.61719,0.61621,0.61475,0.61475,0.61377,0.61377,0.61377,0.61279,0.61279,0.61279,0.61182,0.61035,0.61035,0.61035,0.60938,0.60938,0.60938,0.60938,0.60938,0.61035,0.61182,0.61182,0.61279,0.61279,0.61377,0.61523,0.61523,0.61621,0.61719,0.61719,0,0,0,0,0.77344,0.77344,0.77344,0.77148,0.77148,0.77148,0.77148,0.76953,0.76953,0.76953,0.76807,0.76611,0.76611,0.76465,0.76465,0.7627,0.7627,0.76123,0.76123,0.76123,0.75928,0.75928,0.65674,0.65674,0.6543,0.6543,0.65185,0.65039,0.64795,0.64648,0.64551,0.64404,0.64307,0.6416,0.6416,0.64062,0.63818,0.63721,0.63477,0.6333,0.6333,0.63232,0.63135,0.62988,0.62891,0.62549,0.62402,0.62305,0.62207,0.6206,0.61963,0.61865,0.61621,0.61523,0.61426,0.61279,0.61182,0.61084,0.60986,0.6084,0.60645,0.60547,0.60449,0.60449,0.60303,0.60205,0.60205,0.60107,0.59912,0.59668,0.5957,0.59473,0.59375,0.59277,0.59277,0.58984,0.58887,0.5874,0.58643,0.58643,0.58545,0.58447,0.58252,0.58057,0.57959,0.57861,0.57861,0.57764,0.57666,0.57471,0.57471,0.57373,0.57373,0.57178,0.5708,0,0,0,0,0,0,0,0,0,0,0,0,0,0,0,0,0,0,0,0,0,0,0,0,0,0,0,0,0,0,0,0,0,0,0,0,0,0,0,0,0,0,0,0,0,0,0
0.87109,0.87109,0.87109,0.87109,0.87109,0.87109,0.87109,0.87109,0.87109,0.87598,0.87598,0.87598,0.87793,0.87793,0.87793,0.87793,0.87793,0.87793,0.88037,0.88037,0.88037,0.88037,0.88037,0.88037,0.88037,0.88281,0.88281,0.88281,0.88525,0.88525,0.88525,0.88721,0.88721,0.88965,0.88965,0.88965,0.88965,0.88965,0.88965,0.88965,0.88965,0.88965,0.89209,0.89209,0.89453,0.89453,0.89453,0.89697,0.89697,0.89941,0.89941,0.89941,0.89941,0.90185,0.90185,0.90185,0.9043,0.9043,0.9043,0.90674,0.90674,0.90918,0.90918,0.90918,0.90869,0.90869,0.90869,0.90918,0.90918,0.90918,0.91162,0.91162,0.91162,0.91162,0.91406,0.91406,0.91406,0.91406,0.91406,0.9165,0.9165,0.9165,0.9165,0.91895,0.91895,0.91895,0.91895,0.91895,0.91895,0.92139,0.92139,0.92139,0.92139,0.92139,0.92383,0.92383,0.92627,0.92627,0.9292,0.9292,0.9292,0.9292,0.9292,0.9292,0.9292,0.9292,0.9292,0.9292,0.93164,0.93164,0.93164,0.93164,0.93164,0.93164,0.93408,0.93408,0.93701,0.93408,0.93701,0.93701,0.93701,0.93701,0.93408,0.93408,0.93408,0.93164,0.93164,0.93164,0.93164,0.93164,0.93164,0.93164,0.93164,0.93457,0.93164,0.93164,0.93164,0.93164,0.93164,0.93164,0.93164,0.93457,0.93457,0,0,0,0.98584,0.9834,0.9834,0.98047,0.98047,0.97754,0.97754,0.97754,0.97754,0.97461,0.97754,0.97754,0.97754,0.97754,0.97754,0.97754,0.97754,0.97461,0.97461,0.97461,0.97754,0.97461,0.97461,0.97461,0.97754,0.97461,0.97461,0.97461,0.97461,0.97217,0.97217,0.97217,0.97217,0.97217,0.97217,0.97217,0.97217,0.9751,0.9751,0.9751,0.9751,0.97754,0.97754,0.97754,0.9751,0,0,0,0,0,0,0,0,0,0,0.71289,0.71289,0.71143,0.71143,0.71143,0.70996,0.70996,0.7085,0.70703,0.70703,0.70557,0.7041,0.70264,0,0,0.7749,0.7749,0.7749,0.7749,0.7749,0.7749,0.7749,0.7749,0.7749,0.7749,0.77295,0,0,0,0,0,0,0,0,0,0,0,0.63672,0.63672,0.63574,0.6333,0.6333,0.63184,0.63086,0.63086,0.62988,0.62842,0.62744,0.62744,0.62598,0.62647,0.625,0.62402,0.62256,0.62158,0.62158,0.62158,0.62158,0.62158,0.6206,0.6206,0.61963,0.61816,0.61719,0.61719,0.61719,0.61621,0.61621,0.61475,0.61377,0.61377,0.61377,0.61279,0.61279,0.61279,0.61182,0.61035,0.61035,0.60938,0.60938,0.60938,0.60938,0.60938,0.60938,0.60938,0.61035,0.61035,0.61279,0.61279,0.61377,0.61377,0.61523,0.61523,0.61523,0.61621,0,0,0,0,0,0.77148,0.77148,0.76953,0.77148,0.76953,0.76807,0.76953,0.76953,0.76953,0.76611,0.76611,0.76611,0.76465,0.76465,0.76465,0.7627,0.7627,0.76123,0.76123,0.75928,0.75928,0.75928,0.75928,0.75781,0.75781,0.75781,0.65185,0.64941,0.64697,0.64551,0.64453,0.64307,0.64209,0.64209,0.64209,0.63965,0.63721,0.63574,0.63477,0.6333,0.63232,0.63232,0.63135,0.62891,0.62647,0.62549,0.62402,0.62305,0.62207,0.6206,0.61963,0.61621,0.61523,0.61426,0.61279,0.61182,0.61182,0.61084,0.60986,0.60645,0.60547,0.60449,0.60449,0.60449,0.60303,0.60205,0.60107,0.59912,0.59815,0.59668,0.5957,0.59473,0.59375,0.59277,0.59082,0.58984,0.58887,0.58789,0.58643,0.58643,0.58545,0.58252,0.58154,0.58057,0.57959,0.57861,0.57764,0.57764,0.57666,0.57471,0.57471,0.57373,0.57275,0.5708,0,0,0,0,0,0,0,0,0,0,0,0,0,0,0,0,0,0,0,0,0,0,0,0,0,0,0,0,0,0,0,0,0,0,0,0,0,0,0,0,0,0,0,0,0,0,0
0.87109,0.87109,0.87109,0.87109,0.87109,0.87109,0.87109,0.87109,0.87109,0.87598,0.87598,0.87598,0.87793,0.87793,0.87793,0.87793,0.88037,0.88037,0.88037,0.88037,0.88037,0.88037,0.88281,0.88037,0.88281,0.88281,0.88281,0.88281,0.88525,0.88721,0.88721,0.88721,0.88721,0.88965,0.88965,0.88965,0.88965,0.88965,0.88965,0.89209,0.89209,0.89209,0.89209,0.89453,0.89453,0.89453,0.89697,0.89697,0.89697,0.89941,0.89941,0.89941,0.89941,0.90185,0.90185,0.90185,0.9043,0.9043,0.9043,0.90674,0.90674,0.90674,0.90918,0.90918,0.90918,0.90918,0.90918,0.90918,0.91162,0.91162,0.91162,0.91162,0.91162,0.91162,0.91406,0.91406,0.91406,0.91406,0.91406,0.9165,0.9165,0.9165,0.9165,0.91895,0.91895,0.91895,0.91895,0.91895,0.91895,0.92139,0.92139,0.92139,0.92139,0.92383,0.92383,0.92627,0.92676,0.92676,0.92676,0.9292,0.9292,0.9292,0.9292,0.9292,0.9292,0.9292,0.9292,0.9292,0.93164,0.93164,0.93164,0.93164,0.93164,0.93164,0.93408,0.93408,0.93408,0.93701,0.93408,0.93408,0.93408,0.93408,0.93164,0.93408,0.93408,0.93164,0.93164,0.93164,0.93164,0.93164,0.93164,0.93164,0.93164,0.93164,0.93164,0.93164,0.93164,0.93164,0.93164,0.93164,0.93164,0.93164,0.93457,0,0,0,0,0.98047,0.98047,0.97754,0.97754,0.97461,0.97461,0.97461,0.97461,0.97461,0.97217,0.97217,0.97217,0.97217,0.97217,0.97461,0.97217,0.97217,0.97461,0.97217,0.97461,0.97217,0.97217,0.97217,0.97217,0.97217,0.97217,0.97217,0.96924,0.96924,0.96924,0.96924,0.96924,0.96924,0.97217,0.96924,0.97217,0.97217,0.97217,0.97217,0.9751,0.9751,0.9751,0.9751,0,0,0,0,0,0,0,0,0,0,0,0,0.71289,0.71143,0.71143,0.70996,0.70996,0.70996,0.7085,0.70703,0.70703,0.70557,0.7041,0.7041,0,0,0.7749,0.7749,0.7749,0.7749,0.77295,0.7749,0.7749,0.7749,0.77295,0.77295,0.77295,0,0,0.74902,0.75244,0.75244,0.75244,0.75244,0,0,0,0,0,0.63574,0.63428,0.63428,0.63184,0.63184,0.63086,0.63086,0.62988,0.62842,0.62744,0.62744,0.62744,0.62647,0.625,0.62402,0.62305,0.62305,0.62158,0.62158,0.62158,0.62158,0.6206,0.6206,0.61963,0.61816,0.61816,0.61719,0.61719,0.61719,0.61719,0.61621,0.61475,0.61377,0.61377,0.61377,0.61279,0.61279,0.61182,0.61035,0.60938,0.61035,0.60938,0.60938,0.6084,0.6084,0.60938,0.60938,0.61084,0.61084,0.61182,0.61279,0.61377,0.61377,0.61377,0.61523,0.61523,0.61523,0.61523,0,0,0,0,0,0.76953,0.76953,0.76953,0.77002,0.76807,0.76807,0.76807,0.76807,0.76807,0.76611,0.76611,0.76465,0.76465,0.76465,0.76465,0.7627,0.7627,0.76123,0.75928,0.76123,0.75928,0.75928,0.75977,0.75781,0.75781,0.75781,0.75781,0.75781,0.64307,0.64307,0.64209,0.64209,0.64209,0.64209,0.63965,0.63721,0.63574,0.63477,0.6333,0.63379,0.63232,0.63135,0.62988,0.62793,0.62549,0.62402,0.62305,0.62207,0.62109,0.61963,0.61768,0.61621,0.61523,0.61426,0.61279,0.61182,0.61084,0.60986,0.60742,0.60645,0.60547,0.60547,0.60449,0.60352,0.60205,0.60205,0.6001,0.59912,0.59717,0.5957,0.59473,0.59375,0.59277,0.59082,0.58984,0.58984,0.58887,0.58789,0.58691,0.58545,0.5835,0.58252,0.58154,0.58057,0.57959,0.57861,0.57764,0.57666,0.57568,0.57471,0.57471,0.57373,0.57275,0,0,0,0,0,0,0,0,0,0,0,0,0,0,0,0,0,0,0,0,0,0,0,0,0,0,0,0,0,0,0,0,0,0,0,0,0,0,0,0,0,0,0,0,0,0,0
0.87109,0.87109,0.87109,0.87109,0.87158,0.87158,0.87158,0.87158,0.87158,0.87598,0.87598,0.87598,0.87793,0.87793,0.87793,0.88037,0.88037,0.88037,0.88037,0.88037,0.88037,0.88281,0.88281,0.88281,0.88281,0.88281,0.88525,0.88525,0.88721,0.88721,0.88721,0.88721,0.88721,0.88965,0.88965,0.88965,0.88965,0.88965,0.88965,0.89209,0.89209,0.89209,0.89209,0.89453,0.89453,0.89453,0.89697,0.89697,0.89697,0.89941,0.89941,0.89941,0.90185,0.90185,0.9043,0.9043,0.9043,0.9043,0.9043,0.90674,0.90674,0.90918,0.90918,0.90918,0.91162,0.91162,0.91162,0.91162,0.91162,0.91162,0.91162,0.91162,0.91162,0.91162,0.91406,0.91406,0.91406,0.91406,0.9165,0.9165,0.9165,0.9165,0.91895,0.91895,0.91895,0.91895,0.91895,0.91895,0.92139,0.92139,0.92139,0.92139,0.92139,0.92383,0.92383,0.92383,0.92676,0.92676,0.9292,0.9292,0.9292,0.9292,0.9292,0.9292,0.9292,0.9292,0.9292,0.9292,0.93164,0.93164,0.93164,0.93164,0.93164,0.93164,0.93408,0.93408,0.93408,0.93408,0.93457,0.93164,0.93164,0.93164,0.9292,0.9292,0.9292,0.9292,0.9292,0.93164,0.9292,0.93164,0.93164,0.9292,0.9292,0.93164,0.93164,0.93164,0.93164,0.93164,0.93164,0.93164,0.93164,0.93164,0,0,0,0,0,0,0.98047,0.97754,0.97461,0.97461,0.97217,0.97217,0.97217,0.97217,0.97217,0.97217,0.96924,0.96924,0.97217,0.97217,0.96924,0.96924,0.96924,0.96631,0.96631,0.96924,0.96924,0.96924,0.96924,0.96924,0.96924,0.96924,0.96631,0.9668,0.9668,0.9668,0.9668,0.96924,0.96924,0.96924,0.96924,0.96924,0.96924,0.96924,0.96924,0.97217,0.97217,0,0,0,0,0,0,0,0,0,0,0,0,0,0.71435,0.71289,0.71143,0.71143,0.70996,0.70996,0.7085,0.7085,0.7085,0.70703,0,0,0,0,0.77295,0.77295,0.77295,0.7749,0.77295,0.77295,0.77295,0.77295,0.77295,0.77295,0.77148,0.77148,0.77148,0.75098,0.75098,0.75098,0.75244,0.75244,0.75244,0.75244,0,0,0,0,0,0.63574,0.63428,0.6333,0.63086,0.63086,0.62988,0.62842,0.62744,0.62744,0.62744,0.62647,0.625,0.62402,0.62305,0.62305,0.62158,0.62158,0.62158,0.62158,0.62158,0.6206,0.61963,0.61963,0.61816,0.61816,0.61816,0.61719,0.61719,0.61719,0.61621,0.61523,0.61377,0.61377,0.61279,0.61279,0.61182,0.61084,0.61084,0.61084,0.60938,0.60938,0.60938,0.6084,0.6084,0.60938,0.60938,0.60938,0.61084,0.61084,0.61279,0.61377,0.61377,0.61377,0.61377,0.61523,0.61523,0.61523,0.61523,0,0,0,0.76807,0.76807,0.77002,0.77002,0.76807,0.76611,0.76611,0.76807,0.76807,0.76611,0.76465,0.76465,0.76465,0.76465,0.7627,0.76318,0.76123,0.76123,0.75977,0.76123,0.75977,0.75977,0.75781,0.75781,0.75781,0.75781,0.75635,0.75781,0.75635,0.64209,0.64209,0.64307,0.64209,0.64209,0.64062,0.63818,0.63574,0.63477,0.63379,0.63379,0.63232,0.63135,0.63135,0.62793,0.62647,0.62549,0.62451,0.62305,0.62207,0.61963,0.61768,0.61621,0.61523,0.61523,0.61426,0.61328,0.61182,0.61084,0.60742,0.60645,0.60547,0.60547,0.60547,0.60449,0.60352,0.60205,0.60107,0.59912,0.59815,0.5957,0.59473,0.59375,0.59375,0.5918,0.59082,0.58984,0.58887,0.58887,0.58789,0.58691,0.58594,0.5835,0.58252,0.58154,0.58057,0.57959,0.57861,0.57764,0.57666,0.57666,0.57568,0.57471,0.57373,0,0,0,0,0,0,0,0,0,0,0,0,0,0,0,0,0,0,0,0,0,0,0,0,0,0,0,0,0,0,0,0,0,0,0,0,0,0,0,0,0,0,0,0,0,0,0
0.87158,0.87158,0.87158,0.87158,0.87158,0.87158,0.87158,0.87158,0.87598,0.87598,0.87842,0.87842,0.87842,0.87842,0.88037,0.88037,0.88037,0.88037,0.88037,0.88037,0.88281,0.88281,0.88281,0.88281,0.88525,0.88525,0.88525,0.88525,0.8877,0.8877,0.8877,0.8877,0.88965,0.88965,0.88965,0.88965,0.88965,0.88965,0.88965,0.89209,0.89209,0.89209,0.89209,0.89453,0.89453,0.89453,0.89697,0.89697,0.89697,0.89941,0.89941,0.89941,0.90185,0.90185,0.9043,0.9043,0.90674,0.9043,0.90674,0.90674,0.90674,0.90918,0.90918,0.90918,0.91162,0.91162,0.91162,0.91162,0.91162,0.91162,0.91162,0.91162,0.91162,0.91162,0.91406,0.91406,0.91406,0.91406,0.9165,0.9165,0.9165,0.91895,0.91895,0.91895,0.91895,0.91895,0.91895,0.92139,0.92139,0.92139,0.92139,0.92139,0.92139,0.92383,0.92383,0.92676,0.92676,0.92676,0.9292,0.9292,0.9292,0.9292,0.9292,0.9292,0.9292,0.9292,0.9292,0.9292,0.9292,0.9292,0.93164,0.9292,0.9292,0.9292,0.93164,0.93164,0.93164,0.93164,0.93164,0.9292,0.9292,0.9292,0.92676,0.92676,0.92676,0.9292,0.92432,0.92676,0.92676,0.9292,0.9292,0.9292,0.9292,0.9292,0.9292,0.9292,0.9292,0.9292,0.9292,0.9292,0.9292,0,0,0,0,0,0,0,0.98047,0.97461,0.97461,0.96924,0.96924,0.96924,0.96924,0.96631,0.96631,0.96631,0.96631,0.96631,0.9668,0.9668,0.9668,0.9668,0.9668,0.9668,0.96387,0.96387,0.96387,0.9668,0.9668,0.96387,0.96387,0.96387,0.96387,0.96387,0.96387,0.96387,0.96387,0.9668,0.9668,0.9668,0.9668,0.9668,0.9668,0.9668,0.9668,0.96924,0.96924,0,0,0,0,0,0,0,0,0,0,0,0,0.71582,0.71435,0.71435,0.71289,0.71143,0.70996,0.70996,0.70996,0.70996,0.7085,0.7085,0,0,0.76953,0.76953,0.771,0.771,0.77148,0.77295,0.77148,0.77148,0.77148,0.77148,0.77148,0.77148,0.76758,0.76758,0.75244,0.74902,0.74902,0.74902,0.75098,0.75098,0.75098,0.75098,0.74902,0.74902,0,0,0,0,0,0,0,0,0.63086,0.62988,0.62842,0.62744,0.62744,0.62647,0.62647,0.625,0.62402,0.62305,0.62305,0.62158,0.62158,0.62158,0.62158,0.6206,0.6206,0.61963,0.61816,0.61816,0.61816,0.61816,0.61816,0.61719,0.61719,0.61621,0.61621,0.61523,0.61377,0.61279,0.61182,0.61182,0.61084,0.61084,0.60938,0.60938,0.60938,0.6084,0.6084,0.6084,0.60938,0.6084,0.60938,0.60938,0.61084,0.61182,0.61279,0.61377,0.61377,0.61377,0.61523,0.61523,0.61523,0.61621,0.61621,0,0,0,0.77002,0.76807,0.7666,0.7666,0.7666,0.7666,0.7666,0.7666,0.76465,0.76465,0.76465,0.76318,0.76318,0.76318,0.76123,0.76123,0.76123,0.75977,0.75977,0.75977,0.75781,0.75781,0.75781,0.75781,0.75635,0.75781,0.75635,0.75635,0.64307,0.64307,0.64307,0.64209,0.64062,0.63818,0.63721,0.63477,0.63379,0.63379,0.63232,0.63135,0.63135,0.62793,0.62793,0.62549,0.62451,0.62451,0.62305,0.62109,0.61963,0.61768,0.61621,0.61523,0.61523,0.61426,0.61328,0.61182,0.60889,0.60645,0.60547,0.60645,0.60547,0.60449,0.60352,0.60205,0.60107,0.6001,0.59815,0.59717,0.59619,0.59473,0.59375,0.5918,0.59082,0.59082,0.58984,0.58887,0.58887,0.58691,0.58594,0.58496,0.58252,0.58252,0.58154,0.57959,0.57861,0.57764,0.57764,0.57666,0.57666,0.57568,0.57373,0,0,0,0,0,0,0,0,0,0,0,0,0,0,0,0,0,0,0,0,0,0,0,0,0,0,0,0,0,0,0,0,0,0,0,0,0,0,0,0,0,0,0,0,0,0,0
0.87158,0.87158,0.87158,0.87353,0.87158,0.87158,0.87158,0.87353,0.87598,0.87598,0.87598,0.87842,0.87842,0.87842,0.88037,0.88037,0.88037,0.88037,0.88037,0.88281,0.88281,0.88281,0.88281,0.88281,0.88525,0.88525,0.88525,0.88525,0.8877,0.8877,0.8877,0.8877,0.88965,0.88965,0.88965,0.88965,0.88965,0.88965,0.88965,0.88965,0.89209,0.89209,0.89453,0.89453,0.89697,0.89697,0.89697,0.89697,0.89697,0.89941,0.89941,0.90185,0.90185,0.90185,0.9043,0.9043,0.90674,0.90674,0.90674,0.90674,0.90674,0.90918,0.90918,0.91162,0.91162,0.91162,0.91162,0.91162,0.91162,0.91162,0.91162,0.91162,0.91162,0.91162,0.91406,0.91406,0.91406,0.91406,0.9165,0.9165,0.9165,0.91895,0.91895,0.91895,0.92139,0.92139,0.92139,0.92139,0.92139,0.92139,0.92139,0.92139,0.92139,0.92432,0.92432,0.92432,0.92676,0.92676,0.92676,0.92676,0.92676,0.9292,0.9292,0.9292,0.9292,0.9292,0.9292,0.9292,0.9292,0.9292,0.9292,0.92676,0.9292,0.92676,0.93164,0.93164,0.9292,0.9292,0.9292,0.9292,0.92676,0.92676,0.92432,0.92676,0.92676,0.92432,0.92432,0.92432,0.92432,0.92432,0.92676,0.92676,0.92676,0.92676,0.92676,0.92676,0.92676,0.92676,0.92432,0.92432,0.92432,0.9292,0,0,0,0,0,0,0,0.9751,0.96924,0.96924,0.96924,0.9668,0.9668,0.96387,0.96387,0.96387,0.96387,0.96387,0.96387,0.96387,0.96387,0.96387,0.96387,0.96387,0.96387,0.96387,0.96387,0.96387,0.96387,0.96387,0.96387,0.96143,0.96143,0.96143,0.96143,0.96143,0.96143,0.96143,0.96143,0.9585,0.96387,0.96387,0.96387,0.96143,0.96143,0.96143,0,0,0,0,0,0,0,0,0,0,0,0,0.71582,0.71582,0.71435,0.71435,0.71289,0.71143,0.71143,0.70996,0.70996,0.71143,0.70996,0,0,0.76416,0.76758,0.76758,0.76758,0.76758,0.76758,0.77148,0.76953,0.76953,0.76953,0.76953,0.76953,0.76953,0.76758,0.7544,0.74902,0.74902,0.74902,0.74902,0.74902,0.74902,0.74756,0.74756,0.74756,0.74902,0.74756,0,0,0,0,0,0.68701,0.68701,0.68555,0.68701,0,0.62988,0.62744,0.62647,0.625,0.62402,0.62402,0.62305,0.62305,0.62305,0.62158,0.62158,0.62158,0.62158,0.6206,0.6206,0.61963,0.61963,0.61816,0.61816,0.61816,0.61865,0.61719,0.61719,0.61719,0.61621,0.61377,0.61377,0.61279,0.61279,0.61182,0.61084,0.61084,0.61084,0.60938,0.60938,0.60938,0.6084,0.6084,0.6084,0.6084,0.60938,0.61084,0.61182,0.61279,0.61279,0.61426,0.61426,0.61426,0.61426,0.61426,0.61523,0.61523,0.61523,0.61523,0,0,0,0.7666,0.7666,0.76465,0.7666,0.76465,0.7666,0.76465,0.76465,0.76465,0.76318,0.76318,0.76318,0.76123,0.76123,0.76123,0.75977,0.75977,0.75781,0.75781,0.75781,0.75781,0.75781,0.75635,0.75635,0.7544,0.7544,0.7544,0.7544,0.75293,0.75147,0.75147,0.63574,0.63477,0.63379,0.63379,0.63379,0.63232,0.63135,0.63135,0.62891,0.62793,0.62647,0.62549,0.62451,0.62305,0.62207,0.61865,0.61768,0.61621,0.61523,0.61523,0.61426,0.61426,0.61328,0.60986,0.60742,0.60645,0.60645,0.60547,0.60449,0.60352,0.60352,0.60205,0.60107,0.59912,0.59717,0.59619,0.59473,0.59375,0.59277,0.5918,0.59082,0.59082,0.58984,0.58887,0.58789,0.58691,0.58496,0.58398,0.58398,0.58252,0.58057,0.57959,0.57861,0.57764,0.57764,0.57666,0.57568,0.57471,0,0,0,0,0,0,0,0,0,0,0,0,0,0,0,0,0,0,0,0,0,0,0,0,0,0,0,0,0,0,0,0,0,0,0,0,0,0,0,0,0,0,0,0,0,0,0
0.87158,0.87158,0.87158,0.87158,0.87158,0.87158,0.87158,0.87598,0.87598,0.87842,0.87842,0.87842,0.87842,0.87842,0.88037,0.88037,0.88037,0.88037,0.88037,0.88281,0.88281,0.88281,0.88525,0.88525,0.88525,0.88525,0.8877,0.8877,0.8877,0.8877,0.8877,0.88965,0.88965,0.89014,0.89014,0.89014,0.89014,0.89014,0.89014,0.89209,0.89209,0.89453,0.89453,0.89697,0.89697,0.89697,0.89697,0.89697,0.89697,0.89941,0.89941,0.90185,0.90185,0.90185,0.9043,0.9043,0.90674,0.90674,0.90674,0.90674,0.90918,0.90918,0.91162,0.91162,0.91162,0.91162,0.91162,0.91162,0.91162,0.91162,0.91162,0.91162,0.91406,0.91406,0.91406,0.91406,0.91406,0.9165,0.9165,0.9165,0.9165,0.91895,0.91895,0.92139,0.92139,0.92139,0.92139,0.92139,0.92139,0.92139,0.92188,0.92188,0.92188,0.92432,0.92432,0.92432,0.92432,0.92676,0.92676,0.92676,0.92676,0.92676,0.92676,0.92676,0.9292,0.9292,0.9292,0.92676,0.92676,0.92676,0.92676,0.92676,0.92432,0.92432,0.9292,0.92676,0.92676,0.92676,0.92676,0.92676,0.92676,0.92676,0.92432,0.92432,0.92676,0.92432,0.92188,0.92432,0.92432,0.92432,0.92432,0.92432,0.92432,0.92432,0.92676,0.92432,0.92432,0.92188,0.92188,0.92188,0.92188,0.92432,0,0,0,0,0,0,0,0,0.96924,0.9668,0.9668,0.96387,0.96387,0.96387,0.96387,0.96094,0.96094,0.96094,0.96387,0.96387,0.96387,0.96094,0.96094,0.96387,0.96143,0.96143,0.96143,0.96143,0.96143,0.96143,0.96143,0.96143,0.96143,0.96143,0.9585,0.95605,0.9585,0.9585,0.9585,0.95605,0.95605,0.95605,0.95605,0.95312,0.95312,0.9585,0,0,0,0,0,0,0,0,0.74072,0.74072,0.73926,0,0.71728,0.71582,0.71582,0.71435,0.71289,0.71289,0.71143,0.71143,0.71143,0.71143,0.71143,0,0,0.76416,0.76807,0.76807,0.76807,0.76611,0.76611,0.76807,0.76611,0.76611,0.76611,0.76611,0.76807,0.76807,0.76611,0.7544,0.74902,0.74756,0.74756,0.74756,0.74756,0.74756,0.74756,0.74756,0.74756,0.74756,0.74756,0.74902,0,0.68848,0.68701,0.68701,0.68701,0.68701,0.68555,0.68701,0.68555,0.68457,0.68457,0.62744,0.62744,0.625,0.62402,0.62305,0.62305,0.62305,0.62158,0.62158,0.62158,0.62158,0.62207,0.6206,0.6206,0.61963,0.61963,0.61865,0.61865,0.61865,0.61719,0.61719,0.61719,0.61621,0.61523,0.61377,0.61279,0.61279,0.61182,0.61084,0.61084,0.61084,0.60938,0.60938,0.60938,0.60938,0.6084,0.6084,0.6084,0.60986,0.60986,0.61084,0.61084,0.61182,0.61279,0.61279,0.61279,0.61279,0.61426,0.61426,0.61426,0.61426,0.61426,0.61426,0,0,0,0,0.76807,0.76807,0.76807,0.7666,0.76465,0.7666,0.76465,0.76465,0.76318,0.76318,0.76318,0.76318,0.76123,0.76123,0.75977,0.75781,0.75781,0.75781,0.75781,0.75781,0.75635,0.75635,0.7544,0.7544,0.7544,0.7544,0.75293,0.75147,0.75147,0.75147,0.63477,0.63477,0.63379,0.63379,0.63232,0.63135,0.63135,0.62891,0.62793,0.62647,0.62549,0.62451,0.62305,0.62207,0.61865,0.61768,0.6167,0.6167,0.6167,0.61523,0.61426,0.61328,0.61182,0.60986,0.60791,0.60791,0.60791,0.60645,0.60547,0.60449,0.60352,0.60254,0.60107,0.59912,0.59815,0.59619,0.59473,0.59277,0.5918,0.5918,0.59082,0.59082,0.58984,0.58887,0.58691,0.58594,0.58496,0.58496,0.58398,0.58154,0.57959,0.57861,0.57764,0.57764,0.57764,0.57666,0.57471,0,0,0,0,0,0,0,0,0,0,0,0,0,0,0,0,0,0,0,0,0,0,0,0,0,0,0,0,0,0,0,0,0,0,0,0,0,0,0,0,0,0,0,0,0,0,0
0.87158,0.87353,0.87158,0.87158,0.87353,0.87158,0.87158,0.87598,0.87598,0.87842,0.87842,0.87842,0.87842,0.88037,0.88037,0.88037,0.88037,0.88037,0.88281,0.88281,0.88281,0.88281,0.88525,0.88525,0.88525,0.88525,0.8877,0.8877,0.8877,0.89014,0.8877,0.89014,0.89014,0.89014,0.89014,0.89014,0.89014,0.89014,0.89014,0.89209,0.89209,0.89453,0.89453,0.89697,0.89697,0.89697,0.89697,0.89697,0.89697,0.90185,0.90185,0.90185,0.90185,0.9043,0.9043,0.90674,0.90674,0.90674,0.90918,0.90918,0.90918,0.90918,0.91162,0.91162,0.91162,0.91162,0.91162,0.91162,0.91162,0.91162,0.91162,0.91406,0.91406,0.91406,0.91406,0.91406,0.9165,0.9165,0.9165,0.91895,0.91895,0.91895,0.91895,0.92188,0.92188,0.92188,0.92188,0.92188,0.92188,0.92188,0.92188,0.92188,0.92188,0.92432,0.92432,0.92432,0.92432,0.92432,0.92432,0.92432,0.92432,0.92188,0.92432,0.92432,0.92432,0.92432,0.92432,0.92188,0.92188,0.92188,0.91943,0.91943,0.91943,0.91943,0.92432,0.92432,0.92432,0.92432,0.92432,0.92432,0.92432,0.92432,0.92432,0.92432,0.92432,0.92432,0.92188,0.92188,0.92188,0.92188,0.92188,0.92188,0.92188,0.92188,0.92188,0.92188,0.92188,0.92188,0.92188,0.91943,0.91943,0.91699,0.91699,0.91943,0,0,0,0,0,0,0.9668,0.96387,0.96387,0.96387,0.96094,0.96094,0.96094,0.9585,0.9585,0.9585,0.9585,0.9585,0.9585,0.9585,0.9585,0.9585,0.9585,0.9585,0.9585,0.9585,0.9585,0.9585,0.9585,0.9585,0.9585,0.9585,0.95605,0.95605,0.95605,0.95605,0.95605,0.95312,0.95312,0.95312,0.95312,0.95312,0.95312,0,0,0,0,0,0,0,0,0,0.74121,0.73926,0.73926,0.7207,0.71728,0.71728,0.71582,0.71435,0.71435,0.71289,0.71289,0.71289,0.71289,0.71289,0.71289,0,0,0.76611,0.76416,0.76465,0.76465,0.76465,0.76465,0.76611,0.76611,0.76611,0.76611,0.76611,0.76611,0.7627,0.76123,0.74756,0.74609,0.74609,0.74609,0.74609,0.74609,0.74609,0.74756,0.74756,0.74756,0.74756,0.74756,0.74951,0.68701,0.68848,0.68848,0.68701,0.68701,0.68701,0.68701,0.68701,0.68603,0.68555,0.68457,0.68457,0.68603,0.62549,0.62402,0.62402,0.62305,0.62305,0.62207,0.62207,0.62207,0.62207,0.62207,0.6206,0.6206,0.61963,0.61963,0.61865,0.61963,0.61865,0.61865,0.61719,0.61719,0.61719,0.61621,0.61523,0.61426,0.61279,0.61182,0.61182,0.61084,0.61084,0.60986,0.60986,0.60986,0.60986,0.6084,0.6084,0.60742,0.6084,0.6084,0.60986,0.60986,0.61084,0.61182,0.61279,0.61279,0.61279,0.61279,0.61279,0.61279,0.61279,0.61182,0.61084,0.60986,0.60986,0.6084,0,0,0.7666,0.7666,0.76465,0.76465,0.76465,0.76465,0.76465,0.76465,0.76465,0.76318,0.76318,0.76123,0.76123,0.75977,0.75781,0.75635,0.75781,0.75781,0.75781,0.75635,0.75635,0.75488,0.75293,0.75293,0.75293,0.75293,0.75147,0.75147,0.75147,0.75147,0.74951,0.74951,0.63379,0.63135,0.63037,0.63037,0.62891,0.62793,0.62647,0.62549,0.62451,0.62305,0.62207,0.61865,0.61768,0.6167,0.6167,0.6167,0.61523,0.61523,0.61426,0.61328,0.60986,0.60986,0.60889,0.60791,0.60645,0.60547,0.60449,0.60352,0.60254,0.60254,0.60107,0.6001,0.59815,0.59522,0.59375,0.59277,0.59277,0.5918,0.5918,0.58984,0.58887,0.58789,0.58594,0.58594,0.58594,0.58496,0.58398,0.58203,0.57959,0.57861,0.57764,0.57764,0.57666,0.57568,0,0,0,0,0,0,0,0,0,0,0,0,0,0,0,0,0,0,0,0,0,0,0,0,0,0,0,0,0,0,0,0,0,0,0,0,0,0,0,0,0,0,0,0,0,0,0
0.87158,0.87353,0.87353,0.87353,0.87598,0.87598,0.87598,0.87842,0.87842,0.87598,0.87842,0.87842,0.87842,0.88086,0.88086,0.88086,0.88086,0.88086,0.88281,0.88281,0.88281,0.88281,0.88525,0.88525,0.88525,0.88525,0.8877,0.8877,0.8877,0.89014,0.8877,0.89014,0.89014,0.89014,0.89014,0.89014,0.89014,0.89014,0.89014,0.89258,0.89453,0.89453,0.89453,0.89697,0.89697,0.89697,0.89941,0.89941,0.89697,0.90185,0.90185,0.90185,0.90185,0.9043,0.9043,0.90674,0.90674,0.90918,0.90918,0.90918,0.90918,0.90918,0.91162,0.91162,0.91162,0.91162,0.91162,0.91162,0.91162,0.91406,0.91162,0.91406,0.91406,0.91406,0.9165,0.91406,0.9165,0.9165,0.9165,0.91895,0.91895,0.91895,0.91895,0.92188,0.92188,0.92188,0.92188,0.92188,0.92188,0.92188,0.92188,0.92188,0.92188,0.92432,0.92432,0.92188,0.92188,0.92188,0.92188,0.92188,0.92188,0.92188,0.92188,0.92188,0.92188,0.92188,0.92188,0.92188,0.91943,0.91943,0.91943,0.91943,0.91699,0.91699,0.91943,0.92188,0.92188,0.91943,0.91943,0.91943,0.91943,0.92188,0.92188,0.92432,0.92188,0.92188,0.92188,0.92188,0.92188,0.92188,0.91943,0.92188,0.92188,0.91943,0.91943,0.91943,0.92188,0.92188,0.91943,0.91699,0.91943,0.91699,0.91699,0.91699,0.91699,0.91455,0,0.96387,0.96387,0,0.9668,0.96387,0.96387,0.96143,0.96143,0.9585,0.9585,0.9585,0.95557,0.9585,0.9585,0.95605,0.95605,0.95605,0.95605,0.95605,0.95605,0.95605,0.95605,0.95605,0.95605,0.95605,0.95605,0.95605,0.95605,0.95312,0.95068,0.95068,0.95312,0.95312,0.95068,0.95068,0.95312,0.95068,0.95068,0.95068,0.95068,0,0,0,0,0,0,0,0,0,0.73926,0.73926,0.72998,0.72217,0.71924,0.71777,0.71582,0.71435,0.71435,0.71289,0.71289,0.71289,0.71289,0.71289,0,0,0,0.7627,0.7627,0.7627,0.7627,0.7627,0.76465,0.76465,0.76465,0.76465,0.76465,0.76465,0.7627,0.7627,0.75781,0.74414,0.74268,0.74268,0.74268,0.74268,0.74463,0.74463,0.74463,0.74463,0.74463,0.74609,0.68848,0.68848,0.68701,0.68701,0.68701,0.68701,0.68701,0.68701,0.68701,0.68701,0.68603,0.68603,0.68603,0.68457,0.68603,0.62647,0.62305,0.62402,0.62305,0.62305,0.62305,0.62207,0.62207,0.6206,0.62207,0.6206,0.6206,0.61963,0.61963,0.61865,0.61963,0.61865,0.61865,0.61865,0.61719,0.61719,0.61719,0.61621,0.61426,0.61279,0.61279,0.61182,0.61084,0.61084,0.60986,0.60986,0.60986,0.60986,0.60986,0.6084,0.6084,0.6084,0.6084,0.6084,0.60986,0.60986,0.61084,0.61182,0.61182,0.61182,0.61182,0.61279,0.61182,0.61182,0.61084,0.61084,0.60986,0.60986,0.60889,0.60889,0.60889,0.60889,0.60986,0,0,0.7666,0.60645,0.60645,0.76465,0.7666,0.76465,0.76318,0.76123,0.65674,0.75977,0.75781,0.75635,0.75635,0.75635,0.75635,0.75635,0.75488,0.75293,0.75147,0.75293,0.75147,0.75147,0.75147,0.75147,0.75293,0.75147,0.75147,0.75147,0.63232,0.63135,0.62891,0.62695,0.62695,0.62549,0.62695,0.58691,0.58496,0.62305,0.62207,0.62012,0.61865,0.61768,0.6167,0.61768,0.61523,0.61523,0.61426,0.61328,0.61084,0.60986,0.60986,0.60889,0.60791,0.60645,0.60547,0.60449,0.60352,0.60254,0.60107,0.6001,0.59815,0.59619,0.59375,0.59277,0.59277,0.59277,0.5918,0.59082,0.58887,0.58789,0.58691,0.58594,0.58594,0.58594,0.58398,0.58301,0.58105,0.5791,0.5791,0.57812,0.57812,0.57617,0,0,0,0,0,0,0,0,0,0,0,0,0,0,0,0,0,0,0,0,0,0,0,0,0,0,0,0,0,0,0,0,0,0,0,0,0,0,0,0,0,0,0,0,0,0,0
0.87158,0.87402,0.87402,0.87842,0.87842,0.87842,0.87842,0.87842,0.87842,0.87598,0.87842,0.87842,0.87842,0.88086,0.88086,0.88086,0.88281,0.88281,0.88281,0.88525,0.88281,0.88281,0.88525,0.88525,0.8877,0.88525,0.8877,0.8877,0.8877,0.8877,0.8877,0.89014,0.89014,0.89014,0.89014,0.89014,0.89258,0.89258,0.89258,0.89453,0.89697,0.89697,0.89697,0.89697,0.89697,0.89941,0.89941,0.89941,0.89941,0.90185,0.90185,0.90185,0.90185,0.9043,0.9043,0.90674,0.90674,0.90674,0.90674,0.90918,0.90918,0.90918,0.91162,0.91162,0.91162,0.91162,0.91162,0.91162,0.91162,0.91162,0.91162,0.91406,0.91406,0.91406,0.9165,0.9165,0.9165,0.91895,0.91895,0.91895,0.91943,0.92188,0.92188,0.92188,0.92188,0.92188,0.92188,0.92188,0.92188,0.92188,0.92188,0.92188,0.92188,0.92188,0.92188,0.91943,0.92188,0.92188,0.92188,0.91943,0.92188,0.91943,0.92188,0.92188,0.92188,0.91943,0.91943,0.91943,0.91943,0.91699,0.91699,0.91455,0.91455,0.91699,0.91943,0.91699,0.91943,0.91699,0.91699,0.91699,0.91943,0.91943,0.91943,0.91943,0.91943,0.91943,0.91699,0.91699,0.91455,0.91699,0.91699,0.91699,0.91699,0.91699,0.91699,0.91699,0.91699,0.91943,0.91699,0.91455,0.91455,0.91455,0.91455,0.91699,0.91455,0.91455,0,0.96143,0,0,0,0.96143,0.96143,0.96143,0.9585,0.95605,0.9585,0.95605,0.95605,0.95605,0.95605,0.95312,0.95605,0.95312,0.95312,0.95312,0.95312,0.95312,0.95312,0.95312,0.95312,0.95312,0.95312,0.95312,0.95312,0.95068,0.94775,0.94775,0.94775,0.95068,0.95068,0.95068,0.95068,0.95068,0.95068,0.95068,0,0,0,0,0,0,0,0,0,0,0.73779,0.72852,0.72217,0.72217,0.7207,0.71924,0.71777,0.71582,0.71435,0.71435,0.71435,0.71289,0.71289,0,0.75098,0.75098,0.76123,0.76123,0.76123,0.76123,0.76123,0.76123,0.76123,0.76123,0.76123,0.76123,0.76123,0.75928,0.75928,0.75586,0.74268,0.74268,0.74121,0.74121,0.74121,0.74121,0.74268,0.74268,0.74268,0.74463,0.74463,0.68848,0.68848,0.68701,0.68701,0.68701,0.68701,0.68701,0.68701,0.68701,0.68701,0.68701,0.68603,0.68603,0.68603,0.68603,0.68603,0.68603,0.62744,0.62305,0.62402,0.62305,0.62305,0.62207,0.62207,0.6206,0.62207,0.6206,0.6206,0.6206,0.61963,0.61963,0.61963,0.61865,0.61865,0.61865,0.61719,0.61719,0.61719,0.61719,0.61523,0.61426,0.61279,0.61279,0.61182,0.61182,0.61084,0.60986,0.60986,0.60986,0.60986,0.6084,0.6084,0.60742,0.60742,0.6084,0.6084,0.6084,0.6084,0.60986,0.60986,0.61084,0.61084,0.61084,0.61084,0.61084,0.61084,0.60986,0.60889,0.60889,0.60889,0.60889,0.60742,0.60742,0.60889,0.60742,0.60645,0.60645,0.60645,0.60449,0.60449,0.60352,0.60352,0.60205,0.60107,0.75781,0.75781,0.75635,0.75635,0.75488,0.75488,0.75488,0.75635,0.75488,0.75147,0.75147,0.75293,0.75147,0.75147,0.75147,0.75147,0.75147,0.75147,0.74951,0.75147,0.74951,0.74805,0.74805,0.74658,0.62451,0.62451,0.58691,0.58691,0.58496,0.58594,0,0.62012,0.62012,0.61865,0.61768,0.61768,0.6167,0.61523,0.61328,0.6123,0.61084,0.60986,0.60986,0.60889,0.60791,0.60791,0.60645,0.60547,0.60352,0.60254,0.60156,0.60156,0.59912,0.59717,0.59522,0.59424,0.59424,0.59424,0.59277,0.59082,0.58984,0.58789,0.58691,0.58594,0.58594,0.58594,0.58496,0.58301,0.58203,0.58008,0.5791,0.57812,0.57812,0.57715,0,0,0,0,0,0,0,0,0,0,0,0,0,0,0,0,0,0,0,0,0,0,0,0,0,0,0,0,0,0,0,0,0,0,0,0,0,0,0,0,0,0,0,0,0,0,0
0.87158,0.87598,0.87598,0.87842,0.87842,0.87842,0.87842,0.88086,0.87842,0.87842,0.88086,0.88086,0.88086,0.88086,0.88086,0.88086,0.88281,0.88281,0.88525,0.88525,0.8877,0.88525,0.88525,0.8877,0.8877,0.8877,0.8877,0.8877,0.8877,0.8877,0.8877,0.89014,0.89014,0.89014,0.89014,0.89014,0.89258,0.89258,0.89258,0.89453,0.89697,0.89697,0.89697,0.89697,0.89697,0.89941,0.89941,0.89941,0.89941,0.90185,0.90185,0.9043,0.9043,0.9043,0.9043,0.90674,0.90674,0.90674,0.90674,0.90918,0.90918,0.90918,0.91162,0.91162,0.91162,0.91162,0.91162,0.91162,0.91406,0.91406,0.91406,0.91406,0.91406,0.9165,0.9165,0.9165,0.91943,0.91943,0.91943,0.91943,0.91943,0.92188,0.91943,0.92188,0.92188,0.92188,0.92188,0.91943,0.91943,0.91943,0.92188,0.92188,0.92188,0.91943,0.91943,0.91943,0.91943,0.91943,0.91943,0.91699,0.91699,0.91699,0.91699,0.91943,0.91699,0.91699,0.91943,0.91943,0.91699,0.91455,0.91455,0.91455,0.91455,0.91699,0.91699,0.91699,0.91455,0.91455,0.91455,0.91455,0.91699,0.91699,0.91943,0.91699,0.91943,0.91699,0.91455,0.91455,0.91455,0.91455,0.91211,0.91455,0.91455,0.91455,0.91455,0.91455,0.91699,0.91699,0.91455,0.91455,0.91455,0.91211,0.91455,0.91211,0.91211,0.91211,0.90967,0.96143,0,0,0,0.96143,0.9585,0.9585,0.95605,0.95605,0.95605,0.95605,0.95312,0.95312,0.95312,0.95068,0.95312,0.95068,0.95068,0.95068,0.95068,0.95068,0.95068,0.95068,0.95068,0.95068,0.94775,0.94775,0.94775,0.94531,0.94531,0.94531,0.94531,0.94775,0.94775,0.94775,0.94775,0.95068,0.94824,0,0,0,0,0,0,0,0,0,0,0.73779,0.72656,0.7251,0.72217,0.7207,0.71924,0.71777,0.71631,0.71631,0.71435,0.71435,0.71435,0.71435,0,0.75098,0.75098,0.75098,0.75098,0.75928,0.76123,0.75928,0.76123,0.75928,0.75928,0.75928,0.75928,0.75928,0.75928,0.75781,0.75586,0.74121,0.74121,0.74121,0.73975,0.73975,0.73975,0.73975,0.74121,0.73975,0.74121,0.68701,0.68701,0.68848,0.68848,0.68701,0.68701,0.68701,0.6875,0.68848,0.68848,0.6875,0.6875,0.6875,0.6875,0.6875,0.68603,0.68603,0.68603,0.68603,0.68603,0.68603,0.71191,0.70752,0.62207,0.62207,0.62207,0.62207,0.62207,0.62207,0.6206,0.6206,0.61963,0.61963,0.61963,0.61865,0.61865,0.61865,0.61865,0.61768,0.61768,0.61621,0.61523,0.61426,0.61279,0.61279,0.61182,0.61182,0.61084,0.60986,0.60986,0.60889,0.60889,0.60889,0.60889,0.60742,0.60742,0.60742,0.60742,0.60742,0.60742,0.60742,0.60889,0.60889,0.60889,0.61084,0.61084,0.61084,0.60889,0.60889,0.60889,0.60742,0.60742,0.60742,0.60645,0.60645,0.60645,0.60645,0.60547,0.60547,0.60547,0.60352,0.60352,0.60352,0.60352,0.60107,0.60107,0.6001,0.6001,0.6001,0.60107,0.60107,0.6001,0.6001,0.59912,0.75147,0.75147,0.75147,0.75147,0.75147,0.75293,0.75147,0.75147,0.75147,0.75147,0.75147,0.75147,0.75,0.74805,0.74658,0.74463,0.74463,0.74512,0.58496,0.58594,0.58496,0.58496,0.58496,0,0.61865,0.61865,0.61865,0.61768,0.61768,0.61426,0.61328,0.6123,0.61084,0.61084,0.61084,0.60986,0.60889,0.60791,0.60693,0.60547,0.60449,0.60352,0.60254,0.60156,0.6001,0.59912,0.59815,0.59522,0.59522,0.59424,0.59277,0.5918,0.58984,0.58887,0.58789,0.58691,0.58691,0.58691,0.58594,0.58398,0.58203,0.58008,0.58008,0.5791,0.5791,0.57715,0,0,0,0,0,0,0,0,0,0,0,0,0,0,0,0,0,0,0,0,0,0,0,0,0,0,0,0,0,0,0,0,0,0,0,0,0,0,0,0,0,0,0,0,0,0,0
0.87158,0.87598,0.87598,0.87842,0.87842,0.87842,0.88086,0.88086,0.88086,0.87842,0.88086,0.88086,0.88086,0.88086,0.88086,0.88086,0.88525,0.88525,0.88525,0.88525,0.88525,0.88525,0.8877,0.8877,0.8877,0.8877,0.8877,0.8877,0.8877,0.89014,0.8877,0.89014,0.89014,0.89014,0.89014,0.89258,0.89258,0.89258,0.89258,0.89502,0.89697,0.89697,0.89697,0.89697,0.89941,0.89941,0.89941,0.89941,0.89941,0.90185,0.90185,0.9043,0.9043,0.9043,0.90674,0.90674,0.90674,0.90918,0.90918,0.90918,0.90918,0.90918,0.91162,0.91162,0.91162,0.91162,0.91162,0.91162,0.91406,0.91406,0.91406,0.91406,0.9165,0.91699,0.91943,0.91943,0.91943,0.91943,0.91943,0.91943,0.91943,0.91943,0.91943,0.91943,0.91943,0.91943,0.91943,0.91699,0.91699,0.91943,0.91943,0.91943,0.91699,0.91699,0.91699,0.91455,0.91455,0.91455,0.91455,0.91455,0.91455,0.91211,0.91211,0.91455,0.91455,0.91455,0.91699,0.91699,0.91699,0.91211,0.91211,0.91455,0.91455,0.91455,0.91699,0.91455,0.91455,0.91455,0.91455,0.91455,0.91455,0.91455,0.91455,0.91455,0.91211,0.91455,0.91211,0.91211,0.91211,0.91211,0.91211,0.91211,0.91211,0.91211,0.91211,0.91211,0.91455,0.91455,0.91211,0.91211,0.91211,0.91211,0.91211,0.90967,0.91211,0.90967,0.90967,0.90723,0,0,0,0,0,0.95605,0.95605,0.95312,0.95312,0.95312,0.95312,0.95068,0.95068,0.95068,0.95068,0.95068,0.94775,0.94775,0.94775,0.94775,0.94775,0.94775,0.94775,0.94775,0.94531,0.94531,0.94531,0.94287,0.94287,0.94287,0.94531,0.94531,0.94531,0.94531,0.94824,0.94824,0.94824,0,0,0,0,0,0,0,0,0,0,0.72705,0.7251,0.72363,0.72217,0.7207,0.7207,0.71777,0.71631,0.71631,0.71631,0.71484,0.71631,0.71484,0.71484,0,0.74951,0.75098,0.75098,0.75928,0.75928,0.75928,0.75928,0.75928,0.75781,0.75781,0.75781,0.75781,0.75781,0.75586,0.75586,0.74121,0.73975,0.73975,0.73779,0.73779,0.73779,0.73779,0.73779,0.73779,0.73779,0.6875,0.6875,0.6875,0.6875,0.6875,0.6875,0.6875,0.6875,0.68848,0.68848,0.6875,0.6875,0.6875,0.6875,0.6875,0.6875,0.6875,0.6875,0.6875,0.6875,0.6875,0.6875,0.70752,0.70752,0.70752,0.70752,0.70459,0.70459,0.62207,0.62207,0.6206,0.6206,0.6206,0.61963,0.61963,0.61963,0.61865,0.61865,0.61865,0.61865,0.61768,0.61523,0.61426,0.61328,0.61328,0.61182,0.61182,0.61084,0.60986,0.60986,0.60986,0.60986,0.60889,0.60889,0.60742,0.60742,0.60742,0.60742,0.60742,0.60742,0.60742,0.60742,0.60742,0.60889,0.60986,0.60986,0.60889,0.60889,0.60889,0.60889,0.60742,0.60742,0.60645,0.60645,0.60645,0.60645,0.60547,0.60547,0.60449,0.60449,0.60205,0.60205,0.60205,0.60205,0.60107,0.6001,0.6001,0.59912,0.59912,0.59912,0.59912,0.59912,0.59815,0.59815,0.59815,0,0,0,0,0,0.75147,0.75147,0.75147,0.75147,0.75147,0.75147,0.75,0.74658,0.74512,0.74512,0.58594,0.58594,0.58496,0.58594,0.58594,0.58594,0.58594,0.58496,0.58594,0.58594,0,0.61768,0.6167,0.61572,0.61328,0.6123,0.61133,0.58301,0,0.61133,0.58105,0,0.60791,0.60693,0.60449,0.60449,0.60352,0.60254,0.60156,0.60059,0.59912,0.59619,0.59619,0.59522,0.59424,0.59326,0.59082,0.58984,0.58789,0.58789,0.58691,0.58691,0.58594,0.58496,0.58301,0.58008,0.58008,0.5791,0.5791,0.57812,0,0,0,0,0,0,0,0,0,0,0,0,0,0,0,0,0,0,0,0,0,0,0,0,0,0,0,0,0,0,0,0,0,0,0,0,0,0,0,0,0,0,0,0,0,0,0
0.87402,0.87598,0.87598,0.87598,0.87842,0.87842,0.88086,0.87842,0.88086,0.88086,0.88086,0.88086,0.88086,0.88086,0.88086,0.8833,0.88525,0.88525,0.88525,0.88525,0.88525,0.8877,0.8877,0.8877,0.8877,0.8877,0.8877,0.89014,0.89014,0.89014,0.89014,0.89014,0.89014,0.89014,0.89014,0.89258,0.89258,0.89258,0.89502,0.89502,0.89697,0.89697,0.89746,0.89746,0.89941,0.89941,0.89941,0.89941,0.89941,0.90185,0.9043,0.9043,0.9043,0.9043,0.90674,0.90674,0.90674,0.90918,0.90918,0.90918,0.90918,0.91162,0.91162,0.91162,0.91162,0.91162,0.91162,0.91406,0.91406,0.91406,0.91406,0.91406,0.91699,0.91699,0.91943,0.91943,0.91943,0.91943,0.91943,0.91943,0.91943,0.91943,0.91943,0.91943,0.91943,0.91943,0.91699,0.91455,0.91699,0.91699,0.91699,0.91211,0.90967,0.91211,0.91211,0.91211,0.91211,0.91211,0.91211,0.91211,0.91211,0.90967,0.90967,0.90967,0.90967,0.90967,0.91211,0.91211,0.91211,0.91211,0.91211,0.91211,0.91211,0.91211,0.91455,0.91455,0.91455,0.91455,0.91455,0.91455,0.91455,0.91211,0.91211,0.91211,0.91211,0.90967,0.90723,0.90723,0.90723,0.90723,0.90967,0.91211,0.91211,0.91211,0.91211,0.91211,0.91211,0.91211,0.91211,0.90967,0.90967,0.90967,0.90967,0.90723,0.90723,0.90723,0.90723,0.90478,0.90478,0,0,0,0,0.95605,0.95312,0.95312,0.95068,0.95068,0.95068,0.94775,0.94775,0.94775,0.94775,0.94775,0.94531,0.94531,0.94531,0.94531,0.94531,0.94531,0.94531,0.94531,0.94287,0.94287,0.94287,0.94287,0.93994,0.93994,0.94287,0.94287,0.94287,0.94531,0.94531,0.94824,0,0,0,0,0,0,0,0,0,0,0,0.73291,0.72363,0.72363,0.72217,0.7207,0.7207,0.71924,0.71777,0.71631,0.71631,0.71631,0.71631,0.71631,0.71631,0.71777,0,0.74951,0,0.75781,0.75928,0.75781,0.75781,0.75781,0.75781,0.75586,0.75586,0.75586,0.75586,0.74121,0.73975,0.73975,0.73975,0.73779,0.73633,0.73633,0.73633,0.73633,0.73633,0.73633,0.73633,0.68603,0.68603,0.6875,0.6875,0.6875,0.6875,0.6875,0.6875,0.68848,0.68848,0.68897,0.68897,0.68897,0.6875,0.6875,0.6875,0.6875,0.6875,0.6875,0.6875,0.6875,0.6875,0.70752,0.70752,0.70605,0.70752,0.70752,0.70459,0.6206,0.62109,0.62109,0.62109,0.62109,0.62109,0.62109,0.61963,0.61963,0.61865,0.61865,0.61865,0.61768,0.61523,0.61426,0.61426,0.61328,0.61328,0.61182,0.61182,0.61084,0.60986,0.60986,0.60986,0.60889,0.60889,0.60742,0.60742,0.60645,0.60742,0.60742,0.60645,0.60645,0.60645,0.60645,0.60645,0.60742,0.60889,0.60742,0.60889,0.60889,0.60742,0.60742,0.60742,0.60645,0.60645,0.60645,0.60547,0.60547,0.60449,0.60449,0.60352,0.60254,0.60107,0.60107,0.6001,0.6001,0.59912,0.59815,0.59815,0.59815,0.59815,0.59815,0.59717,0.59717,0.59717,0.59522,0.59717,0,0,0,0,0.59375,0.59375,0.59375,0.59375,0.59277,0.59277,0.5918,0.59082,0.59082,0.58887,0.58691,0.58594,0.58594,0.58691,0.58691,0.58594,0.58594,0.58496,0.58594,0.58594,0,0.6167,0.6167,0.58203,0.58203,0.58203,0.58105,0.58203,0.58203,0.58301,0.58105,0,0.60693,0.60547,0.60547,0.60547,0.60352,0.60254,0.60059,0.60059,0.59912,0.59717,0.59717,0.59619,0.59522,0.59424,0.59228,0.59082,0.58887,0.58789,0.58789,0.58691,0.58691,0.58594,0.58398,0.58203,0.58105,0.58105,0.58008,0.57812,0,0,0,0,0,0,0,0,0,0,0,0,0,0,0,0,0,0,0,0,0,0,0,0,0,0,0,0,0,0,0,0,0,0,0,0,0,0,0,0,0,0,0,0,0,0,0
