0.94922,0.94922,0.94922,0.94922,0.94922,0.95215,0.95215,0.95215,0.95215,0.95215,0.95215,0.95215,0.95215,0.95215,0.95215,0.95215,0.95215,0.95215,0.95215,0.95215,0.95215,0.95215,0.95215,0.95215,0.95215,0.95215,0.95508,0.95508,0.95508,0.95508,0.95508,0.95508,0.95508,0.95508,0.95215,0.95508,0.95508,0.95508,0.95508,0.95508,0.95508,0.95508,0.95508,0.95508,0.95508,0.95508,0.95508,0.95508,0.95752,0.95801,0.95801,0.95801,0.95801,0.95508,0.95508,0.95508,0.95508,0.95508,0.95801,0.96045,0.96045,0.96045,0.96045,0.96045,0.96045,0.96045,0.96045,0.96338,0.96045,0.96045,0.96338,0.96045,0.95801,0.95801,0.95801,0.95801,0.96045,0.96045,0.96045,0.96045,0.96338,0.96338,0.96338,0.96338,0.96338,0.96338,0.96338,0.96338,0.96338,0.96338,0.96338,0.96045,0.95801,0.95801,0.95801,0.96094,0.96094,0.96094,0.96338,0.96338,0.96338,0.96338,0.96338,0.96338,0.96338,0.96338,0.96094,0.96338,0.96338,0.96338,0.96631,0.96631,0.96631,0.96338,0.96338,0.96338,0.96338,0.96338,0.96338,0.96631,0.96631,0.96631,0.96631,0.96338,0.96631,0.96631,0.96631,0.96631,0.96631,0.96631,0.96924,0.96924,0.96924,0.96924,0.96924,0.96924,0.96924,0.96924,0.96924,0.96924,0.96924,0.96924,0.96924,0.96924,0.96924,0.96924,0.96924,0.96924,0.96924,0.96924,0.96924,0.96924,0.96924,0.96924,0.96924,0.96924,0.96924,0.96631,0.96924,0.96924,0.96924,0.96924,0.96924,0.96924,0.96924,0.96924,0.96924,0.96924,0.96924,0.96924,0.96924,0.96924,0.96924,0.96924,0.96924,0.96924,0.96924,0.96924,0.96924,0.96924,0.96924,0.96924,0.96924,0.96924,0.96924,0.96924,0.96924,0.96924,0.96924,0.96924,0.96924,0.96924,0.96973,0.96973,0.96973,0.96973,0.96973,0.96973,0.96973,0.96973,0.96973,0.97217,0.97217,0.97217,0.97217,0.97217,0.97217,0.97217,0.97217,0.97217,0.97217,0.97217,0.97217,0.97217,0.9751,0.9751,0.9751,0.9751,0.9751,0.9751,0.9751,0.9751,0.9751,0.9751,0.9751,0.9751,0.9751,0.9751,0.9751,0.97803,0.97803,0.97803,0.97803,0.97803,0.97803,0.97803,0.9751,0.9751,0.9751,0.97559,0.9751,0.97803,0.98096,0.98389,0.98389,0.98682,0.98682,0.98682,0.98682,0.98682,0.98682,0.98682,0.98682,0.98682,0.98975,0.98975,0.98682,0.98682,0.98975,0.98975,0.98975,0.98682,0.98682,0.98682,0.98682,0.98682,0.98682,0.98682,0.98975,0.98975,0.98682,0.98682,0.98975,0.98975,0.98975,0.98682,0.98682,0.98682,0.98682,0.98682,0.98682,0.98682,0,0,0,1.2188,1.2236,1.2236,1.2188,1.2188,1.2188,1.2148,1.2148,1.2148,1.2148,1.2148,1.2188,1.2148,1.21,1.21,1.21,1.21,1.21,1.2061,1.21,1.21,1.2061,1.2061,1.2061,1.2012,1.2012,1.1973,1.1973,1.1973,1.1973,1.1973,1.1973,1.1934,1.1934,1.1934,1.1885,1.1885,1.1885,1.1885,1.1895,1.1846,1.1846,1.1846,1.1846,1.1807,1.1807,1.1807,1.1807,1.1807,1.1807,1.1768,1.1729,1.1729,1.1689,1.1729,1.1689,1.1689,1.1689,1.1689,1.1689,1.1729,1.1729,1.1689,1.1689,1.1689,1.1689,1.1641,1.1641,1.1641,1.1562,1.1562,1.1562,1.1562,1.1523,1.1523,1.1523,1.1523,1.1484,1.1523,1.1484,1.1484,1.1484,1.1484,1.1484,1.1445,1.1445,1.1445,1.1445,1.1406,1.1406,1.1406,1.1406,1.1406,1.1367,1.1367,1.1367,1.1367,1.1367,1.1367,1.1367,1.1338,1.1338,1.1299,1.126,1.126,1.126,1.126,1.126,1.126,1.1221,1.1182,1.1143,1.1113,1.1113,1.1113,1.1113,1.1113,1.1113,1.1113,1.1113,1.1113,1.1113,1.1113,1.1113,1.1074,1.1074,1.1074,1.1074,1.1074,1.1074,1.1074,1.1074,1.1035,1.1006,1.1006,1.1006,1.1006,1.0967,1.0967,0,0,0,0,0,0,0,0,0,0,0,0,0,0,0,0,0,0,0,0,0,0,0,0,0,0,0,0,0,0,0,0
0.94922,0.94922,0.94922,0.94971,0.95215,0.95215,0.95215,0.95215,0.95215,0.95215,0.95215,0.95215,0.95215,0.95215,0.95215,0.95215,0.95215,0.95215,0.95215,0.95215,0.95215,0.95215,0.95215,0.95215,0.95215,0.95508,0.95508,0.95215,0.95508,0.95215,0.95508,0.95508,0.95215,0.95508,0.95508,0.95508,0.95508,0.95508,0.95508,0.95508,0.95508,0.95508,0.95508,0.95508,0.95508,0.95508,0.95508,0.95508,0.95801,0.95801,0.95508,0.95508,0.95508,0.95508,0.95508,0.95508,0.95508,0.95801,0.95801,0.96045,0.95801,0.95801,0.95801,0.96045,0.96045,0.96045,0.96045,0.96045,0.96338,0.96045,0.96338,0.96045,0.96045,0.95801,0.95801,0.96045,0.96045,0.96045,0.96045,0.96045,0.96045,0.96338,0.96045,0.96338,0.96045,0.96338,0.96338,0.96338,0.96338,0.96338,0.96094,0.96094,0.96094,0.96094,0.95801,0.96094,0.95801,0.96094,0.96094,0.96094,0.96338,0.96338,0.96338,0.96338,0.96338,0.96338,0.96338,0.96338,0.96338,0.96338,0.96631,0.96631,0.96338,0.96338,0.96338,0.96338,0.96338,0.96631,0.96338,0.96631,0.96631,0.96631,0.96631,0.96631,0.96631,0.96631,0.96631,0.96631,0.96631,0.96631,0.96924,0.96924,0.96924,0.96924,0.96924,0.96924,0.96924,0.96924,0.96924,0.96924,0.96924,0.96924,0.96924,0.96924,0.96924,0.96924,0.96924,0.96924,0.96924,0.96924,0.96924,0.97217,0.96924,0.96924,0.96924,0.96924,0.96924,0.96924,0.96924,0.96924,0.96924,0.96924,0.96924,0.96924,0.96924,0.96924,0.96924,0.96924,0.96924,0.96924,0.96924,0.96924,0.96924,0.96924,0.96924,0.96924,0.96924,0.96924,0.96924,0.96924,0.96924,0.96924,0.96924,0.96924,0.96924,0.96924,0.96973,0.96973,0.96973,0.96973,0.96973,0.96973,0.96973,0.96973,0.96973,0.96973,0.96973,0.96973,0.96973,0.96973,0.96973,0.97217,0.97217,0.97217,0.97217,0.97217,0.97217,0.97217,0.97217,0.97217,0.97266,0.97266,0.97266,0.97266,0.9751,0.9751,0.9751,0.9751,0.9751,0.9751,0.9751,0.9751,0.9751,0.9751,0.9751,0.9751,0.9751,0.9751,0.9751,0.97803,0.97803,0.97803,0.97803,0.97803,0.97803,0.97803,0.97803,0.97559,0.97559,0.97559,0.97559,0.97803,0.97803,0.98389,0.98389,0.98682,0.98682,0.98682,0.98682,0.98682,0.98682,0.98682,0.98682,0.98975,0.98975,0.98975,0.98975,0.98682,0.98682,0.98682,0.98682,0.98682,0.98682,0.98389,0.98682,0.98682,0.98682,0.98682,0.98975,0.98975,0.98682,0.98682,0.98975,0.98975,0.98682,0.98682,0.98682,0.98682,0.98682,0.98682,0.98389,0,0,0,1.2236,1.2236,1.2236,1.2236,1.2188,1.2188,1.2188,1.2148,1.2148,1.2148,1.2148,1.2188,1.2148,1.2148,1.2148,1.2148,1.21,1.21,1.21,1.2061,1.21,1.21,1.2061,1.2061,1.2061,1.2012,1.2012,1.1973,1.1973,1.1973,1.1973,1.1973,1.1973,1.1973,1.1973,1.1934,1.1934,1.1934,1.1895,1.1895,1.1895,1.1846,1.1846,1.1846,1.1846,1.1846,1.1807,1.1807,1.1807,1.1807,1.1768,1.1729,1.1729,1.1729,1.1689,1.1689,1.1689,1.1689,1.1689,1.1689,1.1689,1.1729,1.1689,1.1689,1.1689,1.1689,1.1689,1.1689,1.165,1.165,1.1602,1.1602,1.1562,1.1562,1.1562,1.1562,1.1523,1.1523,1.1523,1.1523,1.1484,1.1484,1.1484,1.1484,1.1484,1.1445,1.1445,1.1445,1.1406,1.1406,1.1406,1.1406,1.1406,1.1406,1.1377,1.1377,1.1377,1.1377,1.1377,1.1377,1.1338,1.1338,1.1338,1.1299,1.126,1.126,1.126,1.126,1.126,1.126,1.1221,1.1221,1.1182,1.1152,1.1152,1.1113,1.1113,1.1113,1.1113,1.1113,1.1113,1.1113,1.1113,1.1113,1.1113,1.1113,1.1074,1.1074,1.1074,1.1074,1.1113,1.1074,1.1074,1.1074,1.1035,1.1006,1.1006,1.1006,1.0967,1.0967,0,0,0,0,0,0,0,0,0,0,0,0,0,0,0,0,0,0,0,0,0,0,0,0,0,0,0,0,0,0,0,0
0.95215,0.94971,0.94971,0.94971,0.95215,0.95215,0.95215,0.95215,0.95215,0.95215,0.95215,0.95215,0.95215,0.95215,0.95215,0.95215,0.95508,0.95215,0.95215,0.95215,0.95215,0.95215,0.95215,0.95215,0.95215,0.95508,0.95508,0.95508,0.95508,0.95508,0.95508,0.95508,0.95508,0.95508,0.95508,0.95508,0.95508,0.95508,0.95508,0.95508,0.95508,0.95508,0.95508,0.95508,0.95508,0.95508,0.95508,0.95508,0.95508,0.95508,0.95508,0.95508,0.95508,0.95508,0.95508,0.95508,0.95508,0.95508,0.95508,0.95801,0.96045,0.96045,0.95801,0.96045,0.96045,0.96045,0.96045,0.96045,0.96045,0.96045,0.96045,0.96045,0.95801,0.95801,0.95801,0.96045,0.96045,0.96045,0.96045,0.96338,0.96338,0.96338,0.96338,0.96338,0.96094,0.96338,0.96338,0.96338,0.96338,0.96338,0.96094,0.96094,0.96094,0.96094,0.96094,0.96094,0.96094,0.96094,0.96094,0.96338,0.96338,0.96338,0.96338,0.96338,0.96631,0.96338,0.96338,0.96338,0.96338,0.96338,0.96631,0.96338,0.96387,0.96387,0.96387,0.96631,0.96631,0.96631,0.96387,0.96631,0.96631,0.96631,0.96631,0.96631,0.96631,0.96631,0.96631,0.96631,0.96631,0.96631,0.96924,0.96924,0.96924,0.96924,0.96924,0.96924,0.96924,0.96924,0.96924,0.96924,0.96924,0.96924,0.96924,0.96924,0.96924,0.96924,0.96924,0.96924,0.96924,0.96924,0.96924,0.96924,0.96924,0.96924,0.96924,0.96924,0.96924,0.96924,0.96924,0.96924,0.96924,0.96924,0.96924,0.96924,0.96924,0.96924,0.96924,0.96924,0.96924,0.96924,0.96924,0.96924,0.97217,0.96924,0.96924,0.96924,0.96924,0.96924,0.96973,0.96973,0.96973,0.96973,0.96973,0.96973,0.96973,0.96973,0.96973,0.96973,0.96973,0.96973,0.96973,0.96973,0.96973,0.96973,0.96973,0.97217,0.97217,0.96973,0.96973,0.96973,0.96973,0.97217,0.97217,0.97266,0.97266,0.97266,0.97266,0.97266,0.97266,0.97266,0.97266,0.97266,0.97266,0.97266,0.97266,0.9751,0.9751,0.9751,0.9751,0.9751,0.9751,0.9751,0.9751,0.9751,0.97559,0.97559,0.97559,0.97559,0.97559,0.97803,0.97803,0.97803,0.97803,0.97559,0.97559,0.97803,0.97803,0.97803,0.97559,0.97559,0.97559,0.97803,0.97852,0.98096,0.98389,0.98682,0.98682,0.98682,0.98682,0.98682,0.98682,0.98682,0.98682,0.98682,0.98975,0.98975,0.98682,0.98682,0.98682,0.98682,0.98682,0.98682,0.98682,0.98389,0.98682,0.98682,0.98682,0.98682,0.98682,0.98682,0.98682,0.98682,0.98975,0.98975,0.98682,0.98682,0.98682,0.98682,0.98682,0.98682,0.98682,0,0,0,1.2236,1.2275,1.2275,1.2236,1.2236,1.2236,1.2188,1.2188,1.2188,1.2188,1.2188,1.2188,1.2188,1.2148,1.2148,1.2148,1.21,1.21,1.2061,1.2061,1.2061,1.21,1.21,1.2061,1.2061,1.2061,1.2021,1.2021,1.1973,1.2021,1.2021,1.2021,1.1973,1.1973,1.1973,1.1973,1.1973,1.1934,1.1934,1.1934,1.1846,1.1846,1.1846,1.1846,1.1846,1.1846,1.1846,1.1807,1.1807,1.1807,1.1768,1.1729,1.1729,1.1729,1.1729,1.1729,1.1729,1.1689,1.1689,1.1689,1.1689,1.1729,1.1729,1.1729,1.1689,1.1729,1.1689,1.1689,1.165,1.1602,1.1602,1.1602,1.1602,1.1602,1.1562,1.1562,1.1523,1.1523,1.1523,1.1523,1.1484,1.1484,1.1484,1.1523,1.1484,1.1445,1.1406,1.1406,1.1406,1.1406,1.1406,1.1406,1.1406,1.1377,1.1377,1.1377,1.1377,1.1377,1.1377,1.1377,1.1338,1.1338,1.1338,1.1299,1.1299,1.126,1.1221,1.126,1.1221,1.126,1.1221,1.1221,1.1182,1.1152,1.1152,1.1152,1.1152,1.1113,1.1113,1.1113,1.1113,1.1113,1.1113,1.1113,1.1113,1.1113,1.1074,1.1074,1.1074,1.1074,1.1113,1.1074,1.1074,1.1074,1.1074,1.1045,1.1045,1.1006,1.1006,1.1006,0,0,0,0,0,0,0,0,0,0,0,0,0,0,0,0,0,0,0,0,0,0,0,0,0,0,0,0,0,0,0,0
0.95215,0.95215,0.95215,0.95215,0.95215,0.95215,0.95215,0.95215,0.95215,0.95215,0.95215,0.95215,0.95215,0.95215,0.95215,0.95215,0.95508,0.95215,0.95215,0.95215,0.95215,0.95215,0.95215,0.95215,0.95215,0.95215,0.95508,0.95508,0.95508,0.95508,0.95508,0.95508,0.95508,0.95508,0.95508,0.95508,0.95508,0.95508,0.95801,0.95508,0.95508,0.95508,0.95508,0.95508,0.95508,0.95508,0.95508,0.95508,0.95508,0.95508,0.95508,0.95508,0.95508,0.95508,0.95508,0.95508,0.95508,0.95508,0.95508,0.95801,0.95801,0.96045,0.95801,0.95801,0.96094,0.95801,0.96094,0.95801,0.96094,0.96094,0.96094,0.95801,0.95801,0.95801,0.95801,0.96094,0.96094,0.96094,0.96094,0.96338,0.96338,0.96338,0.96338,0.96338,0.96338,0.96338,0.96338,0.96338,0.96338,0.96338,0.96338,0.96094,0.96094,0.96094,0.96094,0.96094,0.96094,0.96094,0.96094,0.96094,0.96338,0.96338,0.96338,0.96631,0.96631,0.96338,0.96387,0.96387,0.96631,0.96387,0.96631,0.96387,0.96387,0.96387,0.96387,0.96387,0.96631,0.96631,0.96631,0.96631,0.96631,0.96631,0.96631,0.96631,0.96631,0.96924,0.96631,0.96631,0.96631,0.96631,0.96924,0.96924,0.96631,0.96924,0.96631,0.96924,0.96924,0.96924,0.96924,0.96924,0.96924,0.96924,0.96924,0.96924,0.96924,0.96924,0.96924,0.96924,0.96924,0.96924,0.96924,0.96924,0.96924,0.96924,0.96924,0.96924,0.96924,0.96924,0.96924,0.96924,0.96924,0.96924,0.96924,0.96924,0.96973,0.96973,0.96973,0.96973,0.96973,0.96973,0.96924,0.97217,0.97217,0.96973,0.97217,0.96973,0.96973,0.96973,0.97217,0.96973,0.96973,0.96973,0.96973,0.96973,0.96973,0.96973,0.96973,0.96973,0.96973,0.96973,0.96973,0.96973,0.97217,0.96973,0.97217,0.97266,0.97266,0.97266,0.97266,0.97266,0.97266,0.97266,0.97266,0.97266,0.97266,0.97266,0.97266,0.97266,0.97266,0.97266,0.97266,0.97266,0.97266,0.97266,0.9751,0.9751,0.9751,0.97559,0.97559,0.97559,0.97559,0.97559,0.97559,0.97559,0.97559,0.97559,0.97559,0.97559,0.97559,0.97559,0.97559,0.97559,0.97559,0.97559,0.97559,0.97803,0.97559,0.97559,0.97559,0.97559,0.97559,0.97852,0.97852,0.98096,0.98389,0.98682,0.98682,0.98682,0.98682,0.98682,0.98682,0.98682,0.98682,0.98682,0.98975,0.98682,0.98682,0.98682,0.98682,0.98682,0.98682,0.98682,0.98682,0.98389,0.98389,0.98682,0.98682,0.98682,0.98682,0.98389,0.98682,0.98438,0.98975,0.98682,0.98682,0.98682,0.98682,0.98682,0.98682,0.98438,0.98438,0.9873,0,0,0,1.2324,1.2324,1.2236,1.2236,1.2188,1.2188,1.2188,1.2188,1.2188,1.2188,1.2188,1.2188,1.2188,1.2148,1.2148,1.21,1.21,1.2061,1.2061,1.2061,1.2061,1.2148,1.2061,1.2061,1.2061,1.2061,1.2021,1.1973,1.2021,1.2021,1.2021,1.1973,1.1973,1.1973,1.1973,1.1973,1.1973,1.1934,1.1934,1.1934,1.1895,1.1846,1.1846,1.1846,1.1846,1.1846,1.1846,1.1846,1.1807,1.1807,1.1768,1.1729,1.1729,1.1689,1.1729,1.1689,1.1689,1.1689,1.1689,1.1689,1.1729,1.1729,1.1689,1.1689,1.1729,1.1689,1.1689,1.1689,1.165,1.1611,1.1611,1.1611,1.1611,1.1562,1.1562,1.1562,1.1523,1.1523,1.1523,1.1523,1.1523,1.1484,1.1523,1.1484,1.1484,1.1445,1.1455,1.1455,1.1455,1.1416,1.1416,1.1416,1.1377,1.1377,1.1377,1.1377,1.1377,1.1377,1.1377,1.1338,1.1377,1.1338,1.1338,1.126,1.126,1.126,1.126,1.126,1.126,1.1221,1.1221,1.1221,1.1182,1.1182,1.1152,1.1152,1.1152,1.1113,1.1113,1.1113,1.1113,1.1113,1.1113,1.1113,1.1113,1.1113,1.1074,1.1074,1.1074,1.1113,1.1113,1.1113,1.1113,1.1113,1.1074,1.1045,1.1045,1.1006,1.1006,0,0,0,0,0,0,0,0,0,0,0,0,0,0,0,0,0,0,0,0,0,0,0,0,0,0,0,0,0,0,0,0
0.95215,0.95215,0.95215,0.95215,0.95215,0.95215,0.95215,0.95215,0.95215,0.95215,0.95215,0.95215,0.95215,0.95215,0.95215,0.95215,0.95508,0.95215,0.95215,0.95215,0.95215,0.95215,0.95215,0.95215,0.95215,0.95508,0.95508,0.95508,0.95508,0.95264,0.95508,0.95264,0.95508,0.95508,0.95508,0.95508,0.95508,0.95508,0.95801,0.95508,0.95508,0.95508,0.95508,0.95508,0.95508,0.95508,0.95508,0.95508,0.95508,0.95508,0.95508,0.95508,0.95508,0.95508,0.95508,0.95508,0.95508,0.95508,0.95508,0.96094,0.95801,0.95801,0.95801,0.95801,0.96094,0.95801,0.96094,0.95801,0.96094,0.96094,0.96094,0.95801,0.95801,0.95801,0.95801,0.96094,0.96094,0.96338,0.96094,0.96094,0.96094,0.96338,0.96338,0.96338,0.96338,0.96338,0.96338,0.96338,0.96338,0.96338,0.96338,0.96094,0.96094,0.96094,0.96094,0.96094,0.96094,0.96094,0.96094,0.96094,0.96387,0.96387,0.96387,0.96631,0.96631,0.96631,0.96631,0.96631,0.96387,0.96387,0.96387,0.96387,0.96387,0.96387,0.96387,0.96631,0.96631,0.96631,0.96631,0.96631,0.96631,0.96631,0.96924,0.96631,0.96631,0.96924,0.96631,0.96631,0.96631,0.9668,0.96924,0.96924,0.96924,0.96924,0.96924,0.96924,0.96924,0.96924,0.96924,0.96924,0.96924,0.96924,0.96924,0.96924,0.96924,0.96924,0.96924,0.96924,0.96924,0.96924,0.96924,0.96924,0.96924,0.96924,0.96924,0.9668,0.9668,0.96973,0.96973,0.96973,0.9668,0.96973,0.96973,0.96973,0.96973,0.9668,0.96973,0.96973,0.96973,0.96973,0.96973,0.96973,0.97217,0.96973,0.97217,0.96973,0.97217,0.96973,0.97217,0.97217,0.96973,0.97217,0.96973,0.96973,0.96973,0.96973,0.96973,0.96973,0.96973,0.96973,0.96973,0.97266,0.97266,0.97266,0.97266,0.97266,0.97266,0.97266,0.97266,0.97266,0.97266,0.9751,0.9751,0.9751,0.97266,0.97266,0.9751,0.97266,0.97266,0.97266,0.97266,0.97266,0.97559,0.97559,0.97266,0.97266,0.97266,0.97559,0.97559,0.97559,0.97559,0.97559,0.97559,0.97559,0.97559,0.97559,0.97559,0.97559,0.97559,0.97559,0.97559,0.97559,0.97559,0.97559,0.97559,0.97559,0.97559,0.97559,0.97559,0.97559,0.97559,0.97559,0.97852,0.98145,0.98389,0.98682,0.98682,0.98682,0.98682,0.98682,0.98682,0.98682,0.98682,0.98682,0.98389,0.98682,0.98682,0.98682,0.98682,0.98438,0.98438,0.98438,0.98682,0.98438,0.98438,0.98682,0.98682,0.98682,0.98438,0.98438,0.98438,0.98438,0.9873,0.9873,0.9873,0.9873,0.9873,0.9873,0.9873,0.98438,0.98438,0,0,0,1.2324,1.2324,1.2324,1.2188,1.2188,1.2236,1.2275,1.2236,1.2236,1.2188,1.2188,1.2188,1.2188,1.2188,1.2148,1.2148,1.21,1.21,1.21,1.21,1.2061,1.2061,1.21,1.2061,1.2061,1.2061,1.2061,1.2021,1.2021,1.2021,1.2021,1.2021,1.1973,1.1973,1.1973,1.1973,1.1973,1.1973,1.1973,1.1973,1.1934,1.1895,1.1895,1.1895,1.1846,1.1846,1.1846,1.1846,1.1846,1.1807,1.1807,1.1768,1.1729,1.1729,1.1689,1.1689,1.1689,1.1689,1.1689,1.1689,1.1689,1.1729,1.1729,1.1689,1.1689,1.1689,1.1689,1.1689,1.1689,1.165,1.1611,1.1611,1.1611,1.1611,1.1611,1.1572,1.1572,1.1572,1.1572,1.1533,1.1533,1.1533,1.1533,1.1494,1.1533,1.1533,1.1494,1.1494,1.1494,1.1416,1.1455,1.1416,1.1416,1.1377,1.1377,1.1377,1.1377,1.1377,1.1377,1.1377,1.1377,1.1377,1.1338,1.1338,1.1338,1.1299,1.126,1.126,1.126,1.126,1.1221,1.1221,1.1221,1.1182,1.1182,1.1152,1.1152,1.1113,1.1113,1.1113,1.1113,1.1113,1.1113,1.1113,1.1113,1.1113,1.1113,1.1074,1.1074,1.1074,1.1113,1.1113,1.1113,1.1113,1.1113,1.1074,1.1045,1.1045,1.1006,1.1006,0,0,0,0,0,0,0,0,0,0,0,0,0,0,0,0,0,0,0,0,0,0,0,0,0,0,0,0,0,0,0,0
0.95215,0.95215,0.95215,0.95215,0.95215,0.95215,0.95215,0.95215,0.95215,0.95215,0.95215,0.95215,0.95215,0.95215,0.95215,0.95215,0.95215,0.95215,0.95215,0.95215,0.95264,0.95264,0.95264,0.95264,0.95264,0.95508,0.95264,0.95508,0.95264,0.95264,0.95508,0.95508,0.95508,0.95508,0.95508,0.95508,0.95508,0.95508,0.95508,0.95508,0.95508,0.95508,0.95508,0.95508,0.95508,0.95508,0.95508,0.95508,0.95508,0.95508,0.95508,0.95508,0.95508,0.95508,0.95508,0.95508,0.95508,0.95508,0.95508,0.96094,0.95801,0.96094,0.95801,0.95801,0.96094,0.96094,0.96094,0.95801,0.95801,0.95801,0.95801,0.95801,0.95801,0.95801,0.96094,0.96094,0.96094,0.96338,0.96094,0.96094,0.96094,0.96094,0.96338,0.96094,0.96387,0.96387,0.96387,0.96387,0.96387,0.96387,0.96338,0.96387,0.96094,0.96094,0.96094,0.96094,0.96094,0.96094,0.96094,0.96387,0.96387,0.96387,0.96387,0.96631,0.96631,0.96631,0.96387,0.96387,0.96387,0.96387,0.96387,0.96387,0.96387,0.96387,0.96387,0.96631,0.96631,0.96631,0.96631,0.96631,0.96631,0.96631,0.9668,0.9668,0.96924,0.9668,0.9668,0.9668,0.9668,0.9668,0.96924,0.96924,0.96924,0.96924,0.96924,0.96924,0.96924,0.96924,0.96924,0.96924,0.96924,0.96924,0.96924,0.96924,0.96924,0.96924,0.96924,0.96924,0.96924,0.96973,0.96973,0.96973,0.96973,0.96973,0.96973,0.9668,0.9668,0.96973,0.96973,0.96973,0.9668,0.96973,0.96973,0.96973,0.96973,0.96973,0.96973,0.96973,0.96973,0.96973,0.96973,0.97217,0.97217,0.96973,0.97266,0.96973,0.97266,0.97266,0.97266,0.97266,0.97266,0.97266,0.96973,0.97266,0.96973,0.96973,0.96973,0.96973,0.96973,0.96973,0.96973,0.97266,0.97266,0.97266,0.97266,0.97266,0.97266,0.97266,0.97266,0.97266,0.97266,0.9751,0.9751,0.97559,0.97266,0.97266,0.97266,0.97266,0.97559,0.97266,0.97266,0.97559,0.97559,0.97559,0.97559,0.97559,0.97559,0.97559,0.97266,0.97266,0.97559,0.97559,0.97559,0.97559,0.97559,0.97559,0.97559,0.97559,0.97559,0.97559,0.97559,0.97559,0.97559,0.97559,0.97559,0.97559,0.97559,0.97559,0.97559,0.97266,0.97559,0.97852,0.97852,0.98145,0.98389,0.98682,0.98682,0.98682,0.98682,0.98682,0.98682,0.98682,0.98682,0.98438,0.98438,0.98682,0.98682,0.98682,0.9873,0.9873,0.98438,0.9873,0.9873,0.9873,0.9873,0.9873,0.9873,0.9873,0.98438,0.98438,0.98438,0.98438,0.9873,0.9873,0.98438,0.98438,0.9873,0.9873,0.9873,0.98438,0.98438,0,0,0,1.2275,1.2324,1.2275,1.2188,1.2188,1.2188,1.2275,1.2236,1.2188,1.2236,1.2188,1.2188,1.2188,1.2188,1.2148,1.21,1.21,1.21,1.2109,1.2109,1.2061,1.2109,1.2109,1.2061,1.2061,1.2061,1.2021,1.2021,1.2021,1.2021,1.2021,1.2021,1.2021,1.1973,1.1973,1.1973,1.1973,1.1973,1.1973,1.1973,1.1973,1.1895,1.1895,1.1895,1.1895,1.1855,1.1855,1.1855,1.1855,1.1855,1.1807,1.1768,1.1768,1.1729,1.1689,1.1729,1.1689,1.1689,1.1689,1.1689,1.1689,1.1729,1.1729,1.1689,1.1689,1.1689,1.1689,1.1689,1.1689,1.165,1.165,1.165,1.1611,1.1611,1.1611,1.1572,1.1572,1.1572,1.1572,1.1572,1.1572,1.1533,1.1533,1.1533,1.1533,1.1533,1.1494,1.1494,1.1455,1.1416,1.1416,1.1416,1.1416,1.1416,1.1416,1.1377,1.1377,1.1377,1.1377,1.1377,1.1377,1.1377,1.1377,1.1338,1.1338,1.1299,1.1299,1.1299,1.126,1.126,1.126,1.1221,1.1221,1.1191,1.1191,1.1152,1.1152,1.1113,1.1152,1.1113,1.1152,1.1113,1.1113,1.1113,1.1113,1.1113,1.1113,1.1074,1.1074,1.1074,1.1113,1.1074,1.1074,1.1113,1.1074,1.1074,1.1045,1.1045,1.1006,1.1045,0,0,0,0,0,0,0,0,0,0,0,0,0,0,0,0,0,0,0,0,0,0,0,0,0,0,0,0,0,0,0,0
0.95215,0.95215,0.95215,0.95215,0.95215,0.95215,0.95215,0.95215,0.95215,0.95215,0.95215,0.95215,0.95215,0.95215,0.95264,0.95264,0.95264,0.95264,0.95264,0.95264,0.95264,0.95264,0.95264,0.95264,0.95264,0.95508,0.95264,0.95508,0.95508,0.95508,0.95508,0.95508,0.95508,0.95508,0.95508,0.95508,0.95508,0.95801,0.95508,0.95508,0.95508,0.95508,0.95508,0.95508,0.95508,0.95508,0.95508,0.95508,0.95508,0.95508,0.95508,0.95508,0.95508,0.95508,0.95508,0.95508,0.95557,0.95557,0.95557,0.95801,0.95801,0.95801,0.95801,0.96094,0.96094,0.96094,0.96094,0.95801,0.95801,0.95801,0.95801,0.96094,0.95801,0.95801,0.96094,0.96094,0.96094,0.96387,0.96094,0.96094,0.96094,0.96094,0.96094,0.96094,0.96387,0.96094,0.96387,0.96387,0.96387,0.96387,0.96387,0.96387,0.96387,0.96387,0.96094,0.96094,0.96094,0.96094,0.96094,0.96387,0.96387,0.96387,0.96387,0.96387,0.96631,0.96387,0.96387,0.96387,0.96387,0.96387,0.96387,0.96387,0.96387,0.96387,0.96387,0.9668,0.9668,0.9668,0.9668,0.9668,0.9668,0.9668,0.9668,0.9668,0.96924,0.9668,0.9668,0.9668,0.9668,0.9668,0.96924,0.96924,0.96924,0.96924,0.96924,0.96924,0.96924,0.96924,0.96924,0.96924,0.96924,0.96924,0.96973,0.96973,0.96973,0.96973,0.96973,0.96973,0.96973,0.96973,0.96973,0.9668,0.96973,0.9668,0.96973,0.9668,0.96973,0.96973,0.96973,0.96973,0.96973,0.96973,0.96973,0.96973,0.96973,0.96973,0.96973,0.96973,0.96973,0.96973,0.96973,0.97266,0.97266,0.97266,0.97266,0.97266,0.97266,0.97266,0.97266,0.97266,0.97266,0.97266,0.97266,0.97266,0.97266,0.96973,0.96973,0.96973,0.96973,0.96973,0.96973,0.97266,0.97266,0.97266,0.97266,0.97266,0.97266,0.97266,0.97266,0.97266,0.97266,0.97559,0.97559,0.97559,0.97266,0.97266,0.97266,0.97266,0.97559,0.97266,0.97559,0.97559,0.97559,0.97559,0.97559,0.97559,0.97559,0.97559,0.97559,0.97559,0.97559,0.97559,0.97559,0.97559,0.97559,0.97559,0.97559,0.97559,0.97559,0.97559,0.97559,0.97559,0.97559,0.97559,0.97559,0.97559,0.97559,0.97559,0.97266,0.97266,0.97559,0.97559,0.97852,0.98145,0.98438,0.98682,0.98682,0.98682,0.98682,0.98682,0.9873,0.9873,0.9873,0.98438,0.98438,0.9873,0.9873,0.9873,0.9873,0.9873,0.9873,0.9873,0.9873,0.9873,0.9873,0.9873,0.9873,0.9873,0.9873,0.9873,0.9873,0.9873,0.9873,0.98438,0.98438,0.98438,0.9873,0.9873,0.9873,0.98438,0.9873,0,0,0,1.2324,1.2324,1.2275,1.2236,1.2236,1.2188,1.2285,1.2236,1.2188,1.2236,1.2188,1.2188,1.2188,1.2188,1.2148,1.2148,1.2109,1.2109,1.2109,1.2109,1.2109,1.2109,1.2109,1.2109,1.2109,1.2109,1.2061,1.2021,1.2021,1.2021,1.2021,1.2021,1.2021,1.1973,1.1973,1.1973,1.1973,1.1973,1.1973,1.1973,1.1934,1.1895,1.1895,1.1895,1.1895,1.1895,1.1895,1.1855,1.1855,1.1855,1.1807,1.1807,1.1768,1.1729,1.1689,1.1729,1.1689,1.1689,1.1689,1.1689,1.1689,1.1729,1.1729,1.1689,1.1689,1.1689,1.1689,1.1689,1.1689,1.165,1.165,1.1689,1.165,1.1611,1.1611,1.1572,1.1611,1.1572,1.1572,1.1572,1.1572,1.1572,1.1572,1.1533,1.1494,1.1533,1.1494,1.1455,1.1455,1.1455,1.1416,1.1455,1.1416,1.1416,1.1416,1.1377,1.1377,1.1377,1.1377,1.1377,1.1377,1.1377,1.1299,1.1338,1.1338,1.126,1.126,1.126,1.126,1.126,1.126,1.1221,1.1221,1.1221,1.1221,1.1191,1.1152,1.1152,1.1152,1.1113,1.1152,1.1113,1.1113,1.1113,1.1113,1.1113,1.1113,1.1074,1.1074,1.1074,1.1113,1.1113,1.1113,1.1113,1.1074,1.1045,1.1006,1.1006,1.1045,1.1045,0,0,0,0,0,0,0,0,0,0,0,0,0,0,0,0,0,0,0,0,0,0,0,0,0,0,0,0,0,0,0,0
0.95264,0.95264,0.95264,0.95264,0.95215,0.95215,0.95264,0.95264,0.95264,0.95264,0.95264,0.95264,0.95264,0.95264,0.95264,0.95264,0.95264,0.95264,0.95264,0.95264,0.95264,0.95264,0.95264,0.95264,0.95264,0.95264,0.95264,0.95508,0.95508,0.95508,0.95508,0.95508,0.95508,0.95508,0.95508,0.95508,0.95508,0.95801,0.95508,0.95508,0.95508,0.95508,0.95508,0.95508,0.95508,0.95508,0.95508,0.95508,0.95508,0.95508,0.95557,0.95557,0.95557,0.95557,0.95557,0.95557,0.95557,0.95557,0.95557,0.96094,0.96094,0.96094,0.96094,0.96094,0.96094,0.96094,0.96094,0.95801,0.95801,0.96094,0.96094,0.96094,0.95801,0.96094,0.96094,0.96387,0.96094,0.96387,0.96094,0.96094,0.96387,0.96094,0.96387,0.96094,0.96094,0.96094,0.96094,0.96387,0.96387,0.96387,0.96387,0.96387,0.96387,0.96387,0.96094,0.96094,0.96094,0.96094,0.96094,0.96094,0.96387,0.96387,0.96387,0.96387,0.96387,0.96387,0.96387,0.96387,0.96387,0.96387,0.96387,0.96094,0.96094,0.96387,0.96387,0.9668,0.9668,0.9668,0.9668,0.9668,0.9668,0.9668,0.9668,0.9668,0.96924,0.9668,0.9668,0.9668,0.9668,0.9668,0.96924,0.96924,0.9668,0.9668,0.96924,0.96973,0.96973,0.96973,0.96973,0.96973,0.96973,0.96973,0.96973,0.96973,0.96973,0.96973,0.96973,0.96973,0.96973,0.96973,0.96973,0.96973,0.96973,0.9668,0.96973,0.96973,0.96973,0.96973,0.96973,0.96973,0.9668,0.96973,0.96973,0.96973,0.96973,0.96973,0.96973,0.96973,0.96973,0.96973,0.96973,0.97266,0.97266,0.97266,0.97266,0.97266,0.97266,0.97266,0.97266,0.97266,0.97266,0.97266,0.97266,0.97266,0.97266,0.96973,0.96973,0.96973,0.96973,0.96973,0.96973,0.96973,0.96973,0.97266,0.97266,0.97266,0.97266,0.97266,0.97266,0.97266,0.97266,0.97266,0.97559,0.97559,0.97266,0.97266,0.97559,0.97559,0.97559,0.97559,0.97559,0.97559,0.97559,0.97559,0.97559,0.97559,0.97559,0.97559,0.97559,0.97559,0.97559,0.97559,0.97559,0.97559,0.97559,0.97559,0.97559,0.97559,0.97559,0.97559,0.97559,0.97559,0.97559,0.97559,0.97559,0.97559,0.97559,0.97559,0.97559,0.97266,0.97559,0.97559,0.97852,0.98145,0.98438,0.98438,0.9873,0.9873,0.9873,0.9873,0.9873,0.9873,0.9873,0.9873,0.9873,0.9873,0.9873,0.9873,0.9873,0.9873,0.9873,0.9873,0.9873,0.9873,0.9873,0.9873,0.9873,0.9873,0.9873,0.9873,0.9873,0.9873,0.9873,0.9873,0.9873,0.9873,0.9873,0.9873,0.9873,0.98438,0.99023,0,0,0,1.2324,1.2324,1.2285,1.2285,1.2285,1.2236,1.2285,1.2236,1.2236,1.2236,1.2197,1.2236,1.2197,1.2148,1.2148,1.2148,1.2109,1.2148,1.2148,1.2109,1.2109,1.2109,1.2109,1.2109,1.2109,1.2109,1.2021,1.2021,1.2021,1.2021,1.2021,1.2021,1.2021,1.2021,1.2021,1.2021,1.1982,1.1982,1.1982,1.1982,1.1895,1.1895,1.1895,1.1895,1.1895,1.1895,1.1895,1.1855,1.1855,1.1855,1.1807,1.1768,1.1768,1.1768,1.1729,1.1729,1.1729,1.1689,1.1729,1.1689,1.1689,1.1729,1.1729,1.1729,1.1689,1.1689,1.1689,1.1689,1.1689,1.165,1.165,1.1689,1.165,1.1611,1.1611,1.1572,1.1572,1.1572,1.1572,1.1572,1.1572,1.1572,1.1572,1.1533,1.1533,1.1533,1.1494,1.1494,1.1455,1.1455,1.1416,1.1455,1.1416,1.1416,1.1416,1.1377,1.1377,1.1377,1.1377,1.1377,1.1338,1.1377,1.1338,1.1338,1.1338,1.1299,1.126,1.126,1.126,1.126,1.126,1.126,1.1221,1.1221,1.1221,1.1191,1.1191,1.1152,1.1152,1.1191,1.1152,1.1191,1.1191,1.1152,1.1074,1.1074,1.1074,1.1045,1.1045,1.1074,1.1113,1.1113,1.1113,1.1113,1.1074,1.1074,1.1045,1.1006,1.1045,1.1045,0,0,0,0,0,0,0,0,0,0,0,0,0,0,0,0,0,0,0,0,0,0,0,0,0,0,0,0,0,0,0,0
0.95264,0.95264,0.95264,0.95264,0.95264,0.95264,0.95264,0.95264,0.95264,0.95264,0.95264,0.95264,0.95264,0.95264,0.95508,0.95508,0.95264,0.95264,0.95264,0.95508,0.95264,0.95508,0.95264,0.95264,0.95508,0.95508,0.95264,0.95508,0.95508,0.95508,0.95508,0.95508,0.95508,0.95508,0.95508,0.95508,0.95508,0.95508,0.95508,0.95508,0.95508,0.95508,0.95557,0.95557,0.95557,0.95557,0.95557,0.95557,0.95801,0.95557,0.95557,0.95557,0.95557,0.95557,0.95557,0.95557,0.95557,0.95557,0.95557,0.96094,0.96094,0.96094,0.96094,0.96094,0.96094,0.96094,0.96094,0.95801,0.95801,0.95801,0.96094,0.96094,0.95801,0.96094,0.96094,0.96387,0.96094,0.96387,0.96094,0.96094,0.96094,0.96094,0.96387,0.96094,0.96094,0.96094,0.96094,0.96094,0.96387,0.96387,0.96387,0.96387,0.96387,0.96387,0.96387,0.96094,0.96387,0.96387,0.96094,0.96094,0.96387,0.96387,0.96387,0.96387,0.96387,0.96387,0.96387,0.96094,0.96094,0.96094,0.96094,0.96094,0.96094,0.96387,0.96387,0.9668,0.9668,0.9668,0.9668,0.9668,0.9668,0.9668,0.9668,0.9668,0.9668,0.9668,0.9668,0.9668,0.9668,0.9668,0.96973,0.96973,0.96973,0.9668,0.96973,0.96973,0.96973,0.9668,0.96973,0.96973,0.96973,0.96973,0.96973,0.96973,0.96973,0.96973,0.96973,0.96973,0.96973,0.96973,0.96973,0.96973,0.96973,0.96973,0.96973,0.96973,0.96973,0.96973,0.96973,0.9668,0.9668,0.96973,0.96973,0.96973,0.9668,0.9668,0.9668,0.9668,0.96973,0.96973,0.96973,0.97266,0.97266,0.97266,0.97266,0.97266,0.97266,0.97266,0.97266,0.97266,0.97266,0.97266,0.97266,0.97266,0.97266,0.97266,0.96973,0.96973,0.96973,0.96973,0.96973,0.96973,0.96973,0.97266,0.97266,0.97266,0.96973,0.96973,0.96973,0.96973,0.97266,0.97266,0.97559,0.97559,0.97559,0.97559,0.97559,0.97559,0.97559,0.97559,0.97559,0.97559,0.97559,0.97559,0.97559,0.97559,0.97559,0.97559,0.97559,0.97559,0.97559,0.97559,0.97266,0.97559,0.97559,0.97559,0.97559,0.97559,0.97559,0.97559,0.97559,0.97559,0.97559,0.97559,0.97559,0.97559,0.97559,0.97559,0.97559,0.97266,0.97266,0.97559,0.97559,0.98145,0.98438,0.98438,0.9873,0.9873,0.9873,0.9873,0.9873,0.9873,0.99023,0.9873,0.9873,0.9873,0.9873,0.9873,0.9873,0.9873,0.9873,0.9873,0.9873,0.9873,0.9873,0.9873,0.9873,0.9873,0.9873,0.9873,0.9873,0.9873,0.99023,0.9873,0.9873,0.9873,0.9873,0.9873,0.98438,0.9873,0,0,0,1.2324,1.2324,1.2373,1.2324,1.2324,1.2324,1.2324,1.2324,1.2285,1.2285,1.2236,1.2236,1.2236,1.2197,1.2148,1.2148,1.2148,1.2148,1.2148,1.2148,1.2148,1.2109,1.2109,1.2109,1.2109,1.2109,1.2109,1.2061,1.2021,1.2021,1.2021,1.2021,1.2021,1.2021,1.2021,1.1982,1.2021,1.1982,1.1982,1.1982,1.1982,1.1982,1.1934,1.1934,1.1934,1.1895,1.1934,1.1895,1.1895,1.1855,1.1855,1.1807,1.1807,1.1768,1.1768,1.1729,1.1768,1.1729,1.1729,1.1729,1.1729,1.1729,1.1729,1.1729,1.1729,1.1689,1.1689,1.1689,1.1689,1.1689,1.1689,1.165,1.165,1.165,1.1611,1.1611,1.1572,1.1611,1.1572,1.1572,1.1572,1.1572,1.1572,1.1572,1.1533,1.1533,1.1533,1.1494,1.1494,1.1455,1.1455,1.1416,1.1416,1.1416,1.1416,1.1416,1.1416,1.1377,1.1377,1.1377,1.1377,1.1338,1.1377,1.1338,1.1338,1.1299,1.1299,1.126,1.126,1.126,1.126,1.126,1.126,1.126,1.1221,1.1221,1.1221,1.1191,1.1152,1.1152,1.1191,1.1191,1.1191,1.1152,1.1152,1.1113,1.1074,1.1113,1.1074,1.1074,1.1045,1.1113,1.1074,1.1074,1.1074,1.1084,1.1045,1.1045,1.1045,1.1045,1.1045,0,0,0,0,0,0,0,0,0,0,0,0,0,0,0,0,0,0,0,0,0,0,0,0,0,0,0,0,0,0,0,0
0.95264,0.95264,0.95264,0.95264,0.95264,0.95264,0.95264,0.95264,0.95264,0.95264,0.95264,0.95264,0.95264,0.95508,0.95508,0.95508,0.95508,0.95264,0.95264,0.95264,0.95508,0.95508,0.95264,0.95264,0.95508,0.95508,0.95508,0.95508,0.95508,0.95508,0.95508,0.95508,0.95508,0.95508,0.95508,0.95557,0.95557,0.95557,0.95557,0.95557,0.95557,0.95557,0.95557,0.95557,0.95557,0.95557,0.95557,0.95557,0.95557,0.95557,0.95557,0.95557,0.95557,0.95557,0.95557,0.95557,0.95557,0.95801,0.95557,0.96094,0.96094,0.96094,0.95801,0.96094,0.96094,0.96094,0.96094,0.95801,0.95801,0.95801,0.96094,0.96094,0.96094,0.96094,0.96094,0.96387,0.96094,0.96387,0.96094,0.96094,0.96094,0.96094,0.96387,0.96094,0.96094,0.96094,0.96094,0.96094,0.96094,0.96387,0.96387,0.96387,0.96387,0.96387,0.96387,0.96387,0.96387,0.96387,0.96387,0.96387,0.96387,0.96387,0.96387,0.96387,0.96387,0.96094,0.96094,0.96094,0.96094,0.96094,0.96094,0.96143,0.96143,0.96387,0.96387,0.96387,0.96387,0.96387,0.9668,0.9668,0.9668,0.9668,0.9668,0.9668,0.9668,0.9668,0.9668,0.9668,0.9668,0.9668,0.96973,0.96973,0.96973,0.9668,0.9668,0.96973,0.9668,0.9668,0.96973,0.96973,0.96973,0.96973,0.96973,0.96973,0.96973,0.96973,0.96973,0.96973,0.96973,0.96973,0.96973,0.96973,0.96973,0.96973,0.96973,0.96973,0.96973,0.96973,0.96973,0.9668,0.9668,0.9668,0.96973,0.96973,0.96973,0.96973,0.96973,0.9668,0.96973,0.96973,0.96973,0.97266,0.97266,0.97266,0.97266,0.97266,0.97266,0.97266,0.97266,0.97266,0.97266,0.97266,0.97266,0.97266,0.97266,0.97266,0.96973,0.96973,0.96973,0.96973,0.96973,0.96973,0.96973,0.97266,0.97266,0.97266,0.96973,0.96973,0.96973,0.96973,0.96973,0.97266,0.97266,0.97559,0.97559,0.97559,0.97559,0.97559,0.97559,0.97559,0.97559,0.97559,0.97559,0.97559,0.97559,0.97559,0.97559,0.97559,0.97559,0.97559,0.97559,0.97559,0.97559,0.97559,0.97559,0.97559,0.97559,0.97559,0.97559,0.97559,0.97559,0.97559,0.97852,0.97559,0.97559,0.97559,0.97559,0.97559,0.97559,0.97266,0.97266,0.97559,0.97852,0.98145,0.98438,0.98438,0.9873,0.9873,0.9873,0.9873,0.9873,0.9873,0.9873,0.9873,0.9873,0.9873,0.9873,0.9873,0.9873,0.9873,0.9873,0.9873,0.9873,0.9873,0.9873,0.9873,0.9873,0.9873,0.9873,0.99023,0.99316,0.99023,0.99023,0.99023,0.99023,0.9873,0.9873,0.9873,0.98438,0.9873,0,0,0,1.2324,1.2324,1.2324,1.2324,1.2324,1.2285,1.2285,1.2324,1.2285,1.2285,1.2236,1.2197,1.2197,1.2148,1.2148,1.2148,1.2148,1.2148,1.2148,1.2148,1.2148,1.2148,1.2109,1.2109,1.2148,1.2109,1.2109,1.2061,1.2021,1.2021,1.2021,1.2021,1.2021,1.2021,1.2021,1.2021,1.2021,1.1982,1.1982,1.1982,1.1982,1.1934,1.1934,1.1895,1.1895,1.1895,1.1895,1.1895,1.1895,1.1855,1.1855,1.1855,1.1816,1.1816,1.1816,1.1768,1.1768,1.1768,1.1729,1.1729,1.1729,1.1729,1.1768,1.1729,1.1729,1.1729,1.1729,1.1689,1.1689,1.1689,1.165,1.165,1.165,1.165,1.165,1.1611,1.1611,1.165,1.1611,1.1572,1.1572,1.1572,1.1572,1.1572,1.1533,1.1533,1.1533,1.1494,1.1494,1.1494,1.1455,1.1455,1.1455,1.1455,1.1416,1.1416,1.1416,1.1416,1.1416,1.1377,1.1377,1.1377,1.1377,1.1338,1.1338,1.1338,1.1299,1.1299,1.126,1.126,1.126,1.126,1.126,1.126,1.123,1.123,1.123,1.123,1.1191,1.1191,1.1191,1.1152,1.1191,1.1152,1.1152,1.1113,1.1113,1.1113,1.1084,1.1084,1.1084,1.1113,1.1084,1.1084,1.1084,1.1084,1.1045,1.1045,1.1006,1.1006,1.1006,0,0,0,0,0,0,0,0,0,0,0,0,0,0,0,0,0,0,0,0,0,0,0,0,0,0,0,0,0,0,0,0
0.95264,0.95264,0.95264,0.95264,0.95264,0.95264,0.95264,0.95264,0.95264,0.95264,0.95264,0.95264,0.95264,0.95508,0.95508,0.95264,0.95508,0.95508,0.95508,0.95508,0.95557,0.95557,0.95557,0.95557,0.95557,0.95557,0.95557,0.95508,0.95557,0.95557,0.95557,0.95557,0.95557,0.95557,0.95557,0.95557,0.95557,0.95557,0.95557,0.95557,0.95557,0.95557,0.95557,0.95557,0.95557,0.95557,0.95557,0.95557,0.95557,0.95557,0.95557,0.95557,0.95557,0.95557,0.95557,0.95557,0.95557,0.95801,0.95801,0.96094,0.96094,0.96094,0.95801,0.96094,0.96094,0.96094,0.96094,0.95801,0.9585,0.96094,0.96094,0.96094,0.96094,0.96094,0.96094,0.96387,0.96094,0.96387,0.96094,0.96094,0.96094,0.96094,0.96094,0.96094,0.96094,0.9585,0.96094,0.96094,0.96094,0.96387,0.96387,0.96387,0.96387,0.96387,0.96387,0.96094,0.96094,0.96387,0.96387,0.96387,0.96387,0.96387,0.96387,0.96387,0.96387,0.96387,0.96143,0.96143,0.96143,0.96143,0.96143,0.96143,0.96143,0.96387,0.96387,0.96387,0.96387,0.96387,0.96387,0.96387,0.9668,0.9668,0.9668,0.9668,0.9668,0.9668,0.9668,0.9668,0.9668,0.9668,0.96973,0.96973,0.96973,0.9668,0.9668,0.96973,0.9668,0.9668,0.9668,0.96973,0.96973,0.96973,0.96973,0.96973,0.96973,0.96973,0.96973,0.96973,0.96973,0.96973,0.96973,0.96973,0.96973,0.96973,0.96973,0.96973,0.96973,0.96973,0.96973,0.9668,0.9668,0.96973,0.96973,0.96973,0.96973,0.96973,0.96973,0.9668,0.96973,0.96973,0.97266,0.97266,0.97266,0.96973,0.97266,0.97266,0.97266,0.97266,0.97266,0.97266,0.97266,0.97266,0.97266,0.97266,0.97266,0.97266,0.96973,0.96973,0.97266,0.96973,0.96973,0.96973,0.96973,0.97266,0.97266,0.97266,0.97266,0.97266,0.97266,0.97266,0.96973,0.97266,0.97266,0.97559,0.97559,0.97559,0.97559,0.97559,0.97852,0.97559,0.97559,0.97559,0.97559,0.97559,0.97559,0.97559,0.97559,0.97559,0.97559,0.97559,0.97559,0.97559,0.97559,0.97559,0.97559,0.97559,0.97559,0.97559,0.97559,0.97559,0.97559,0.97559,0.97559,0.97559,0.97559,0.97559,0.97559,0.97559,0.97559,0.97315,0.97559,0.97559,0.97559,0.98145,0.98438,0.9873,0.9873,0.9873,0.9873,0.9873,0.9873,0.9873,0.9873,0.98438,0.9873,0.9873,0.9873,0.99023,0.9873,0.99023,0.99023,0.99023,0.9873,0.9873,0.9873,0.9873,0.9873,0.9873,0.9873,0.99023,0.99316,0.99316,0.99316,0.99023,0.99023,0.99023,0.9873,0.9873,0.9873,0.99609,0.99609,0,0,1.2324,1.2324,1.2324,1.2324,1.2324,1.2324,1.2285,1.2324,1.2324,1.2285,1.2236,1.2197,1.2197,1.2148,1.2148,1.2148,1.2148,1.2148,1.2148,1.2148,1.2148,1.2148,1.2148,1.2148,1.2148,1.2148,1.2109,1.2061,1.2061,1.2061,1.2021,1.2021,1.2021,1.2021,1.2021,1.1982,1.1982,1.1982,1.1982,1.1982,1.1982,1.1934,1.1934,1.1895,1.1895,1.1895,1.1895,1.1895,1.1895,1.1855,1.1855,1.1855,1.1855,1.1855,1.1816,1.1816,1.1816,1.1768,1.1768,1.1729,1.1729,1.1729,1.1768,1.1729,1.1729,1.1729,1.1729,1.1689,1.1689,1.1689,1.165,1.165,1.1689,1.165,1.165,1.1611,1.1611,1.165,1.1572,1.1572,1.1572,1.1572,1.1572,1.1572,1.1533,1.1533,1.1533,1.1533,1.1494,1.1494,1.1455,1.1455,1.1455,1.1455,1.1416,1.1416,1.1416,1.1416,1.1416,1.1377,1.1377,1.1377,1.1377,1.1338,1.1338,1.1338,1.1299,1.1299,1.1299,1.126,1.126,1.126,1.126,1.126,1.123,1.123,1.1191,1.1191,1.1191,1.1191,1.1191,1.1152,1.1191,1.1152,1.1152,1.1113,1.1113,1.1113,1.1113,1.1084,1.1084,1.1113,1.1113,1.1113,1.1113,1.1084,1.1084,1.1045,1.1045,1.1006,1.1006,0,0,0,0,0,0,0,0,0,0,0,0,0,0,0,0,0,0,0,0,0,0,0,0,0,0,0,0,0,0,0,0
0.95264,0.95264,0.95264,0.95264,0.95264,0.95264,0.95264,0.95264,0.95264,0.95264,0.95264,0.95264,0.95508,0.95557,0.95557,0.95557,0.95557,0.95557,0.95557,0.95557,0.95557,0.95557,0.95557,0.95557,0.95557,0.95264,0.95557,0.95557,0.95557,0.95557,0.95557,0.95557,0.95557,0.95557,0.95557,0.95557,0.95557,0.95557,0.95557,0.95557,0.95557,0.95557,0.95557,0.95557,0.95557,0.95557,0.95557,0.95557,0.95557,0.95557,0.95557,0.95557,0.95557,0.95557,0.95557,0.95801,0.95801,0.95801,0.95801,0.96094,0.96094,0.96094,0.96094,0.96094,0.96094,0.96094,0.96094,0.96094,0.96094,0.96094,0.96094,0.96094,0.96094,0.96094,0.96094,0.96387,0.96387,0.96387,0.96387,0.96387,0.96387,0.96094,0.96387,0.96094,0.9585,0.9585,0.9585,0.96094,0.96094,0.96387,0.96387,0.96387,0.96387,0.96387,0.96387,0.96387,0.96387,0.96387,0.96387,0.96387,0.96387,0.96387,0.96387,0.96387,0.96387,0.96143,0.96143,0.96143,0.96143,0.96143,0.96143,0.96387,0.96387,0.96387,0.96387,0.9668,0.96387,0.96387,0.96387,0.96387,0.9668,0.9668,0.9668,0.9668,0.9668,0.9668,0.9668,0.9668,0.9668,0.9668,0.96973,0.96973,0.96973,0.96973,0.96973,0.96973,0.9668,0.9668,0.96973,0.96973,0.96973,0.96973,0.96973,0.96973,0.96973,0.96973,0.96973,0.96973,0.96973,0.96973,0.96973,0.96973,0.96973,0.96973,0.96973,0.96973,0.96973,0.96973,0.96973,0.96973,0.96973,0.96973,0.96973,0.96973,0.96973,0.96973,0.96973,0.96973,0.96973,0.96973,0.96973,0.96973,0.96973,0.96973,0.96973,0.96973,0.97266,0.97266,0.97266,0.97266,0.97266,0.97266,0.97266,0.97266,0.97266,0.97266,0.96973,0.96973,0.96973,0.96973,0.96973,0.96973,0.96973,0.97266,0.97266,0.97266,0.97022,0.97022,0.97022,0.97022,0.97022,0.97266,0.97266,0.97266,0.97559,0.97559,0.97559,0.97559,0.97559,0.97559,0.97559,0.97559,0.97559,0.97559,0.97559,0.97559,0.97559,0.97559,0.97559,0.97559,0.97559,0.97559,0.97559,0.97559,0.97559,0.97559,0.97559,0.97559,0.97559,0.97559,0.97559,0.97559,0.97559,0.97559,0.97559,0.97559,0.97559,0.97559,0.97559,0.97315,0.97559,0.97559,0.97559,0.97852,0.98145,0.9873,0.9873,0.99023,0.9873,0.9873,0.9873,0.9873,0.9873,0.9873,0.9873,0.9873,0.99023,0.99023,0.9873,0.99023,0.99316,0.99023,0.9873,0.9873,0.9873,0.9873,0.9873,0.99023,0.9873,0.99316,0.99316,0.99316,0.99316,0.99023,0.99023,0.99023,0.9873,0.9873,0.9873,0.99023,0.99316,0,0,0,1.2373,1.2324,1.2324,1.2324,1.2324,1.2324,1.2285,1.2324,1.2285,1.2285,1.2236,1.2236,1.2197,1.2197,1.2148,1.2148,1.2148,1.2148,1.2148,1.2148,1.2148,1.2148,1.2148,1.2148,1.2148,1.2148,1.2061,1.2061,1.2021,1.2061,1.2021,1.2021,1.2021,1.2021,1.2021,1.2021,1.1982,1.1982,1.1982,1.1982,1.1934,1.1934,1.1934,1.1895,1.1895,1.1895,1.1895,1.1895,1.1895,1.1855,1.1895,1.1855,1.1855,1.1816,1.1816,1.1816,1.1816,1.1768,1.1768,1.1768,1.1768,1.1768,1.1768,1.1729,1.1729,1.1729,1.1689,1.1689,1.165,1.165,1.165,1.165,1.165,1.165,1.1611,1.1611,1.165,1.1572,1.1572,1.1572,1.1572,1.1572,1.1572,1.1533,1.1533,1.1533,1.1533,1.1533,1.1494,1.1455,1.1455,1.1455,1.1455,1.1416,1.1416,1.1416,1.1416,1.1416,1.1416,1.1377,1.1377,1.1377,1.1338,1.1338,1.1338,1.1299,1.126,1.126,1.126,1.126,1.126,1.126,1.126,1.123,1.123,1.123,1.1191,1.1152,1.1191,1.1152,1.1152,1.1152,1.1152,1.1152,1.1113,1.1113,1.1113,1.1113,1.1113,1.1084,1.1113,1.1113,1.1113,1.1113,1.1084,1.1084,1.1045,1.1006,1.1006,1.1006,0,0,0,0,0,0,0,0,0,0,0,0,0,0,0,0,0,0,0,0,0,0,0,0,0,0,0,0,0,0,0,0
0.95264,0.95264,0.95264,0.95264,0.95264,0.95264,0.95264,0.95264,0.95264,0.95264,0.95264,0.95264,0.95557,0.95557,0.95557,0.95557,0.95557,0.95557,0.95557,0.95557,0.95557,0.95557,0.95557,0.95557,0.95557,0.95264,0.95557,0.95557,0.95557,0.95557,0.95557,0.95557,0.95557,0.95557,0.95557,0.95557,0.95557,0.95557,0.95557,0.95557,0.95557,0.95557,0.95557,0.95557,0.95557,0.95557,0.95801,0.95801,0.95557,0.95557,0.95557,0.95557,0.95557,0.95557,0.9585,0.9585,0.9585,0.9585,0.9585,0.96094,0.96094,0.96094,0.96094,0.96094,0.96094,0.96094,0.96094,0.96094,0.96094,0.96094,0.96094,0.96094,0.96387,0.96387,0.96387,0.96387,0.96387,0.9668,0.96387,0.96387,0.96387,0.96387,0.96387,0.96094,0.96094,0.9585,0.9585,0.96094,0.96094,0.96387,0.96387,0.96387,0.96387,0.96387,0.96387,0.96387,0.96143,0.96387,0.96387,0.96387,0.96387,0.96387,0.96387,0.96387,0.96387,0.96143,0.96143,0.96387,0.96143,0.96387,0.96387,0.96387,0.96387,0.96387,0.96387,0.9668,0.9668,0.9668,0.96387,0.96387,0.9668,0.9668,0.9668,0.9668,0.9668,0.9668,0.9668,0.9668,0.9668,0.9668,0.96973,0.96973,0.9668,0.9668,0.9668,0.96973,0.9668,0.9668,0.96973,0.96973,0.96973,0.96973,0.96973,0.96973,0.96973,0.96973,0.96973,0.96973,0.96973,0.96973,0.96973,0.96973,0.96973,0.96973,0.96973,0.96973,0.96973,0.96973,0.96973,0.96973,0.96973,0.96973,0.96973,0.96973,0.96973,0.96973,0.96973,0.96973,0.96973,0.96973,0.96973,0.96973,0.96973,0.96973,0.96973,0.96973,0.96973,0.96973,0.97266,0.97266,0.97266,0.97266,0.97266,0.97266,0.97266,0.97266,0.96973,0.96973,0.97266,0.97022,0.97022,0.97022,0.97022,0.97266,0.97266,0.97266,0.97022,0.97022,0.97022,0.97022,0.97022,0.97266,0.97266,0.97559,0.97559,0.97559,0.97559,0.97559,0.97559,0.97559,0.97559,0.97559,0.97559,0.97559,0.97559,0.97559,0.97559,0.97559,0.97559,0.97559,0.97559,0.97559,0.97559,0.97559,0.97852,0.97559,0.97559,0.97559,0.97559,0.97559,0.97559,0.97559,0.97559,0.97559,0.97559,0.97559,0.97559,0.97559,0.97559,0.97315,0.97559,0.97607,0.97852,0.98145,0.98438,0.9873,0.99023,0.9873,0.9873,0.9873,0.9873,0.9873,0.9873,0.9873,0.9873,0.9873,0.99023,0.99023,0.99023,0.99023,0.99023,0.99023,0.99316,0.99023,0.99316,0.9873,0.9873,0.9873,0.9873,0.99609,0.99609,0.99609,0.99609,0.99609,0.99316,0.99023,0.9873,0.9873,0.9873,0.99023,0.99609,0,0,0,1.2373,1.2373,1.2373,1.2324,1.2324,1.2324,1.2324,1.2285,1.2285,1.2236,1.2236,1.2197,1.2197,1.2197,1.2197,1.2197,1.2148,1.2148,1.2148,1.2148,1.2148,1.2148,1.2148,1.2148,1.2148,1.2148,1.2061,1.2061,1.2061,1.2061,1.207,1.2021,1.2021,1.2021,1.2021,1.2021,1.2021,1.1982,1.1982,1.1982,1.1982,1.1934,1.1934,1.1895,1.1895,1.1895,1.1895,1.1895,1.1895,1.1855,1.1895,1.1855,1.1855,1.1855,1.1816,1.1816,1.1816,1.1816,1.1777,1.1777,1.1777,1.1777,1.1777,1.1777,1.1729,1.1777,1.1729,1.1689,1.1689,1.1689,1.165,1.165,1.165,1.165,1.165,1.165,1.165,1.1611,1.1572,1.1572,1.1572,1.1572,1.1572,1.1533,1.1533,1.1533,1.1533,1.1494,1.1494,1.1455,1.1455,1.1416,1.1416,1.1416,1.1416,1.1416,1.1416,1.1416,1.1416,1.1377,1.1377,1.1377,1.1338,1.1338,1.1299,1.1299,1.1299,1.126,1.126,1.127,1.127,1.127,1.127,1.123,1.123,1.123,1.1191,1.1191,1.1191,1.1152,1.1152,1.1152,1.1152,1.1113,1.1113,1.1113,1.1113,1.1113,1.1113,1.1084,1.1113,1.1113,1.1113,1.1113,1.1113,1.1084,1.1045,1.1006,1.1006,1.1006,0,0,0,0,0,0,0,0,0,0,0,0,0,0,0,0,0,0,0,0,0,0,0,0,0,0,0,0,0,0,0,0
0.95264,0.95264,0.95264,0.95264,0.95264,0.95264,0.95264,0.95264,0.95264,0.95264,0.95264,0.95264,0.95557,0.95557,0.95557,0.95557,0.95557,0.95557,0.95557,0.95264,0.95557,0.95557,0.95557,0.95557,0.95557,0.95557,0.95557,0.95557,0.95557,0.95557,0.95557,0.95557,0.95557,0.95557,0.95557,0.95557,0.95557,0.95557,0.95557,0.95557,0.95557,0.95557,0.95557,0.95557,0.95557,0.95557,0.9585,0.9585,0.95557,0.95557,0.95557,0.95557,0.95557,0.95557,0.95557,0.9585,0.9585,0.9585,0.9585,0.96094,0.96387,0.96387,0.96094,0.96094,0.96094,0.96094,0.96094,0.96094,0.96094,0.96094,0.96094,0.96387,0.96387,0.96387,0.96387,0.96387,0.96387,0.9668,0.9668,0.96387,0.96387,0.96094,0.96094,0.96143,0.96143,0.96143,0.9585,0.96143,0.96143,0.96387,0.96387,0.96387,0.96387,0.96387,0.96387,0.96387,0.96143,0.96387,0.96387,0.96387,0.96387,0.96387,0.96387,0.96387,0.96143,0.96387,0.96387,0.96387,0.96387,0.96387,0.96387,0.96387,0.96387,0.9668,0.9668,0.9668,0.9668,0.9668,0.9668,0.9668,0.9668,0.9668,0.9668,0.9668,0.9668,0.9668,0.9668,0.9668,0.9668,0.9668,0.96973,0.96973,0.96973,0.96973,0.9668,0.96973,0.9668,0.9668,0.96973,0.96973,0.96973,0.96973,0.96973,0.96973,0.96973,0.96973,0.96973,0.96973,0.96973,0.96973,0.96973,0.96973,0.96973,0.96973,0.96973,0.96973,0.96973,0.96973,0.96973,0.96973,0.96973,0.96728,0.96973,0.96973,0.96973,0.96973,0.96973,0.96973,0.96973,0.96973,0.96973,0.96973,0.96973,0.96973,0.96973,0.96973,0.96973,0.96973,0.97266,0.97266,0.97266,0.97266,0.97266,0.97266,0.97266,0.97266,0.97022,0.97022,0.97022,0.97022,0.97022,0.97022,0.97022,0.97266,0.97266,0.97266,0.97022,0.97022,0.97022,0.97022,0.97022,0.97266,0.97266,0.97559,0.97559,0.97559,0.97559,0.97559,0.97559,0.97559,0.97559,0.97559,0.97559,0.97559,0.97559,0.97559,0.97559,0.97559,0.97559,0.97559,0.97559,0.97559,0.97559,0.97559,0.97559,0.97559,0.97559,0.97607,0.97607,0.97607,0.97607,0.97607,0.97559,0.97559,0.97607,0.97607,0.97607,0.97607,0.97607,0.97607,0.97607,0.97607,0.97852,0.97852,0.98438,0.9873,0.9873,0.9873,0.9873,0.9873,0.9873,0.9873,0.9873,0.9873,0.9873,0.9873,0.99023,0.9873,0.99023,0.99023,0.99023,0.99023,0.99023,0.99023,0.99316,0.99023,0.9873,0.99023,0.99316,0.99609,0.99609,0.99609,0.99902,0.99902,0.99316,0.99023,0.9873,0.9873,0.9873,0.9873,0.99316,0,0,0,1.2373,1.2373,1.2373,1.2373,1.2373,1.2324,1.2324,1.2285,1.2285,1.2236,1.2236,1.2197,1.2197,1.2197,1.2197,1.2197,1.2197,1.2148,1.2148,1.2148,1.2148,1.2148,1.2148,1.2148,1.2148,1.2148,1.207,1.207,1.207,1.207,1.2021,1.2021,1.2021,1.2021,1.2021,1.2021,1.2021,1.1982,1.1982,1.1982,1.1982,1.1982,1.1943,1.1895,1.1895,1.1895,1.1895,1.1895,1.1895,1.1895,1.1895,1.1855,1.1855,1.1855,1.1855,1.1816,1.1816,1.1816,1.1777,1.1777,1.1777,1.1777,1.1777,1.1777,1.1729,1.1777,1.1729,1.1689,1.1689,1.1689,1.1689,1.165,1.165,1.165,1.165,1.165,1.165,1.1611,1.1572,1.1572,1.1572,1.1572,1.1572,1.1533,1.1533,1.1533,1.1533,1.1533,1.1494,1.1494,1.1455,1.1455,1.1455,1.1416,1.1416,1.1416,1.1416,1.1416,1.1416,1.1377,1.1377,1.1377,1.1338,1.1299,1.1299,1.1299,1.1299,1.127,1.127,1.127,1.127,1.127,1.127,1.123,1.123,1.123,1.1191,1.1191,1.1191,1.1152,1.1152,1.1152,1.1113,1.1113,1.1113,1.1113,1.1113,1.1113,1.1113,1.1113,1.1152,1.1113,1.1113,1.1113,1.1113,1.1084,1.1045,1.1006,1.1006,1.1006,0,0,0,0,0,0,0,0,0,0,0,0,0,0,0,0,0,0,0,0,0,0,0,0,0,0,0,0,0,0,0,0
0.95264,0.95264,0.95264,0.95264,0.9502,0.95264,0.95264,0.95264,0.95264,0.95264,0.95557,0.95557,0.95557,0.95557,0.95557,0.95557,0.95557,0.95557,0.95557,0.95557,0.95557,0.95557,0.95557,0.95557,0.95557,0.95557,0.95557,0.95557,0.95557,0.95557,0.95557,0.95557,0.95557,0.95557,0.95557,0.95557,0.95557,0.95557,0.95557,0.95557,0.9585,0.95557,0.9585,0.9585,0.95557,0.9585,0.9585,0.95557,0.9585,0.95557,0.95557,0.9585,0.9585,0.9585,0.9585,0.9585,0.9585,0.9585,0.9585,0.96094,0.96094,0.96094,0.96094,0.96094,0.96094,0.96094,0.96094,0.96094,0.96094,0.96094,0.96387,0.96387,0.96387,0.96387,0.96387,0.96387,0.96387,0.9668,0.96387,0.96387,0.96387,0.96387,0.96143,0.96143,0.96143,0.96143,0.96143,0.96143,0.96143,0.96387,0.96387,0.96387,0.96143,0.96387,0.96143,0.96387,0.96143,0.96387,0.96387,0.96387,0.96387,0.96387,0.96387,0.96387,0.96387,0.96387,0.96387,0.96387,0.96387,0.96435,0.96435,0.96435,0.96435,0.9668,0.9668,0.9668,0.9668,0.9668,0.9668,0.9668,0.9668,0.9668,0.9668,0.9668,0.9668,0.9668,0.9668,0.9668,0.9668,0.9668,0.96973,0.96973,0.9668,0.96973,0.9668,0.9668,0.9668,0.9668,0.96973,0.96973,0.96973,0.96973,0.96973,0.96973,0.96973,0.96973,0.96973,0.96973,0.96973,0.96973,0.96973,0.96973,0.96973,0.96973,0.96973,0.96973,0.96973,0.96973,0.96973,0.96973,0.96973,0.96973,0.96973,0.96973,0.96973,0.96973,0.96973,0.96973,0.96973,0.96973,0.96973,0.96973,0.96973,0.96973,0.97022,0.97022,0.97022,0.97022,0.97266,0.97266,0.97266,0.97266,0.97266,0.97266,0.97266,0.97266,0.97022,0.97022,0.97022,0.97022,0.97022,0.97022,0.97022,0.97266,0.97266,0.97022,0.97022,0.97022,0.97022,0.97022,0.97022,0.97315,0.97559,0.97559,0.97559,0.97559,0.97559,0.97559,0.97559,0.97559,0.97559,0.97559,0.97559,0.97559,0.97559,0.97559,0.97559,0.97315,0.97559,0.97559,0.97607,0.97607,0.97607,0.97607,0.97607,0.97607,0.97607,0.97607,0.97607,0.97607,0.97607,0.97607,0.97607,0.97607,0.97607,0.97607,0.97607,0.97607,0.97607,0.97607,0.97607,0.97607,0.97852,0.98145,0.98438,0.98438,0.9873,0.9873,0.9873,0.9873,0.9873,0.9873,0.9873,0.9873,0.9873,0.9873,0.9873,0.99023,0.99023,0.99023,0.99023,0.99316,0.99023,0.99023,0.99316,0.99023,0.9873,0.99023,0.99609,0.99902,0.99902,0.99902,0.99902,0.99902,0.99316,0.99023,0.9873,0.9873,0.9873,0.9873,0.99023,0.99023,0,0,1.2373,1.2373,1.2373,1.2373,1.2373,1.2334,1.2334,1.2285,1.2285,1.2236,1.2236,1.2197,1.2197,1.2197,1.2197,1.2197,1.2197,1.2197,1.2148,1.2197,1.2148,1.2148,1.2148,1.2148,1.2148,1.2148,1.207,1.207,1.207,1.207,1.207,1.2021,1.2021,1.2021,1.2021,1.2021,1.2021,1.1982,1.1982,1.1982,1.1982,1.1943,1.1895,1.1895,1.1895,1.1895,1.1895,1.1895,1.1895,1.1895,1.1855,1.1855,1.1855,1.1855,1.1855,1.1816,1.1816,1.1777,1.1777,1.1729,1.1729,1.1777,1.1777,1.1729,1.1729,1.1777,1.1729,1.1729,1.1689,1.1689,1.165,1.1689,1.165,1.165,1.165,1.165,1.165,1.1611,1.1572,1.1572,1.1572,1.1572,1.1572,1.1572,1.1572,1.1533,1.1533,1.1533,1.1533,1.1494,1.1455,1.1455,1.1455,1.1416,1.1455,1.1416,1.1416,1.1416,1.1416,1.1416,1.1377,1.1338,1.1338,1.1338,1.1299,1.1299,1.1299,1.127,1.127,1.127,1.127,1.127,1.127,1.127,1.123,1.123,1.123,1.1191,1.1191,1.1152,1.1152,1.1152,1.1113,1.1113,1.1123,1.1123,1.1123,1.1123,1.1123,1.1123,1.1152,1.1123,1.1123,1.1123,1.1123,1.1084,1.1084,1.1045,1.1045,1.1006,0,0,0,0,0,0,0,0,0,0,0,0,0,0,0,0,0,0,0,0,0,0,0,0,0,0,0,0,0,0,0,0
0.95264,0.95264,0.95264,0.95264,0.95264,0.95264,0.95264,0.95264,0.95264,0.95264,0.95557,0.95264,0.95557,0.95557,0.95557,0.95557,0.95557,0.95557,0.95557,0.95557,0.95557,0.95557,0.95557,0.95557,0.95557,0.95557,0.95557,0.95557,0.95557,0.95557,0.95557,0.95557,0.95557,0.95557,0.95557,0.95557,0.95557,0.95557,0.95557,0.9585,0.9585,0.9585,0.9585,0.9585,0.9585,0.9585,0.95557,0.95557,0.9585,0.95557,0.9585,0.9585,0.9585,0.9585,0.9585,0.9585,0.9585,0.9585,0.9585,0.96094,0.96094,0.96094,0.96094,0.96094,0.96094,0.96094,0.96387,0.96094,0.96143,0.96143,0.96387,0.96387,0.96387,0.96387,0.96387,0.96387,0.96387,0.96387,0.96387,0.96387,0.96387,0.96387,0.96143,0.96143,0.96143,0.96143,0.96143,0.96387,0.96143,0.96387,0.96387,0.96387,0.96143,0.96387,0.96387,0.96387,0.96387,0.96387,0.96387,0.96387,0.9668,0.9668,0.9668,0.96435,0.96435,0.96435,0.96435,0.96435,0.96435,0.96435,0.96435,0.9668,0.9668,0.9668,0.9668,0.9668,0.9668,0.9668,0.9668,0.9668,0.9668,0.9668,0.9668,0.9668,0.9668,0.9668,0.96973,0.96973,0.96973,0.9668,0.96973,0.96973,0.96973,0.96973,0.96973,0.96973,0.96973,0.96973,0.96973,0.96973,0.96973,0.96973,0.96973,0.96973,0.96973,0.96973,0.96973,0.96973,0.96973,0.96973,0.96973,0.96973,0.97266,0.96973,0.96973,0.96973,0.96973,0.96973,0.96973,0.96973,0.96973,0.96973,0.96973,0.96973,0.96973,0.96973,0.96973,0.97022,0.97022,0.97022,0.97022,0.97022,0.97022,0.97022,0.97022,0.97022,0.97022,0.97022,0.97022,0.97022,0.97022,0.97266,0.97266,0.97022,0.97266,0.97022,0.97022,0.97022,0.97266,0.97266,0.97266,0.97315,0.97315,0.97315,0.97315,0.97315,0.97315,0.97315,0.97022,0.97315,0.97022,0.97315,0.97315,0.97315,0.97315,0.97559,0.97559,0.97559,0.97852,0.97559,0.97559,0.97559,0.97607,0.97607,0.97607,0.97607,0.97315,0.97315,0.97315,0.97607,0.97607,0.97607,0.97607,0.97607,0.97607,0.97607,0.97607,0.97607,0.97607,0.97607,0.97607,0.97607,0.97607,0.97607,0.97607,0.97607,0.97607,0.97607,0.97607,0.97607,0.97607,0.97607,0.979,0.98145,0.98438,0.9873,0.9873,0.99023,0.99023,0.9873,0.9873,0.9873,0.9873,0.9873,0.99023,0.9873,0.99023,0.99023,0.99023,0.99023,0.99023,0.99316,0.99023,0.99023,0.99023,0.99023,0.9873,0.9873,0.99902,1.002,0.99902,0.99902,1.002,1.002,0.99316,0.99023,0.99023,0.98779,0.98779,0.98779,0.99072,0.98779,0,0,0,1.2373,1.2373,1.2373,1.2334,1.2334,1.2334,1.2285,1.2236,1.2236,1.2236,1.2197,1.2197,1.2197,1.2197,1.2197,1.2197,1.2197,1.2148,1.2197,1.2148,1.2148,1.2148,1.2158,1.2158,1.2109,1.2109,1.207,1.207,1.207,1.207,1.2021,1.2021,1.2021,1.2021,1.2021,1.2021,1.1982,1.1982,1.1943,1.1943,1.1943,1.1895,1.1855,1.1855,1.1895,1.1895,1.1895,1.1895,1.1855,1.1855,1.1855,1.1855,1.1855,1.1816,1.1816,1.1816,1.1777,1.1777,1.1729,1.1729,1.1777,1.1777,1.1777,1.1738,1.1777,1.1738,1.1738,1.1689,1.1689,1.1689,1.1689,1.1689,1.1689,1.165,1.165,1.165,1.1611,1.1572,1.1572,1.1572,1.1572,1.1572,1.1533,1.1533,1.1533,1.1533,1.1533,1.1533,1.1494,1.1455,1.1455,1.1455,1.1455,1.1455,1.1416,1.1416,1.1416,1.1416,1.1416,1.1416,1.1377,1.1338,1.1338,1.1338,1.1299,1.1299,1.1299,1.127,1.127,1.127,1.127,1.127,1.127,1.123,1.123,1.1191,1.1191,1.1191,1.1191,1.1152,1.1152,1.1152,1.1123,1.1123,1.1123,1.1123,1.1123,1.1123,1.1123,1.1152,1.1152,1.1123,1.1123,1.1123,1.1123,1.1084,1.1045,1.1045,1.1045,0,0,0,0,0,0,0,0,0,0,0,0,0,0,0,0,0,0,0,0,0,0,0,0,0,0,0,0,0,0,0,0
0.95264,0.95264,0.95264,0.95264,0.95264,0.95264,0.95264,0.95264,0.95557,0.95557,0.95557,0.95557,0.95557,0.95557,0.95557,0.95557,0.95557,0.95557,0.95557,0.95557,0.95557,0.95557,0.95557,0.95557,0.95557,0.95557,0.95557,0.95557,0.95557,0.95557,0.95557,0.95557,0.95557,0.95557,0.95557,0.95557,0.95557,0.95557,0.95557,0.9585,0.9585,0.9585,0.9585,0.9585,0.96094,0.9585,0.9585,0.9585,0.9585,0.9585,0.9585,0.9585,0.9585,0.9585,0.9585,0.96143,0.96143,0.96143,0.96143,0.96387,0.96387,0.96143,0.96143,0.96143,0.96143,0.96387,0.96387,0.96387,0.96143,0.96387,0.96387,0.96387,0.96387,0.96387,0.9668,0.9668,0.96387,0.96387,0.96387,0.96387,0.96387,0.96143,0.96143,0.96143,0.96143,0.96143,0.96143,0.96387,0.96143,0.96387,0.96387,0.96387,0.96143,0.96387,0.96435,0.96435,0.96435,0.96435,0.96435,0.96435,0.9668,0.9668,0.96435,0.96435,0.96435,0.96435,0.96435,0.96435,0.9668,0.96435,0.9668,0.9668,0.9668,0.9668,0.9668,0.9668,0.9668,0.9668,0.9668,0.9668,0.9668,0.9668,0.9668,0.9668,0.9668,0.96728,0.96973,0.96973,0.96728,0.96728,0.96973,0.96973,0.96973,0.96973,0.96973,0.96728,0.96973,0.96973,0.96973,0.96973,0.96973,0.96973,0.96973,0.96973,0.96973,0.96973,0.96973,0.96973,0.96973,0.96973,0.96973,0.96973,0.97266,0.97022,0.97022,0.97022,0.97022,0.97022,0.97022,0.97022,0.97022,0.97022,0.97022,0.97022,0.97022,0.97022,0.97022,0.97022,0.97022,0.97022,0.97022,0.97022,0.97022,0.97022,0.97022,0.97022,0.97022,0.97022,0.97266,0.97266,0.97266,0.97266,0.97266,0.97022,0.97315,0.97022,0.97315,0.97022,0.97315,0.97315,0.97315,0.97315,0.97315,0.97315,0.97315,0.97315,0.97315,0.97315,0.97315,0.97315,0.97315,0.97559,0.97315,0.97315,0.97559,0.97607,0.97607,0.97607,0.97607,0.97607,0.97607,0.97607,0.97607,0.97607,0.97607,0.97607,0.97315,0.97315,0.97315,0.97315,0.97315,0.97607,0.97315,0.97607,0.97607,0.97607,0.97607,0.97607,0.97607,0.97607,0.97607,0.97607,0.97607,0.97607,0.97607,0.97607,0.97607,0.97607,0.97607,0.97607,0.97607,0.97607,0.979,0.98193,0.98438,0.9873,0.9873,0.99023,0.99023,0.9873,0.9873,0.9873,0.9873,0.9873,0.99023,0.99023,0.99023,0.99023,0.99023,0.99023,0.99023,0.99023,0.99023,0.9873,0.99023,0.99023,0.98779,0.99023,0.99902,0.99902,1.002,0.99951,0.99951,0.99951,0.99316,0.99072,0.99072,0.98779,0.98779,0.98779,0.99072,0.98779,0,0,0,1.2373,1.2373,1.2373,1.2334,1.2334,1.2334,1.2285,1.2285,1.2246,1.2246,1.2197,1.2197,1.2197,1.2197,1.2197,1.2197,1.2197,1.2158,1.2197,1.2158,1.2158,1.2158,1.2158,1.2109,1.2158,1.2109,1.207,1.207,1.207,1.207,1.207,1.2021,1.2021,1.2021,1.2021,1.2021,1.1982,1.1982,1.1982,1.1982,1.1943,1.1895,1.1895,1.1943,1.1895,1.1895,1.1895,1.1895,1.1855,1.1855,1.1855,1.1855,1.1855,1.1816,1.1816,1.1816,1.1777,1.1777,1.1738,1.1738,1.1777,1.1777,1.1777,1.1777,1.1777,1.1738,1.1738,1.1689,1.1689,1.1689,1.1689,1.1689,1.1689,1.165,1.165,1.1611,1.1611,1.1572,1.1572,1.1572,1.1572,1.1572,1.1572,1.1533,1.1533,1.1533,1.1533,1.1533,1.1533,1.1455,1.1455,1.1455,1.1455,1.1455,1.1416,1.1416,1.1416,1.1416,1.1416,1.1416,1.1416,1.1377,1.1338,1.1338,1.1338,1.1309,1.1309,1.1309,1.1309,1.127,1.127,1.127,1.127,1.123,1.123,1.1191,1.1191,1.1191,1.1152,1.1152,1.1152,1.1152,1.1152,1.1123,1.1123,1.1123,1.1123,1.1123,1.1123,1.1152,1.1152,1.1123,1.1123,1.1123,1.1123,1.1084,1.1084,1.1045,1.1045,0,0,0,0,0,0,0,0,0,0,0,0,0,0,0,0,0,0,0,0,0,0,0,0,0,0,0,0,0,0,0,0
0.95264,0.95264,0.95264,0.95264,0.95264,0.95264,0.95264,0.95264,0.95264,0.95557,0.95557,0.95557,0.95557,0.95557,0.95557,0.95557,0.95557,0.95557,0.95557,0.95557,0.95557,0.95557,0.95557,0.95557,0.95557,0.95557,0.95557,0.95557,0.95557,0.95557,0.95557,0.95557,0.95557,0.95312,0.95557,0.95557,0.95557,0.95557,0.95557,0.9585,0.95557,0.9585,0.9585,0.9585,0.9585,0.9585,0.9585,0.9585,0.9585,0.9585,0.9585,0.9585,0.9585,0.9585,0.9585,0.96143,0.96143,0.96143,0.96143,0.96387,0.96387,0.96387,0.96387,0.96387,0.96387,0.96387,0.96387,0.96387,0.96387,0.96387,0.96387,0.96387,0.96387,0.96387,0.96387,0.96387,0.96387,0.96387,0.96387,0.96387,0.96387,0.96387,0.96143,0.96143,0.96143,0.96143,0.96143,0.96387,0.96143,0.96435,0.96435,0.96143,0.96143,0.96435,0.96435,0.96435,0.96143,0.96435,0.96435,0.96435,0.96435,0.96435,0.96435,0.96435,0.96435,0.96435,0.9668,0.9668,0.9668,0.9668,0.9668,0.9668,0.9668,0.9668,0.9668,0.9668,0.9668,0.9668,0.96728,0.96728,0.96728,0.96728,0.96728,0.96728,0.96728,0.96728,0.96973,0.96973,0.96728,0.96728,0.96973,0.96973,0.96728,0.96973,0.96973,0.96728,0.96973,0.96973,0.96973,0.96973,0.96973,0.96973,0.96973,0.96973,0.96973,0.97022,0.97022,0.97022,0.97022,0.97266,0.97266,0.97266,0.97266,0.97266,0.97266,0.97266,0.97266,0.97022,0.97022,0.97022,0.97022,0.97022,0.97022,0.97022,0.97022,0.97022,0.97022,0.97022,0.97022,0.97022,0.97022,0.97022,0.97022,0.97022,0.97266,0.97266,0.97315,0.97315,0.97315,0.97315,0.97315,0.97315,0.97315,0.97022,0.97022,0.97022,0.97315,0.97022,0.97022,0.97315,0.97315,0.97315,0.97315,0.97315,0.97315,0.97315,0.97315,0.97315,0.97315,0.97315,0.97315,0.97607,0.97315,0.97315,0.97315,0.97607,0.97607,0.97607,0.97607,0.97607,0.97607,0.97607,0.97607,0.97607,0.97607,0.97315,0.97315,0.97315,0.97315,0.97607,0.97607,0.97607,0.97607,0.97607,0.97607,0.97607,0.97607,0.97607,0.97607,0.97607,0.97607,0.97607,0.979,0.97607,0.97607,0.97607,0.97607,0.97607,0.97607,0.97607,0.97607,0.97607,0.979,0.98486,0.98486,0.9873,0.9873,0.99023,0.99023,0.99023,0.9873,0.9873,0.99023,0.99023,0.99316,0.99023,0.99023,0.99023,0.99316,0.99023,0.99023,0.99023,0.98779,0.98779,0.98779,0.98779,0.99072,0.98779,0.98779,0.99658,0.99658,0.99658,0.99658,0.99658,0.99072,0.98779,0.98779,0.98779,0.98486,0.98779,0.98486,0,0,0,1.2373,1.2373,1.2373,1.2334,1.2334,1.2334,1.2334,1.2285,1.2285,1.2246,1.2246,1.2197,1.2197,1.2197,1.2197,1.2197,1.2197,1.2158,1.2158,1.2158,1.2158,1.2158,1.2158,1.2158,1.2158,1.2158,1.2109,1.2109,1.207,1.207,1.2021,1.2021,1.207,1.207,1.2021,1.2021,1.2021,1.1982,1.1982,1.1982,1.1982,1.1943,1.1943,1.1943,1.1943,1.1895,1.1943,1.1895,1.1895,1.1855,1.1855,1.1855,1.1855,1.1816,1.1816,1.1816,1.1816,1.1777,1.1777,1.1777,1.1777,1.1777,1.1777,1.1777,1.1777,1.1777,1.1738,1.1738,1.1689,1.1689,1.1689,1.1689,1.1699,1.1699,1.1699,1.165,1.165,1.1611,1.1611,1.1572,1.1572,1.1572,1.1572,1.1572,1.1572,1.1572,1.1572,1.1533,1.1533,1.1533,1.1455,1.1455,1.1416,1.1416,1.1455,1.1416,1.1416,1.1416,1.1416,1.1416,1.1377,1.1377,1.1377,1.1338,1.1338,1.1338,1.1338,1.1309,1.1309,1.1309,1.127,1.127,1.127,1.127,1.123,1.123,1.123,1.1191,1.1191,1.1191,1.1152,1.1152,1.1152,1.1152,1.1152,1.1123,1.1123,1.1123,1.1123,1.1123,1.1152,1.1152,1.1123,1.1123,1.1123,1.1123,1.1123,1.1084,1.1084,1.1084,0,0,0,0,0,0,0,0,0,0,0,0,0,0,0,0,0,0,0,0,0,0,0,0,0,0,0,0,0,0,0,0
0.95264,0.95264,0.95264,0.95264,0.95264,0.95264,0.95264,0.95264,0.95557,0.95557,0.95557,0.95557,0.95557,0.95557,0.95557,0.95557,0.95557,0.95557,0.95557,0.95557,0.95557,0.95557,0.95557,0.95557,0.95557,0.95557,0.95557,0.95557,0.95557,0.95557,0.95557,0.95557,0.95312,0.95312,0.95557,0.95557,0.95557,0.95557,0.95557,0.95557,0.95557,0.9585,0.9585,0.9585,0.96143,0.9585,0.9585,0.9585,0.9585,0.9585,0.9585,0.9585,0.9585,0.9585,0.9585,0.9585,0.9585,0.9585,0.96143,0.96387,0.96387,0.96387,0.96387,0.96387,0.96387,0.96387,0.96387,0.96387,0.96387,0.96387,0.96387,0.96143,0.96435,0.96143,0.96435,0.96435,0.96435,0.96435,0.96435,0.96435,0.96143,0.96143,0.96143,0.96143,0.96435,0.96435,0.96143,0.96435,0.96435,0.96435,0.96435,0.96435,0.9668,0.96435,0.96435,0.96435,0.96435,0.96435,0.96435,0.96435,0.96435,0.96435,0.96435,0.96435,0.96435,0.9668,0.9668,0.9668,0.9668,0.9668,0.96728,0.96728,0.96728,0.96728,0.96728,0.96728,0.96728,0.96728,0.96728,0.96728,0.96728,0.96728,0.96728,0.96728,0.96728,0.96728,0.96728,0.96973,0.96728,0.96728,0.96973,0.96973,0.96973,0.96973,0.96973,0.96728,0.96728,0.96973,0.97022,0.97022,0.97022,0.97022,0.97022,0.97022,0.97022,0.97022,0.97022,0.97022,0.97266,0.97266,0.97266,0.97266,0.97266,0.97022,0.97266,0.97266,0.97266,0.97022,0.97022,0.97022,0.97022,0.97022,0.97022,0.97022,0.97022,0.97022,0.97022,0.97022,0.97022,0.97022,0.97022,0.97315,0.97315,0.97315,0.97315,0.97315,0.97315,0.97315,0.97315,0.97315,0.97315,0.97315,0.97315,0.97022,0.97022,0.97022,0.97022,0.97022,0.97022,0.97022,0.97315,0.97315,0.97315,0.97315,0.97315,0.97315,0.97315,0.97315,0.97315,0.97315,0.97315,0.97607,0.97315,0.97315,0.97315,0.97315,0.97315,0.97607,0.97607,0.97607,0.97607,0.97607,0.97607,0.97607,0.97607,0.97607,0.97315,0.97315,0.97315,0.97607,0.97607,0.97607,0.97607,0.97607,0.97607,0.97607,0.97607,0.97607,0.97607,0.97607,0.97607,0.97607,0.979,0.979,0.97607,0.97607,0.97607,0.97607,0.97607,0.97607,0.97607,0.97607,0.979,0.98193,0.98486,0.98779,0.99023,0.99023,0.99023,0.99023,0.99072,0.99072,0.99072,0.99365,0.99365,0.99365,0.99365,0.99365,0.99365,0.99072,0.99072,0.99072,0.98779,0.98779,0.99072,0.99072,0.99072,0.99365,0.99658,0.99658,0.99658,0.99658,0.99658,0.99365,0.99072,0.99072,0.98779,0.98779,0.98779,0.98779,0,0,0,1.2373,1.2373,1.2373,1.2373,1.2373,1.2334,1.2334,1.2334,1.2334,1.2285,1.2285,1.2285,1.2246,1.2246,1.2246,1.2197,1.2246,1.2197,1.2158,1.2197,1.2197,1.2158,1.2158,1.2158,1.2158,1.2158,1.2158,1.2109,1.207,1.207,1.2021,1.2021,1.2021,1.207,1.207,1.2021,1.2021,1.2021,1.1982,1.1982,1.1982,1.1982,1.1982,1.1943,1.1943,1.1943,1.1943,1.1943,1.1895,1.1895,1.1855,1.1855,1.1855,1.1855,1.1816,1.1816,1.1816,1.1816,1.1777,1.1777,1.1777,1.1777,1.1816,1.1777,1.1777,1.1777,1.1777,1.1738,1.1738,1.1699,1.1699,1.1699,1.1738,1.1699,1.1699,1.1699,1.1699,1.165,1.1611,1.1611,1.1611,1.1572,1.1572,1.1572,1.1572,1.1572,1.1572,1.1572,1.1572,1.1533,1.1533,1.1494,1.1455,1.1455,1.1416,1.1455,1.1416,1.1416,1.1416,1.1416,1.1416,1.1377,1.1377,1.1377,1.1338,1.1348,1.1348,1.1309,1.1309,1.1309,1.127,1.127,1.127,1.127,1.127,1.123,1.123,1.123,1.123,1.1191,1.1191,1.1191,1.1152,1.1152,1.1123,1.1123,1.1123,1.1123,1.1123,1.1123,1.1123,1.1152,1.1152,1.1123,1.1123,1.1123,1.1123,1.1084,1.1084,1.1084,1.1084,0,0,0,0,0,0,0,0,0,0,0,0,0,0,0,0,0,0,0,0,0,0,0,0,0,0,0,0,0,0,0,0
0.95264,0.95264,0.95264,0.95312,0.95312,0.95312,0.95312,0.95312,0.95312,0.95557,0.95312,0.95557,0.95557,0.95557,0.95312,0.95557,0.95557,0.95557,0.95557,0.95557,0.95557,0.95557,0.95557,0.95557,0.95557,0.95557,0.95557,0.95557,0.95312,0.95312,0.95557,0.95557,0.95312,0.95312,0.95557,0.95557,0.95557,0.95557,0.95557,0.9585,0.9585,0.9585,0.9585,0.9585,0.96143,0.96143,0.9585,0.9585,0.9585,0.9585,0.9585,0.9585,0.9585,0.9585,0.9585,0.9585,0.9585,0.96143,0.96143,0.96387,0.96387,0.96387,0.96387,0.96387,0.96387,0.96387,0.96435,0.96435,0.96435,0.96435,0.96435,0.96143,0.96143,0.96143,0.96143,0.96435,0.96143,0.96143,0.96143,0.96143,0.96143,0.96143,0.96143,0.96143,0.96143,0.96435,0.96143,0.96143,0.96143,0.96143,0.96143,0.96435,0.96435,0.9668,0.96435,0.96435,0.96435,0.96435,0.96435,0.96435,0.96435,0.96435,0.96435,0.96435,0.96435,0.96728,0.96728,0.96728,0.96728,0.96728,0.96728,0.96728,0.96435,0.96728,0.96728,0.96728,0.96728,0.96728,0.96728,0.96728,0.96728,0.96728,0.96728,0.96728,0.96728,0.96728,0.96728,0.96728,0.96728,0.96728,0.96973,0.97022,0.97022,0.97022,0.97022,0.97022,0.97022,0.97022,0.97022,0.97022,0.97022,0.97022,0.97022,0.97022,0.97022,0.97022,0.97022,0.97022,0.97022,0.97266,0.97266,0.97266,0.97266,0.97022,0.97266,0.97315,0.97315,0.97022,0.97022,0.97022,0.97022,0.97022,0.97022,0.97022,0.97022,0.97022,0.97022,0.97022,0.97022,0.97022,0.97022,0.97315,0.97315,0.97315,0.97315,0.97315,0.97315,0.97315,0.97315,0.97315,0.97022,0.97022,0.97315,0.97022,0.97022,0.97022,0.97022,0.97022,0.97022,0.97022,0.97315,0.97315,0.97315,0.97315,0.97315,0.97315,0.97315,0.97315,0.97315,0.97315,0.97315,0.97607,0.97315,0.97315,0.97315,0.97315,0.97315,0.97607,0.97607,0.97607,0.97607,0.97607,0.97607,0.97607,0.97607,0.97607,0.97315,0.97315,0.97607,0.97607,0.97607,0.97607,0.97607,0.97607,0.97607,0.97607,0.97607,0.97607,0.97607,0.97607,0.97607,0.97607,0.979,0.979,0.979,0.97607,0.97607,0.97607,0.97607,0.97315,0.97607,0.97607,0.97607,0.979,0.98486,0.98779,0.99072,0.99072,0.99072,0.99072,0.99072,0.99072,0.99072,0.99365,0.99365,0.99365,0.99365,0.99365,0.99072,0.99072,0.99072,0.99072,0.98779,0.98779,0.98486,0.99072,0.99072,0.99072,0.99072,0.99658,0.99365,0.99365,0.99658,0.99365,0.99072,0.99072,0.98779,0.98779,0.98486,0.98779,0,0,0,1.2422,1.2373,1.2373,1.2373,1.2373,1.2334,1.2334,1.2334,1.2334,1.2285,1.2285,1.2285,1.2285,1.2246,1.2246,1.2246,1.2246,1.2197,1.2197,1.2197,1.2197,1.2197,1.2158,1.2158,1.2158,1.2109,1.2109,1.207,1.207,1.207,1.207,1.207,1.207,1.207,1.207,1.2021,1.2021,1.2021,1.2021,1.2031,1.1982,1.1982,1.1943,1.1943,1.1943,1.1943,1.1943,1.1943,1.1943,1.1943,1.1904,1.1855,1.1855,1.1855,1.1816,1.1816,1.1816,1.1816,1.1777,1.1816,1.1777,1.1777,1.1816,1.1816,1.1777,1.1777,1.1777,1.1777,1.1738,1.1738,1.1738,1.1699,1.1738,1.1699,1.1699,1.1699,1.1699,1.165,1.165,1.1611,1.1611,1.1572,1.1572,1.1572,1.1572,1.1572,1.1572,1.1572,1.1572,1.1572,1.1533,1.1494,1.1455,1.1455,1.1416,1.1416,1.1416,1.1416,1.1416,1.1416,1.1377,1.1377,1.1377,1.1377,1.1348,1.1348,1.1348,1.1348,1.1309,1.1309,1.1309,1.127,1.127,1.127,1.127,1.127,1.123,1.123,1.123,1.1191,1.1191,1.1191,1.1191,1.1152,1.1152,1.1123,1.1123,1.1123,1.1123,1.1123,1.1123,1.1162,1.1162,1.1162,1.1123,1.1123,1.1123,1.1123,1.1084,1.1084,1.1045,0,0,0,0,0,0,0,0,0,0,0,0,0,0,0,0,0,0,0,0,0,0,0,0,0,0,0,0,0,0,0,0
0.95312,0.95312,0.95312,0.95312,0.95312,0.95312,0.95312,0.95312,0.95312,0.95312,0.95312,0.95557,0.95557,0.95557,0.95557,0.95557,0.95557,0.95557,0.95557,0.95557,0.95557,0.95557,0.95557,0.95557,0.95557,0.9585,0.95557,0.95557,0.95312,0.95557,0.95557,0.95557,0.95312,0.95312,0.95557,0.95557,0.95557,0.95557,0.9585,0.9585,0.9585,0.9585,0.9585,0.9585,0.9585,0.9585,0.9585,0.9585,0.9585,0.9585,0.9585,0.9585,0.9585,0.9585,0.9585,0.9585,0.96143,0.96143,0.96143,0.96435,0.96435,0.96435,0.96435,0.96435,0.96435,0.96435,0.96435,0.96435,0.96435,0.96435,0.96435,0.96143,0.96143,0.9585,0.96143,0.96143,0.96143,0.96143,0.96143,0.96143,0.96143,0.96143,0.96143,0.96143,0.96143,0.96143,0.96143,0.96143,0.96143,0.96143,0.96143,0.96435,0.96435,0.96435,0.96435,0.96435,0.96435,0.96435,0.96435,0.96435,0.96435,0.96435,0.96435,0.96435,0.96728,0.96728,0.96728,0.96728,0.96728,0.96728,0.96728,0.96728,0.96728,0.96728,0.96728,0.96728,0.96728,0.96728,0.96728,0.96728,0.96728,0.96728,0.96728,0.96728,0.96728,0.96728,0.96728,0.96728,0.96728,0.96728,0.97022,0.97022,0.97022,0.97022,0.97022,0.97022,0.97022,0.97022,0.97022,0.97022,0.97022,0.97022,0.97022,0.97022,0.97022,0.97022,0.97022,0.97022,0.97315,0.97315,0.97315,0.97315,0.97315,0.97315,0.97315,0.97315,0.97315,0.97022,0.97022,0.97022,0.97022,0.97022,0.97022,0.97022,0.97022,0.97022,0.97022,0.97022,0.97022,0.97022,0.97022,0.97315,0.97315,0.97315,0.97315,0.97315,0.97315,0.97315,0.97315,0.97315,0.97022,0.97022,0.97022,0.97022,0.97022,0.97022,0.97022,0.97022,0.97315,0.97315,0.97315,0.97315,0.97315,0.97315,0.97315,0.97315,0.97315,0.97315,0.97315,0.97315,0.97315,0.97607,0.97315,0.97315,0.97315,0.97315,0.97607,0.97607,0.97607,0.97607,0.97607,0.97607,0.97607,0.97607,0.97607,0.97315,0.97315,0.97315,0.97315,0.97607,0.97607,0.97607,0.97607,0.97607,0.97607,0.97607,0.97315,0.97607,0.97607,0.97607,0.97607,0.97607,0.979,0.97607,0.97607,0.97607,0.97607,0.97607,0.97607,0.97315,0.97607,0.97607,0.97607,0.979,0.98193,0.98486,0.98779,0.99072,0.99072,0.99072,0.99072,0.98779,0.99072,0.99365,0.99365,0.99365,0.99658,0.99365,0.99365,0.99365,0.99072,0.98779,0.98779,0.98779,0.98779,0.99072,0.99365,0.99365,0.99658,0.99658,0.99365,0.99365,0.99658,0.99365,0.99072,0.98779,0.98779,0.98779,0.98779,0,0,0,1.2422,1.2422,1.2373,1.2373,1.2373,1.2373,1.2334,1.2334,1.2334,1.2334,1.2334,1.2334,1.2334,1.2285,1.2285,1.2246,1.2246,1.2246,1.2197,1.2197,1.2158,1.2197,1.2197,1.2158,1.2158,1.2158,1.2158,1.2158,1.2109,1.2109,1.2109,1.207,1.207,1.207,1.207,1.207,1.207,1.2031,1.2031,1.2031,1.2031,1.1982,1.1982,1.1982,1.1943,1.1982,1.1982,1.1982,1.1943,1.1943,1.1943,1.1904,1.1855,1.1855,1.1855,1.1816,1.1816,1.1816,1.1816,1.1777,1.1816,1.1816,1.1777,1.1816,1.1777,1.1777,1.1777,1.1777,1.1738,1.1738,1.1699,1.1738,1.1699,1.1738,1.1699,1.1699,1.1699,1.1699,1.166,1.166,1.1611,1.1611,1.1572,1.1572,1.1572,1.1611,1.1572,1.1572,1.1572,1.1572,1.1533,1.1533,1.1455,1.1455,1.1455,1.1416,1.1416,1.1416,1.1416,1.1416,1.1416,1.1387,1.1387,1.1387,1.1387,1.1387,1.1387,1.1348,1.1348,1.1348,1.1309,1.1309,1.127,1.127,1.127,1.127,1.123,1.123,1.123,1.123,1.123,1.123,1.1191,1.1191,1.1162,1.1162,1.1123,1.1123,1.1123,1.1084,1.1123,1.1123,1.1123,1.1123,1.1123,1.1123,1.1123,1.1123,1.1123,1.1084,1.1084,1.1084,0,0,0,0,0,0,0,0,0,0,0,0,0,0,0,0,0,0,0,0,0,0,0,0,0,0,0,0,0,0,0,0
0.95312,0.95312,0.95312,0.95312,0.95312,0.95312,0.95312,0.95312,0.95312,0.95557,0.95557,0.95557,0.95557,0.95557,0.95557,0.95557,0.95557,0.95557,0.95557,0.95557,0.95557,0.95557,0.95557,0.95557,0.95557,0.95557,0.95557,0.95312,0.95312,0.95557,0.95557,0.95557,0.95312,0.95605,0.95605,0.95605,0.95605,0.95605,0.9585,0.96143,0.9585,0.96143,0.9585,0.9585,0.96143,0.9585,0.9585,0.9585,0.9585,0.9585,0.9585,0.9585,0.9585,0.9585,0.9585,0.9585,0.96143,0.96143,0.96143,0.9668,0.96435,0.96435,0.96435,0.96435,0.96435,0.96435,0.96435,0.96435,0.96435,0.96435,0.96435,0.96143,0.96143,0.95898,0.96143,0.96143,0.96143,0.96143,0.96143,0.96143,0.96143,0.96143,0.96143,0.96143,0.96143,0.96143,0.96143,0.96143,0.96143,0.96143,0.96143,0.96435,0.96728,0.96435,0.96435,0.96435,0.96435,0.96435,0.96435,0.96435,0.96728,0.96435,0.96435,0.96435,0.96728,0.96728,0.96728,0.96728,0.96728,0.96728,0.96728,0.96728,0.96728,0.96728,0.96728,0.96728,0.96728,0.96728,0.96728,0.96728,0.96728,0.96728,0.96728,0.96728,0.96728,0.96728,0.96728,0.96728,0.96728,0.96728,0.97022,0.97022,0.97022,0.97022,0.97022,0.96728,0.97022,0.97022,0.97022,0.97022,0.97022,0.97022,0.97022,0.97022,0.97022,0.97022,0.97022,0.97022,0.97315,0.97315,0.97315,0.97315,0.97315,0.97315,0.97315,0.97315,0.97315,0.97022,0.97022,0.97315,0.97315,0.97315,0.97022,0.97022,0.97022,0.97022,0.97022,0.97022,0.97022,0.97022,0.97022,0.97315,0.97315,0.97315,0.97315,0.97315,0.97315,0.97315,0.97315,0.97315,0.97022,0.97022,0.97022,0.97022,0.97022,0.97022,0.97022,0.97022,0.97315,0.97315,0.97315,0.97315,0.97315,0.97315,0.97315,0.97315,0.97315,0.97315,0.97315,0.97315,0.97315,0.97315,0.97315,0.97315,0.97315,0.97315,0.97607,0.97607,0.97607,0.97607,0.97607,0.97607,0.97607,0.97607,0.97607,0.97315,0.97315,0.97315,0.97607,0.97607,0.97607,0.97607,0.97607,0.97607,0.97607,0.97315,0.97315,0.97315,0.97315,0.97607,0.97607,0.97607,0.979,0.97607,0.97607,0.97607,0.97607,0.97607,0.97607,0.97363,0.97363,0.97607,0.97607,0.979,0.979,0.98486,0.98779,0.99072,0.99072,0.99072,0.99072,0.98779,0.99072,0.99072,0.99072,0.99365,0.99365,0.99365,0.99365,0.99365,0.99072,0.99072,0.98779,0.98779,0.99072,0.99072,0.99365,0.99365,0.99365,0.99658,0.99365,0.99072,0.99365,0.99072,0.98779,0.98779,0.98779,0.98486,0.98779,0,0,0,1.2422,1.252,1.2471,1.2383,1.2383,1.2383,1.2334,1.2334,1.2334,1.2334,1.2334,1.2334,1.2334,1.2334,1.2285,1.2246,1.2246,1.2246,1.2197,1.2197,1.2158,1.2197,1.2197,1.2197,1.2197,1.2158,1.2158,1.2158,1.2109,1.2109,1.207,1.207,1.207,1.2109,1.207,1.207,1.207,1.2031,1.2031,1.2031,1.2031,1.1982,1.1982,1.1982,1.1982,1.1982,1.1943,1.1943,1.1982,1.1943,1.1943,1.1904,1.1855,1.1855,1.1855,1.1816,1.1816,1.1816,1.1816,1.1777,1.1816,1.1777,1.1777,1.1816,1.1777,1.1777,1.1777,1.1777,1.1738,1.1738,1.1738,1.1738,1.1699,1.1699,1.1699,1.1699,1.1699,1.1699,1.1699,1.1699,1.166,1.1621,1.1621,1.1621,1.1621,1.1621,1.1572,1.1572,1.1572,1.1572,1.1533,1.1494,1.1494,1.1455,1.1455,1.1416,1.1416,1.1416,1.1387,1.1387,1.1387,1.1387,1.1387,1.1387,1.1387,1.1387,1.1387,1.1387,1.1348,1.1348,1.1348,1.1309,1.127,1.127,1.127,1.127,1.123,1.127,1.123,1.123,1.123,1.123,1.1191,1.1191,1.1162,1.1162,1.1123,1.1123,1.1123,1.1123,1.1123,1.1123,1.1123,1.1123,1.1123,1.1123,1.1123,1.1123,1.1084,1.1084,1.1045,1.1045,0,0,0,0,0,0,0,0,0,0,0,0,0,0,0,0,0,0,0,0,0,0,0,0,0,0,0,0,0,0,0,0
0.95312,0.95312,0.95312,0.95312,0.95312,0.95312,0.95312,0.95557,0.95312,0.95312,0.95557,0.95557,0.95557,0.95557,0.95557,0.95557,0.95557,0.95557,0.95557,0.95557,0.95557,0.95557,0.95557,0.95557,0.95557,0.95605,0.95312,0.95312,0.95312,0.95605,0.95605,0.95312,0.95312,0.95312,0.95605,0.95605,0.95605,0.95605,0.95605,0.9585,0.9585,0.96143,0.9585,0.9585,0.96143,0.9585,0.9585,0.9585,0.9585,0.9585,0.9585,0.9585,0.9585,0.9585,0.9585,0.9585,0.96143,0.96143,0.96143,0.96435,0.96435,0.96143,0.96435,0.96435,0.96435,0.96435,0.96435,0.96435,0.96435,0.96435,0.96435,0.96143,0.96143,0.95898,0.96143,0.96143,0.96143,0.96143,0.96143,0.95898,0.95898,0.96143,0.96143,0.96143,0.96143,0.96143,0.96143,0.96143,0.96143,0.96143,0.96143,0.96435,0.96435,0.96435,0.96435,0.96435,0.96435,0.96435,0.96435,0.96435,0.96435,0.96435,0.96435,0.96435,0.96435,0.96728,0.96728,0.96728,0.96728,0.96728,0.96728,0.96728,0.96728,0.96728,0.96728,0.96728,0.96728,0.96728,0.96728,0.96728,0.96728,0.96728,0.96728,0.96728,0.96728,0.96728,0.96728,0.96728,0.96728,0.96728,0.97022,0.96728,0.97022,0.97022,0.97022,0.97022,0.97022,0.97022,0.97022,0.97022,0.97022,0.97022,0.97022,0.97022,0.97022,0.97022,0.97022,0.97022,0.97022,0.97315,0.97315,0.97315,0.97315,0.97315,0.97315,0.97315,0.97315,0.97022,0.97315,0.97315,0.97315,0.97315,0.97022,0.97022,0.97022,0.97315,0.97022,0.97022,0.97022,0.97022,0.97022,0.97022,0.97315,0.97315,0.97315,0.97315,0.97315,0.97022,0.97022,0.97315,0.97315,0.97022,0.97022,0.97022,0.97022,0.97022,0.97022,0.97022,0.97022,0.97022,0.97315,0.97315,0.97315,0.97315,0.97315,0.97315,0.97315,0.97315,0.97315,0.97315,0.97315,0.97607,0.97607,0.97607,0.97315,0.97315,0.97315,0.97607,0.97607,0.97607,0.97607,0.97607,0.97607,0.97607,0.97607,0.97315,0.97315,0.97607,0.97607,0.97607,0.97607,0.97607,0.97607,0.97607,0.97607,0.97607,0.97607,0.97607,0.97607,0.97607,0.97607,0.97607,0.979,0.97607,0.97607,0.97607,0.97607,0.97607,0.97607,0.97607,0.97607,0.97607,0.97607,0.979,0.979,0.98193,0.98486,0.98779,0.98779,0.98779,0.98779,0.98779,0.98779,0.99072,0.99072,0.99072,0.99072,0.99072,0.99072,0.99072,0.98779,0.98779,0.98779,0.98779,0.99072,0.99072,0.99365,0.99365,0.99072,0.99365,0.99072,0.99072,0.99365,0.99072,0.98779,0.98779,0.98779,0.98779,0.98779,0.99072,0,0,0,1.2559,1.2422,1.2383,1.2383,1.2383,1.2383,1.2334,1.2334,1.2334,1.2334,1.2334,1.2334,1.2334,1.2285,1.2285,1.2246,1.2246,1.2246,1.2197,1.2158,1.2197,1.2197,1.2197,1.2197,1.2158,1.2158,1.2158,1.2109,1.2109,1.2109,1.207,1.207,1.2109,1.2119,1.207,1.207,1.207,1.2031,1.2031,1.2031,1.1982,1.1982,1.1982,1.1982,1.1982,1.1982,1.1943,1.1943,1.1943,1.1943,1.1904,1.1855,1.1855,1.1855,1.1816,1.1816,1.1816,1.1816,1.1777,1.1777,1.1777,1.1777,1.1816,1.1816,1.1777,1.1777,1.1777,1.1738,1.1738,1.1738,1.1738,1.1699,1.1738,1.1738,1.1699,1.1699,1.1699,1.1699,1.1699,1.166,1.1621,1.1621,1.1621,1.1621,1.1621,1.1582,1.1582,1.1582,1.1582,1.1582,1.1494,1.1455,1.1455,1.1455,1.1426,1.1426,1.1426,1.1426,1.1387,1.1387,1.1387,1.1387,1.1387,1.1387,1.1387,1.1387,1.1387,1.1387,1.1348,1.1309,1.1309,1.127,1.127,1.127,1.127,1.123,1.127,1.123,1.123,1.123,1.123,1.1191,1.1191,1.1191,1.1162,1.1162,1.1123,1.1123,1.1123,1.1123,1.1123,1.1162,1.1123,1.1123,1.1123,1.1123,1.1123,1.1084,1.1084,1.1084,1.1084,0,0,0,0,0,0,0,0,0,0,0,0,0,0,0,0,0,0,0,0,0,0,0,0,0,0,0,0,0,0,0,0
0.95312,0.95312,0.95312,0.95312,0.95312,0.95312,0.95312,0.95312,0.95312,0.95312,0.95312,0.95605,0.95605,0.95605,0.95312,0.95557,0.95557,0.95605,0.95605,0.95605,0.95605,0.95605,0.95605,0.95605,0.95605,0.95605,0.95312,0.95312,0.95312,0.95605,0.95605,0.95312,0.95312,0.95312,0.95605,0.95605,0.95605,0.95605,0.9585,0.9585,0.9585,0.96143,0.9585,0.9585,0.9585,0.96143,0.96143,0.9585,0.9585,0.9585,0.96143,0.96143,0.9585,0.9585,0.9585,0.9585,0.96143,0.96143,0.96143,0.96435,0.96435,0.96435,0.96435,0.96435,0.96435,0.96435,0.96435,0.96435,0.96435,0.96435,0.96435,0.96143,0.96143,0.96143,0.96143,0.96143,0.96143,0.96143,0.96143,0.95898,0.96143,0.96143,0.96143,0.96143,0.96143,0.96143,0.96143,0.96143,0.96143,0.96143,0.96435,0.96435,0.96728,0.96435,0.96435,0.96728,0.96435,0.96435,0.96435,0.96435,0.96435,0.96435,0.96435,0.96435,0.96435,0.96728,0.96728,0.96728,0.96728,0.96728,0.96728,0.96728,0.96728,0.96728,0.96728,0.96728,0.96728,0.96728,0.96728,0.96728,0.96728,0.96728,0.96728,0.96728,0.96728,0.96728,0.96728,0.96728,0.96728,0.96728,0.97022,0.96728,0.97022,0.97022,0.97022,0.97022,0.97022,0.97022,0.97022,0.97022,0.97022,0.97022,0.97022,0.97022,0.97022,0.97022,0.97022,0.97022,0.97022,0.97315,0.97315,0.97315,0.97315,0.97315,0.97315,0.97315,0.97315,0.97315,0.97315,0.97315,0.97315,0.97315,0.97315,0.97315,0.97315,0.97315,0.97022,0.97022,0.97022,0.97022,0.97022,0.97022,0.97022,0.97315,0.97315,0.97022,0.97315,0.97022,0.97022,0.97022,0.97022,0.97022,0.97022,0.97022,0.97022,0.97022,0.97022,0.97022,0.97022,0.97022,0.97022,0.9707,0.97315,0.97315,0.97315,0.97315,0.97315,0.97315,0.97315,0.97315,0.97315,0.97607,0.97607,0.97607,0.97607,0.97607,0.97607,0.97607,0.97607,0.97607,0.97607,0.97607,0.97607,0.97607,0.97607,0.97607,0.97607,0.97607,0.97607,0.97607,0.97607,0.97607,0.97607,0.97607,0.97607,0.97607,0.97363,0.97607,0.97363,0.97607,0.97607,0.97607,0.97607,0.97607,0.97607,0.97607,0.97607,0.97607,0.97607,0.97607,0.97607,0.97607,0.97607,0.979,0.98193,0.98193,0.98486,0.98779,0.98779,0.98779,0.99072,0.98779,0.98779,0.98779,0.99072,0.99365,0.99365,0.99365,0.99072,0.99365,0.99072,0.99072,0.98779,0.99072,0.99072,0.99658,0.99658,0.99365,0.99365,0.99365,0.99365,0.99072,0.99365,0.98779,0.98779,0.98779,0.99072,0.99072,0.99072,0.99072,0,0,0,1.252,1.2422,1.2422,1.2383,1.2383,1.2383,1.2383,1.2334,1.2334,1.2334,1.2334,1.2334,1.2334,1.2285,1.2285,1.2285,1.2246,1.2246,1.2197,1.2197,1.2197,1.2197,1.2197,1.2197,1.2197,1.2158,1.2158,1.2158,1.2158,1.2119,1.2119,1.2119,1.2119,1.2119,1.2119,1.207,1.207,1.207,1.207,1.2031,1.2031,1.1982,1.1982,1.1982,1.1982,1.1982,1.1982,1.1982,1.1943,1.1943,1.1904,1.1904,1.1865,1.1855,1.1855,1.1816,1.1816,1.1816,1.1777,1.1816,1.1777,1.1777,1.1816,1.1816,1.1777,1.1777,1.1777,1.1738,1.1738,1.1738,1.1738,1.1738,1.1738,1.1738,1.1699,1.1699,1.1699,1.1699,1.1699,1.166,1.1621,1.166,1.1621,1.1621,1.1621,1.1621,1.1621,1.1582,1.1582,1.1582,1.1504,1.1504,1.1465,1.1465,1.1426,1.1426,1.1387,1.1387,1.1387,1.1387,1.1387,1.1387,1.1387,1.1387,1.1387,1.1348,1.1387,1.1348,1.1348,1.1309,1.1309,1.1309,1.1309,1.1309,1.127,1.127,1.127,1.123,1.123,1.123,1.123,1.1191,1.1191,1.1191,1.1191,1.1162,1.1162,1.1123,1.1123,1.1123,1.1123,1.1162,1.1162,1.1123,1.1123,1.1123,1.1123,1.1084,1.1084,1.1055,1.1055,0,0,0,0,0,0,0,0,0,0,0,0,0,0,0,0,0,0,0,0,0,0,0,0,0,0,0,0,0,0,0,0
0.95312,0.95312,0.95312,0.95312,0.95312,0.95312,0.95312,0.95605,0.95312,0.95312,0.95312,0.95605,0.95605,0.95605,0.95605,0.95605,0.95605,0.95605,0.95605,0.95605,0.95605,0.95605,0.95605,0.95605,0.95605,0.95605,0.95312,0.95312,0.95312,0.95605,0.95312,0.95312,0.95312,0.95312,0.95605,0.95605,0.95605,0.95605,0.9585,0.96143,0.96143,0.9585,0.9585,0.9585,0.9585,0.96143,0.96143,0.9585,0.9585,0.9585,0.95898,0.95898,0.95898,0.95898,0.95898,0.95898,0.95898,0.95898,0.96143,0.96435,0.96143,0.96143,0.96143,0.96143,0.96435,0.96435,0.96435,0.96435,0.96435,0.96435,0.96435,0.96435,0.96143,0.96143,0.96143,0.96143,0.96143,0.96143,0.96143,0.96143,0.96143,0.96143,0.96143,0.96435,0.96143,0.96143,0.96435,0.96435,0.96435,0.96435,0.96435,0.96728,0.96728,0.96728,0.96728,0.96728,0.96435,0.96435,0.96435,0.96435,0.96435,0.96728,0.96435,0.96435,0.96728,0.96728,0.96728,0.96728,0.96728,0.96728,0.96728,0.96728,0.96728,0.96728,0.96728,0.96728,0.96728,0.96728,0.96728,0.96728,0.96728,0.96728,0.96728,0.96728,0.96728,0.96728,0.96728,0.96728,0.96728,0.96728,0.97022,0.96728,0.96728,0.96728,0.97022,0.97022,0.97022,0.97022,0.97022,0.97022,0.97022,0.97022,0.97022,0.97022,0.97022,0.97022,0.97022,0.97022,0.97022,0.97315,0.97315,0.97315,0.97315,0.97315,0.97315,0.97315,0.97315,0.97315,0.97315,0.97315,0.97315,0.97315,0.97315,0.97315,0.97315,0.97315,0.97315,0.97022,0.97022,0.97022,0.97022,0.97022,0.97022,0.97022,0.97022,0.97022,0.97022,0.97022,0.97022,0.97022,0.97022,0.97022,0.97022,0.97022,0.9707,0.9707,0.9707,0.9707,0.9707,0.9707,0.9707,0.9707,0.9707,0.97315,0.9707,0.97315,0.97315,0.97315,0.97315,0.97315,0.97315,0.97607,0.97607,0.97607,0.97607,0.97607,0.97607,0.97607,0.97607,0.97607,0.97607,0.97363,0.97607,0.97607,0.97607,0.97607,0.97607,0.97607,0.97607,0.97607,0.97607,0.97607,0.97607,0.97607,0.97607,0.97607,0.97363,0.97363,0.97607,0.97607,0.97607,0.97607,0.97607,0.97607,0.97607,0.97607,0.97656,0.97656,0.97656,0.97656,0.97656,0.97656,0.97656,0.979,0.98486,0.98193,0.98779,0.98779,0.98779,0.98779,0.98779,0.98779,0.98779,0.99072,0.99072,0.99072,0.99365,0.99365,0.99365,0.99365,0.99072,0.99072,0.99072,0.99072,0.99365,0.99658,0.99658,0.99365,0.99365,0.99658,0.99365,0.99365,0.99072,0.98779,0.99072,0.99072,0.99072,0.98779,0.99072,0.99072,0,0,0,1.2422,1.2422,1.2422,1.2383,1.2383,1.2383,1.2383,1.2383,1.2334,1.2334,1.2334,1.2334,1.2334,1.2295,1.2295,1.2295,1.2246,1.2246,1.2197,1.2197,1.2197,1.2197,1.2197,1.2207,1.2158,1.2158,1.2158,1.2158,1.2119,1.2119,1.2119,1.2119,1.2119,1.2119,1.2119,1.2119,1.207,1.207,1.207,1.2031,1.2031,1.1982,1.1982,1.2031,1.1982,1.1982,1.1982,1.1982,1.1943,1.1943,1.1904,1.1904,1.1865,1.1865,1.1865,1.1816,1.1816,1.1816,1.1816,1.1816,1.1777,1.1777,1.1816,1.1816,1.1816,1.1816,1.1816,1.1777,1.1777,1.1738,1.1738,1.1738,1.1738,1.1699,1.1699,1.1699,1.1699,1.1699,1.1699,1.166,1.166,1.166,1.1621,1.1621,1.1621,1.1582,1.1582,1.1582,1.1582,1.1582,1.1543,1.1504,1.1465,1.1465,1.1465,1.1426,1.1426,1.1426,1.1426,1.1387,1.1387,1.1387,1.1387,1.1387,1.1387,1.1387,1.1387,1.1348,1.1348,1.1348,1.1309,1.1309,1.1309,1.1309,1.1309,1.127,1.127,1.127,1.123,1.123,1.123,1.1191,1.1191,1.1191,1.1201,1.1162,1.1162,1.1162,1.1123,1.1123,1.1162,1.1162,1.1162,1.1123,1.1123,1.1123,1.1123,1.1084,1.1084,1.1055,1.1084,0,0,0,0,0,0,0,0,0,0,0,0,0,0,0,0,0,0,0,0,0,0,0,0,0,0,0,0,0,0,0,0
0.95312,0.95312,0.95312,0.95312,0.95312,0.95312,0.95312,0.95312,0.95312,0.95312,0.95312,0.95605,0.95605,0.95605,0.95605,0.95605,0.95605,0.9585,0.95605,0.95605,0.95605,0.9585,0.95605,0.9585,0.95605,0.95605,0.95312,0.95312,0.95312,0.95605,0.95312,0.95605,0.95605,0.95605,0.95605,0.95605,0.9585,0.9585,0.9585,0.9585,0.9585,0.96143,0.96143,0.95898,0.96143,0.96143,0.96143,0.95898,0.96143,0.95605,0.95605,0.95898,0.95898,0.95898,0.95898,0.95898,0.96143,0.96143,0.95898,0.96435,0.96143,0.96143,0.96143,0.96143,0.96143,0.96435,0.96435,0.96435,0.96435,0.96435,0.96435,0.96435,0.96143,0.96143,0.96143,0.96143,0.96435,0.96435,0.96143,0.96191,0.96191,0.96191,0.96191,0.96435,0.96191,0.96191,0.96435,0.96435,0.96435,0.96435,0.96435,0.96728,0.96728,0.96728,0.96728,0.96728,0.96435,0.96435,0.96435,0.96728,0.96728,0.96728,0.96435,0.96435,0.96728,0.96728,0.96435,0.96728,0.96728,0.96728,0.96728,0.96728,0.96728,0.96728,0.96728,0.96728,0.96728,0.96728,0.96728,0.96728,0.96728,0.96728,0.96728,0.96728,0.96728,0.96728,0.96484,0.96728,0.96484,0.96728,0.97022,0.96728,0.97022,0.97022,0.97022,0.97022,0.97022,0.97022,0.97022,0.97022,0.97022,0.97022,0.97022,0.97022,0.97022,0.97022,0.97022,0.97022,0.97315,0.97315,0.97315,0.97315,0.97315,0.97315,0.97315,0.97315,0.97315,0.97315,0.97315,0.97315,0.97315,0.97315,0.97315,0.97315,0.97315,0.97315,0.97315,0.97315,0.97022,0.97022,0.97022,0.97022,0.97022,0.97022,0.97022,0.97022,0.97022,0.9707,0.9707,0.9707,0.9707,0.9707,0.9707,0.9707,0.9707,0.9707,0.9707,0.9707,0.9707,0.9707,0.9707,0.9707,0.9707,0.97315,0.97315,0.97315,0.97315,0.97315,0.97315,0.97315,0.97315,0.97607,0.97607,0.97607,0.97607,0.97607,0.97607,0.97607,0.97607,0.97607,0.97607,0.97607,0.97363,0.97607,0.97607,0.97363,0.97363,0.97607,0.97607,0.97607,0.97607,0.97607,0.97607,0.97607,0.97607,0.97607,0.97363,0.97363,0.97363,0.97656,0.97656,0.97656,0.97656,0.97656,0.97656,0.97656,0.97656,0.97656,0.97656,0.97656,0.97656,0.97656,0.97656,0.979,0.98193,0.98193,0.98779,0.98779,0.98779,0.98779,0.98779,0.98779,0.98779,0.98779,0.99072,0.99072,0.99365,0.99658,0.99658,0.99658,0.99365,0.99365,0.99072,0.99072,0.99365,0.99658,0.99658,0.99365,0.99365,0.99658,0.99658,0.99072,0.99072,0.98779,0.98779,0.98779,0.99072,0.99072,0.99072,0.99072,0,0,0,1.2422,1.2422,1.2422,1.2383,1.2383,1.2383,1.2383,1.2383,1.2334,1.2334,1.2334,1.2334,1.2334,1.2295,1.2295,1.2295,1.2295,1.2246,1.2246,1.2207,1.2207,1.2207,1.2207,1.2207,1.2207,1.2158,1.2158,1.2158,1.2119,1.2119,1.2119,1.2119,1.2119,1.2119,1.2119,1.207,1.207,1.207,1.207,1.2031,1.2031,1.1982,1.1992,1.1992,1.1992,1.1992,1.1992,1.1943,1.1943,1.1943,1.1943,1.1904,1.1865,1.1865,1.1865,1.1865,1.1865,1.1816,1.1816,1.1816,1.1816,1.1777,1.1816,1.1816,1.1816,1.1816,1.1816,1.1777,1.1777,1.1738,1.1738,1.1738,1.1738,1.1738,1.1738,1.1738,1.1699,1.1699,1.1699,1.166,1.166,1.166,1.1621,1.1621,1.1621,1.1582,1.1582,1.1582,1.1582,1.1543,1.1504,1.1504,1.1465,1.1465,1.1465,1.1426,1.1426,1.1426,1.1426,1.1387,1.1387,1.1387,1.1387,1.1387,1.1426,1.1387,1.1387,1.1387,1.1348,1.1348,1.1348,1.1348,1.1348,1.1309,1.1309,1.127,1.127,1.127,1.127,1.127,1.123,1.123,1.123,1.1201,1.1201,1.1201,1.1162,1.1162,1.1162,1.1123,1.1123,1.1162,1.1162,1.1123,1.1084,1.1084,1.1123,1.1084,1.1055,1.1055,1.1055,0,0,0,0,0,0,0,0,0,0,0,0,0,0,0,0,0,0,0,0,0,0,0,0,0,0,0,0,0,0,0,0
0.95312,0.95312,0.95312,0.95312,0.95312,0.95312,0.95312,0.95312,0.95312,0.95312,0.95312,0.95605,0.95605,0.95605,0.95605,0.95605,0.95605,0.9585,0.9585,0.9585,0.95605,0.95605,0.95605,0.95605,0.95605,0.95605,0.95312,0.95312,0.95605,0.95605,0.95605,0.95605,0.95605,0.95605,0.95605,0.95605,0.95898,0.95605,0.95898,0.95898,0.96143,0.96143,0.96143,0.96143,0.96143,0.96143,0.96143,0.96143,0.96143,0.95898,0.95898,0.95898,0.95898,0.95898,0.95898,0.95898,0.96143,0.96143,0.96143,0.96435,0.96435,0.96143,0.96143,0.96143,0.96143,0.96435,0.96435,0.96435,0.96435,0.96435,0.96435,0.96435,0.96191,0.96191,0.96191,0.96191,0.96435,0.96435,0.96191,0.96191,0.96435,0.96191,0.96191,0.96435,0.96191,0.96191,0.96435,0.96435,0.96435,0.96435,0.96435,0.96435,0.96728,0.96435,0.96435,0.96435,0.96435,0.96435,0.96728,0.96435,0.96435,0.96728,0.96435,0.96435,0.96728,0.96728,0.96728,0.96728,0.96728,0.96728,0.96728,0.96728,0.96728,0.96728,0.96728,0.96728,0.96728,0.96728,0.96728,0.96728,0.96728,0.96728,0.96728,0.96728,0.96728,0.96728,0.96728,0.96728,0.96728,0.96728,0.97022,0.96728,0.97022,0.97022,0.97022,0.97022,0.97022,0.97022,0.97022,0.97315,0.97022,0.97022,0.97022,0.97022,0.97022,0.97022,0.97022,0.97022,0.97022,0.97315,0.97315,0.97315,0.97315,0.97315,0.97315,0.97315,0.97315,0.97022,0.97022,0.97315,0.97315,0.97315,0.97315,0.97315,0.97022,0.97022,0.97315,0.97315,0.97022,0.9707,0.9707,0.9707,0.9707,0.9707,0.9707,0.9707,0.9707,0.9707,0.9707,0.9707,0.9707,0.9707,0.9707,0.9707,0.9707,0.9707,0.9707,0.9707,0.9707,0.9707,0.9707,0.9707,0.9707,0.97315,0.97363,0.97363,0.97363,0.97363,0.97363,0.97363,0.97363,0.97607,0.97607,0.97607,0.97607,0.97607,0.97607,0.97607,0.97607,0.97607,0.97607,0.97363,0.97363,0.97363,0.97607,0.97363,0.97363,0.97656,0.97656,0.97656,0.97656,0.97656,0.97656,0.97656,0.97656,0.97656,0.97363,0.97363,0.97656,0.97656,0.97656,0.97656,0.97656,0.97656,0.97656,0.97656,0.97656,0.979,0.97656,0.97656,0.97656,0.97656,0.97656,0.97949,0.98193,0.98193,0.98779,0.98779,0.98779,0.98779,0.98779,0.98779,0.98779,0.99072,0.99072,0.99072,0.99365,0.99658,0.99658,0.99658,0.99658,0.99365,0.99072,0.99365,0.99365,0.99365,0.99365,0.99365,0.99365,0.99365,0.99658,0.99365,0.98779,0.98779,0.98828,0.99072,0.99072,0.99072,0.99072,0.99072,0,0,0,1.2422,1.2422,1.2422,1.2422,1.2383,1.2383,1.2383,1.2383,1.2383,1.2383,1.2334,1.2334,1.2334,1.2295,1.2295,1.2295,1.2246,1.2246,1.2246,1.2246,1.2246,1.2246,1.2207,1.2207,1.2207,1.2158,1.2158,1.2158,1.2158,1.2158,1.2119,1.2119,1.2119,1.2158,1.2119,1.2119,1.207,1.207,1.207,1.2031,1.2031,1.1992,1.2031,1.2031,1.2031,1.2031,1.1992,1.1992,1.1943,1.1943,1.1943,1.1904,1.1904,1.1865,1.1865,1.1865,1.1816,1.1816,1.1816,1.1816,1.1816,1.1777,1.1816,1.1816,1.1826,1.1777,1.1816,1.1777,1.1777,1.1777,1.1738,1.1738,1.1738,1.1738,1.1738,1.1738,1.1699,1.1699,1.1699,1.166,1.166,1.166,1.1621,1.1621,1.1621,1.1621,1.1621,1.1582,1.1582,1.1582,1.1504,1.1504,1.1465,1.1465,1.1465,1.1426,1.1426,1.1426,1.1426,1.1426,1.1426,1.1387,1.1426,1.1426,1.1426,1.1387,1.1387,1.1387,1.1387,1.1348,1.1348,1.1348,1.1348,1.1309,1.1309,1.127,1.127,1.127,1.127,1.127,1.123,1.123,1.123,1.1201,1.1201,1.1201,1.1201,1.1162,1.1162,1.1123,1.1123,1.1162,1.1123,1.1123,1.1123,1.1123,1.1123,1.1084,1.1084,1.1084,1.1084,0,0,0,0,0,0,0,0,0,0,0,0,0,0,0,0,0,0,0,0,0,0,0,0,0,0,0,0,0,0,0,0
0.95312,0.95312,0.95312,0.95312,0.95312,0.95312,0.95605,0.95312,0.95312,0.95312,0.95312,0.95312,0.95605,0.95605,0.95605,0.95605,0.95605,0.95605,0.9585,0.9585,0.95605,0.95605,0.95605,0.95605,0.95605,0.95605,0.95605,0.95605,0.95605,0.95605,0.95605,0.95605,0.95605,0.95605,0.95605,0.95898,0.95898,0.95898,0.95898,0.95898,0.95898,0.96143,0.96143,0.96143,0.96143,0.96143,0.96143,0.96143,0.96143,0.96143,0.95898,0.95898,0.95898,0.96143,0.96143,0.95898,0.96143,0.96143,0.96143,0.96435,0.96143,0.96143,0.96143,0.96143,0.96143,0.96435,0.96435,0.96435,0.96435,0.96435,0.96728,0.96435,0.96191,0.96435,0.96435,0.96435,0.96435,0.96435,0.96191,0.96191,0.96191,0.96191,0.96191,0.96191,0.96191,0.96191,0.96435,0.96435,0.96435,0.96728,0.96435,0.96728,0.96728,0.96435,0.96435,0.96435,0.96435,0.96435,0.96728,0.96728,0.96484,0.96484,0.96191,0.96484,0.96484,0.96728,0.96484,0.96728,0.96728,0.97022,0.97022,0.96728,0.96728,0.96728,0.96728,0.96728,0.96728,0.96728,0.96728,0.96728,0.96728,0.96728,0.96728,0.96728,0.96728,0.96728,0.96728,0.96728,0.96777,0.96777,0.97022,0.97022,0.97022,0.97022,0.97022,0.97022,0.97022,0.97315,0.97315,0.97315,0.97315,0.97315,0.97315,0.97022,0.97022,0.97022,0.97315,0.97315,0.97315,0.97315,0.97315,0.97315,0.97315,0.97315,0.97315,0.97315,0.97315,0.97315,0.97022,0.97315,0.97315,0.97315,0.97315,0.97315,0.97315,0.9707,0.97315,0.97315,0.9707,0.9707,0.9707,0.9707,0.9707,0.9707,0.9707,0.9707,0.9707,0.9707,0.9707,0.9707,0.9707,0.9707,0.9707,0.9707,0.9707,0.9707,0.9707,0.9707,0.9707,0.9707,0.9707,0.9707,0.9707,0.9707,0.9707,0.97363,0.97363,0.97363,0.97363,0.97363,0.97363,0.97607,0.97607,0.97607,0.97607,0.97607,0.97607,0.97656,0.97656,0.97656,0.97363,0.97363,0.97656,0.97656,0.97656,0.97656,0.97363,0.97656,0.97656,0.97656,0.97656,0.97656,0.97656,0.97656,0.97656,0.97656,0.97656,0.97656,0.97656,0.97656,0.97656,0.97656,0.97656,0.97656,0.97656,0.97656,0.97656,0.97949,0.97949,0.97656,0.97656,0.97656,0.97656,0.98193,0.98486,0.98486,0.98779,0.98779,0.99072,0.99072,0.98779,0.99072,0.98779,0.99072,0.99365,0.99365,0.99365,0.99658,0.99365,0.99658,0.99658,0.99365,0.99365,0.99658,0.99658,0.99658,0.99658,0.99658,0.99658,0.99658,0.99658,0.99365,0.99658,0.99121,0.98828,0.99121,0.99121,0.99121,0.99121,0.99121,0.99414,0,0,1.2422,1.2432,1.2432,1.2432,1.2383,1.2383,1.2383,1.2383,1.2383,1.2383,1.2334,1.2334,1.2334,1.2334,1.2334,1.2295,1.2295,1.2295,1.2295,1.2246,1.2246,1.2246,1.2207,1.2207,1.2207,1.2207,1.2158,1.2158,1.2158,1.2158,1.2119,1.2119,1.2119,1.2119,1.2119,1.2119,1.207,1.207,1.207,1.2031,1.2031,1.2031,1.2031,1.2031,1.2031,1.2031,1.1992,1.1992,1.1992,1.1943,1.1943,1.1904,1.1865,1.1865,1.1865,1.1865,1.1865,1.1826,1.1826,1.1826,1.1826,1.1777,1.1826,1.1826,1.1826,1.1826,1.1826,1.1777,1.1826,1.1826,1.1738,1.1738,1.1738,1.1738,1.1738,1.1738,1.1699,1.1699,1.1699,1.166,1.166,1.166,1.1621,1.1621,1.1621,1.1621,1.1621,1.1582,1.1582,1.1543,1.1504,1.1504,1.1465,1.1465,1.1465,1.1426,1.1426,1.1426,1.1426,1.1426,1.1426,1.1387,1.1426,1.1387,1.1426,1.1387,1.1387,1.1387,1.1387,1.1387,1.1348,1.1348,1.1348,1.1309,1.1309,1.127,1.127,1.127,1.127,1.127,1.127,1.123,1.123,1.124,1.124,1.1201,1.1201,1.1201,1.1162,1.1162,1.1123,1.1162,1.1123,1.1123,1.1123,1.1123,1.1123,1.1084,1.1084,1.1084,1.1084,0,0,0,0,0,0,0,0,0,0,0,0,0,0,0,0,0,0,0,0,0,0,0,0,0,0,0,0,0,0,0,0
0.95605,0.95605,0.95312,0.95312,0.95605,0.95312,0.95605,0.95312,0.95312,0.95312,0.95312,0.95312,0.95605,0.95605,0.95605,0.95605,0.95605,0.95605,0.95898,0.95605,0.95605,0.95605,0.95605,0.95605,0.95605,0.95605,0.95605,0.95605,0.95605,0.95605,0.95605,0.95605,0.95605,0.95605,0.95605,0.95898,0.95898,0.95898,0.95898,0.95898,0.95898,0.95898,0.96143,0.95898,0.96143,0.96143,0.96143,0.96143,0.95898,0.95898,0.95898,0.95898,0.95898,0.95898,0.95898,0.95898,0.96143,0.96191,0.96191,0.96435,0.96191,0.96191,0.96191,0.96191,0.96191,0.96435,0.96435,0.96435,0.96435,0.96435,0.96728,0.96435,0.96435,0.96435,0.96435,0.96435,0.96435,0.96435,0.96435,0.96435,0.96435,0.96191,0.96191,0.96191,0.96435,0.96191,0.96435,0.96435,0.96728,0.96728,0.96728,0.96728,0.96728,0.96728,0.96728,0.96484,0.96728,0.96484,0.96728,0.96728,0.96728,0.96728,0.96484,0.96484,0.96728,0.96728,0.96728,0.96728,0.96728,0.97022,0.97022,0.97022,0.96728,0.96728,0.96728,0.96728,0.96728,0.96728,0.96728,0.96728,0.96728,0.96777,0.96777,0.96777,0.96777,0.96777,0.96777,0.96777,0.96777,0.96777,0.97022,0.97022,0.97022,0.97022,0.97022,0.97022,0.97022,0.97315,0.97315,0.97315,0.97315,0.97315,0.97315,0.97315,0.97315,0.97022,0.97315,0.97315,0.97315,0.97315,0.97315,0.97315,0.97315,0.97315,0.97315,0.97315,0.97315,0.97315,0.97315,0.97315,0.97315,0.97315,0.97315,0.97315,0.97315,0.97315,0.97315,0.9707,0.9707,0.9707,0.9707,0.9707,0.9707,0.9707,0.9707,0.9707,0.9707,0.9707,0.9707,0.9707,0.9707,0.9707,0.9707,0.9707,0.9707,0.9707,0.9707,0.9707,0.9707,0.97363,0.9707,0.9707,0.9707,0.97363,0.97363,0.97363,0.97363,0.97363,0.97363,0.97363,0.97363,0.97656,0.97656,0.97656,0.97656,0.97656,0.97656,0.97656,0.97656,0.97656,0.97656,0.97656,0.97656,0.97656,0.97656,0.97656,0.97656,0.97656,0.97656,0.97656,0.97656,0.97656,0.97656,0.97656,0.97656,0.97656,0.97656,0.97656,0.97656,0.97656,0.97656,0.97656,0.97656,0.97656,0.97656,0.97656,0.97656,0.97656,0.97656,0.97656,0.97949,0.97656,0.97656,0.98242,0.98486,0.98486,0.98779,0.99072,0.99072,0.99072,0.99072,0.98779,0.99072,0.99365,0.99658,0.99365,0.99365,0.99658,0.99365,0.99658,0.99658,0.99365,0.99365,0.99365,0.99658,0.99658,0.99658,0.99658,0.99707,0.99707,0.99707,0.99707,0.99414,0.99414,0.99121,0.99121,0.99121,0.99121,0.99121,0.99121,0.99121,0,0,0,1.2432,1.2432,1.2432,1.2383,1.2383,1.2383,1.2383,1.2383,1.2383,1.2334,1.2334,1.2334,1.2334,1.2334,1.2295,1.2295,1.2295,1.2295,1.2295,1.2295,1.2295,1.2246,1.2246,1.2207,1.2207,1.2207,1.2158,1.2158,1.2158,1.2158,1.2158,1.2158,1.2158,1.2158,1.2119,1.2119,1.207,1.207,1.2031,1.2031,1.2031,1.2031,1.2031,1.2031,1.2031,1.2031,1.2031,1.1992,1.1992,1.1943,1.1904,1.1904,1.1904,1.1865,1.1865,1.1865,1.1865,1.1826,1.1826,1.1826,1.1777,1.1865,1.1865,1.1826,1.1826,1.1826,1.1826,1.1826,1.1826,1.1777,1.1777,1.1777,1.1777,1.1738,1.1738,1.1699,1.1699,1.1699,1.1699,1.1699,1.166,1.1621,1.1621,1.1621,1.1621,1.1621,1.1582,1.1582,1.1582,1.1543,1.1504,1.1504,1.1465,1.1465,1.1465,1.1426,1.1426,1.1426,1.1426,1.1426,1.1426,1.1426,1.1387,1.1426,1.1387,1.1387,1.1387,1.1387,1.1387,1.1387,1.1387,1.1348,1.1309,1.1309,1.127,1.127,1.127,1.127,1.124,1.124,1.124,1.124,1.124,1.124,1.124,1.124,1.1201,1.1201,1.1162,1.1123,1.1162,1.1162,1.1123,1.1123,1.1123,1.1123,1.1123,1.1084,1.1084,1.1094,0,0,0,0,0,0,0,0,0,0,0,0,0,0,0,0,0,0,0,0,0,0,0,0,0,0,0,0,0,0,0,0
