0.92529,0.92529,0.92529,0.92529,0.92529,0.92529,0.92529,0.92529,0.92529,0.92529,0.92529,0.92578,0.92578,0.92822,0.92578,0.92822,0.92822,0.92822,0.92822,0.92822,0.92822,0.92822,0.92822,0.92822,0.92822,0.92822,0.92822,0.92822,0.92822,0.92822,0.92578,0.92578,0.92578,0.92822,0.92822,0.92822,0.92822,0.92822,0.92822,0.92822,0.92822,0.92822,0.92822,0.92822,0,0,0,1.1562,1.1562,1.1689,1.165,1.1602,1.1602,1.1602,1.1562,1.1602,1.165,1.1602,1.1602,1.165,1.165,1.165,1.1689,1.1689,1.1689,1.1689,1.1729,1.1729,1.1729,1.1768,1.1807,1.1807,1.1807,1.1768,1.1768,1.1768,1.1768,1.1768,1.1768,1.1768,1.1807,1.1855,1.1855,1.1855,1.1895,1.1895,1.1895,1.1895,1.1895,1.1895,1.1855,1.1855,1.1807,1.1855,1.1855,1.1855,1.1855,1.1895,1.1895,1.1895,1.1895,1.1895,1.1895,1.1895,1.1895,1.1895,0,0,0,0,0,0,0,0,0,0.84522,0.84082,0.82861,0.82471,0.82275,0.8208,0.81885,0.81885,0.81885,0.8169,0.8169,0.8169,0.81885,0.8169,0.81885,0.81885,0.81885,0.81885,0.8208,0.8208,0.8208,0.82275,0.82275,0.82275,0.82275,0.82275,0.82275,0.82471,0.82471,0.82471,0.82471,0.82471,0.82666,0.82666,0.82861,0.82666,0.82666,0.82666,0.82861,0.82861,0.83105,0.83105,0.8291,0.83105,0.83105,0.83105,0.83301,0.83105,0.83105,0.83105,0.83301,0.83301,0.83301,0.83301,0.83301,0.83496,0.83496,0.83496,0,0,0,0,1.0596,1.0566,1.0566,1.0566,1.0566,1.0566,1.0566,1.0566,1.0566,1.0566,1.0566,1.0566,1.0566,1.0566,1.0566,1.0566,1.0566,1.0566,1.0566,1.0566,1.0566,1.0566,1.0566,1.0566,1.0566,1.0566,1.0566,1.0566,1.0566,1.0566,1.0566,1.0527,1.0527,1.0527,1.0566,1.0566,1.0566,1.0527,1.0566,1.0566,1.0537,1.0537,1.0566,1.0566,1.0566,1.0566,1.0537,1.0537,1.0566,1.0566,1.0537,1.0566,1.0566,1.0566,1.0566,1.0566,1.0537,1.0537,1.0537,1.0537,1.0566,1.0537,1.0537,1.0537,1.0537,1.0537,1.0537,1.0537,1.0537,1.0537,1.0537,1.0537,1.0537,1.0537,1.0537,1.0537,1.0537,1.0537,1.0537,1.0498,1.0498,1.0498,1.0498,1.0498,1.0498,1.0498,1.0498,1.0498,1.0498,1.0498,1.0498,1.0498,1.0498,1.0498,1.0498,1.0498,1.0498,1.0498,1.0498,1.0498,1.0469,1.0469,1.0469,1.0439,1.0439,1.0469,1.0469,1.0469,1.0469,1.0469,1.0469,1.0469,1.0469,1.0439,1.0469,1.0469,1.0469,1.0469,1.0469,1.0469,1.0469,1.0439,1.0439,1.0439,1.0439,1.0439,1.0439,1.0439,1.0439,1.0439,1.0439,1.041,1.041,1.041,1.041,1.041,1.041,1.041,1.041,1.041,1.041,1.041,1.041,1.041,1.041,1.041,1.0381,1.041,1.041,1.041,1.0381,1.0381,1.041,1.041,1.0381,1.0381,1.0381,1.0381,1.0381,1.0381,1.0381,1.0381,1.0342,1.0342,1.0342,1.0342,1.0342,1.0342,1.0342,1.0312,1.0312,1.0312,1.0312,1.0312,1.0312,1.0312,1.0312,1.0312,1.0312,1.0312,1.0352,1.0312,1.0312,1.0312,1.0312,1.0312,1.0312,1.0312,1.0312,1.0312,1.0312,1.0312,1.0312,1.0312,1.0312,1.0312,1.0312,1.0312,1.0312,1.0312,1.0312,1.0439,0,0,0,0,0,0,0,0,0,0,0,0,0,0,0,0,0,0,0,0,0,1.0508,1.0449,1.0449,1.0449,0,0,0,1.2812,1.2861,1.2812,1.2861,1.2861,1.2861,1.2812,1.2812,1.2812,1.2812,1.0713,1.0713,1.0674,1.0674,1.0674,1.0674,1.0674,1.0645,1.0645,1.0645,1.0605,1.0605,1.0605,1.0576,1.0576,0,0,0,0,0,0,0,0,0,0,0,0,0,0,0,0,0,0,0,0,0,0,0,0,0,0,0,0,0,0,0,0,0,0
0.92529,0.92529,0.92529,0.92578,0.92822,0.92578,0.92822,0.92578,0.92578,0.92578,0.92822,0.92822,0.92578,0.92822,0.92822,0.92822,0.92822,0.92822,0.92822,0.92822,0.92822,0.92822,0.92822,0.92822,0.92822,0.92822,0.92822,0.92822,0.92822,0.92822,0.92822,0.92578,0.92578,0.92822,0.92822,0.92822,0.92822,0.92822,0.92822,0.92822,0.92822,0.92822,0.92822,0.92822,0,0,0,1.1523,1.1523,1.1602,1.1562,1.1562,1.1523,1.1562,1.1562,1.1562,1.1562,1.1562,1.1562,1.1611,1.1611,1.1611,1.1611,1.1611,1.1611,1.1611,1.165,1.1611,1.1611,1.165,1.1689,1.1768,1.1768,1.1768,1.1768,1.1729,1.1729,1.1729,1.1729,1.1729,1.1729,1.1768,1.1768,1.1807,1.1807,1.1807,1.1855,1.1855,1.1855,1.1807,1.1807,1.1768,1.1768,1.1768,1.1768,1.1768,1.1807,1.1807,1.1855,1.1855,1.1895,1.1895,1.1895,1.1895,1.1855,1.1855,1.1895,0,0,0,0,0,0,0,0,0,0.83887,0.82471,0.82275,0.8208,0.8208,0.8169,0.8169,0.8169,0.8169,0.81494,0.81494,0.8169,0.8169,0.81885,0.81885,0.81885,0.81885,0.81885,0.81885,0.8208,0.82275,0.82275,0.82275,0.82275,0.82275,0.82275,0.82471,0.82275,0.82471,0.82471,0.82471,0.82471,0.82471,0.82471,0.82471,0.82471,0.82471,0.82666,0.8291,0.8291,0.8291,0.8291,0.8291,0.83105,0.83105,0.83105,0.83105,0.83105,0.83105,0.83105,0.83105,0.83105,0.83301,0.83301,0.83301,0.83496,0.83496,0,0,0,0,1.0596,1.0566,1.0566,1.0566,1.0566,1.0566,1.0566,1.0566,1.0596,1.0596,1.0596,1.0566,1.0566,1.0566,1.0566,1.0566,1.0566,1.0566,1.0566,1.0566,1.0566,1.0566,1.0566,1.0566,1.0566,1.0596,1.0566,1.0566,1.0566,1.0566,1.0566,1.0566,1.0527,1.0537,1.0566,1.0566,1.0566,1.0566,1.0566,1.0566,1.0566,1.0566,1.0537,1.0537,1.0566,1.0566,1.0537,1.0537,1.0537,1.0566,1.0537,1.0566,1.0566,1.0566,1.0566,1.0566,1.0566,1.0537,1.0537,1.0537,1.0537,1.0537,1.0537,1.0537,1.0537,1.0537,1.0537,1.0537,1.0537,1.0537,1.0537,1.0537,1.0537,1.0537,1.0537,1.0537,1.0537,1.0537,1.0537,1.0498,1.0498,1.0498,1.0498,1.0498,1.0498,1.0498,1.0498,1.0498,1.0498,1.0498,1.0508,1.0508,1.0508,1.0498,1.0498,1.0498,1.0498,1.0508,1.0508,1.0469,1.0469,1.0469,1.0469,1.0439,1.0439,1.0469,1.0469,1.0469,1.0469,1.0469,1.0469,1.0508,1.0469,1.0469,1.0469,1.0469,1.0469,1.0469,1.0469,1.0469,1.0469,1.0469,1.0439,1.0439,1.0439,1.0439,1.0439,1.0439,1.0439,1.0439,1.0439,1.041,1.041,1.041,1.041,1.041,1.041,1.041,1.041,1.041,1.041,1.041,1.041,1.041,1.041,1.041,1.0381,1.0381,1.0381,1.0381,1.0381,1.0381,1.041,1.041,1.0381,1.0381,1.0381,1.0381,1.0381,1.0381,1.0342,1.0381,1.0342,1.0342,1.0342,1.0342,1.0342,1.0342,1.0342,1.0312,1.0342,1.0312,1.0312,1.0312,1.0283,1.0283,1.0312,1.0312,1.0312,1.0312,1.0312,1.0312,1.0312,1.0312,1.0312,1.0312,1.0312,1.0312,1.0312,1.0352,1.0312,1.0352,1.0312,1.0312,1.0312,1.0312,1.0312,1.0312,1.0312,1.0312,1.0312,0,0,0,0,0,0,0,0,0,0,0,0,0,0,0,0,0,0,0,0,0,0,1.0479,1.0449,1.0449,1.0449,0,0,0,1.2812,1.2812,1.2812,1.2812,1.2812,1.2812,1.2812,1.2812,1.2812,1.2812,1.0781,1.0713,1.0713,1.0674,1.0674,1.0674,1.0674,1.0645,1.0645,1.0645,1.0605,1.0605,1.0605,1.0605,1.0576,0,0,0,0,0,0,0,0,0,0,0,0,0,0,0,0,0,0,0,0,0,0,0,0,0,0,0,0,0,0,0,0,0,0
0.92578,0.92822,0.92578,0.92822,0.92822,0.92822,0.92822,0.92822,0.92822,0.92822,0.92822,0.92822,0.92822,0.92822,0.92822,0.92822,0.92822,0.92822,0.92822,0.92822,0.92822,0.92822,0.92822,0.92822,0.92822,0.92822,0.92822,0.92822,0.92822,0.92822,0.92822,0.92822,0.92822,0.92822,0.92822,0.92822,0.92822,0.92822,0.93066,0.93066,0.92822,0.92822,0.92822,0.93066,0,0,0,1.1445,1.1484,1.1484,1.1523,1.1523,1.1523,1.1523,1.1523,1.1523,1.1523,1.1523,1.1523,1.1523,1.1572,1.1572,1.1572,1.1572,1.1572,1.1611,1.1611,1.1611,1.1611,1.1611,1.165,1.165,1.1689,1.1689,1.1689,1.165,1.165,1.165,1.165,1.165,1.165,1.165,1.1729,1.1768,1.1768,1.1768,1.1768,1.1768,1.1768,1.1768,1.1768,1.1768,1.1729,1.1768,1.1729,1.1768,1.1768,1.1768,1.1816,1.1816,1.1855,1.1855,1.1895,1.1855,1.1855,1.1855,1.1855,0,0,0,0,0,0,0,0,0,0.82666,0.82471,0.82275,0.8208,0.8208,0.81885,0.8169,0.8169,0.8169,0.81494,0.81494,0.8169,0.8169,0.8169,0.8169,0.81885,0.81885,0.81885,0.81885,0.81885,0.82275,0.82275,0.82275,0.82275,0.82275,0.82275,0.82275,0.82275,0.82471,0.82471,0.82471,0.82471,0.82471,0.82471,0.82471,0.82471,0.82471,0.82471,0.82715,0.82715,0.8291,0.8291,0.8291,0.8291,0.83105,0.83105,0.83105,0.83105,0.83105,0.83105,0.83105,0.83105,0.83105,0.83105,0.83301,0.83301,0.83301,0.8374,0,0,0,0,1.0566,1.0566,1.0566,1.0566,1.0566,1.0566,1.0566,1.0566,1.0566,1.0596,1.0566,1.0566,1.0566,1.0566,1.0566,1.0566,1.0566,1.0566,1.0566,1.0566,1.0566,1.0566,1.0566,1.0566,1.0566,1.0566,1.0596,1.0566,1.0566,1.0566,1.0566,1.0537,1.0537,1.0566,1.0566,1.0566,1.0566,1.0566,1.0566,1.0566,1.0566,1.0566,1.0566,1.0566,1.0566,1.0566,1.0537,1.0537,1.0566,1.0566,1.0566,1.0566,1.0566,1.0566,1.0566,1.0566,1.0537,1.0537,1.0537,1.0537,1.0537,1.0537,1.0537,1.0537,1.0537,1.0537,1.0537,1.0537,1.0537,1.0537,1.0537,1.0537,1.0537,1.0537,1.0537,1.0537,1.0537,1.0537,1.0498,1.0498,1.0498,1.0537,1.0537,1.0508,1.0537,1.0508,1.0508,1.0537,1.0508,1.0508,1.0508,1.0508,1.0508,1.0508,1.0508,1.0508,1.0508,1.0508,1.0469,1.0469,1.0469,1.0469,1.0469,1.0469,1.0508,1.0469,1.0469,1.0508,1.0508,1.0508,1.0508,1.0508,1.0469,1.0508,1.0469,1.0469,1.0469,1.0469,1.0469,1.0469,1.0439,1.0439,1.0439,1.0439,1.0439,1.0439,1.0439,1.041,1.041,1.041,1.041,1.041,1.041,1.041,1.041,1.041,1.041,1.041,1.041,1.041,1.041,1.041,1.041,1.041,1.0381,1.0381,1.0381,1.0381,1.041,1.041,1.041,1.041,1.041,1.0381,1.0381,1.0381,1.0381,1.0381,1.0381,1.0381,1.0381,1.0381,1.0352,1.0352,1.0352,1.0352,1.0352,1.0312,1.0312,1.0312,1.0352,1.0312,1.0283,1.0312,1.0283,1.0312,1.0312,1.0312,1.0352,1.0352,1.0312,1.0312,1.0352,1.0312,1.0312,1.0312,1.0312,1.0312,1.0352,1.0312,1.0352,1.0352,1.0312,1.0312,1.0312,1.0312,1.0312,1.0312,1.0312,1.0312,0,0,0,0,0,0,0,0,0,0,0,0,0,0,0,0,0,0,0,0,0,0,1.0449,1.0449,1.0449,1.0449,0,0,0,1.2861,1.2861,1.2812,1.2861,1.2861,1.2812,1.2812,1.2812,1.2812,1.2812,1.0879,1.0781,1.0742,1.0713,1.0674,1.0645,1.0674,1.0645,1.0645,1.0645,1.0605,1.0605,1.0605,1.0576,1.0576,0,0,0,0,0,0,0,0,0,0,0,0,0,0,0,0,0,0,0,0,0,0,0,0,0,0,0,0,0,0,0,0,0,0
0.92822,0.92822,0.92822,0.92822,0.92822,0.92822,0.92822,0.92822,0.92822,0.92822,0.92822,0.92822,0.92822,0.92822,0.92822,0.92822,0.92822,0.92822,0.92822,0.92822,0.92822,0.92822,0.92822,0.92822,0.92822,0.92822,0.92822,0.92822,0.92822,0.92822,0.92822,0.92822,0.92822,0.92822,0.92822,0.93066,0.93066,0.93066,0.93066,0.93066,0.92822,0.93066,0.92822,0.92822,0,0,0,1.1416,1.1416,1.1416,1.1445,1.1445,1.1484,1.1484,1.1484,1.1484,1.1484,1.1484,1.1494,1.1494,1.1533,1.1533,1.1572,1.1572,1.1572,1.1572,1.1572,1.1572,1.1572,1.1572,1.1611,1.1611,1.1611,1.1611,1.1611,1.1611,1.1611,1.1611,1.1611,1.1611,1.1611,1.1611,1.165,1.165,1.165,1.165,1.165,1.165,1.165,1.165,1.165,1.165,1.165,1.1689,1.1689,1.1689,1.1729,1.1729,1.1729,1.1768,1.1768,1.1816,1.1855,1.1855,1.1816,1.1855,1.1855,0,0,0,0,0,0,0,0,0,0.82471,0.82471,0.82275,0.82275,0.8208,0.81885,0.8169,0.8169,0.8169,0.81494,0.81494,0.8169,0.8169,0.8169,0.8169,0.81885,0.81885,0.81885,0.81885,0.8208,0.82275,0.82275,0.82275,0.82275,0.82275,0.82275,0.82275,0.82275,0.82471,0.82471,0.82471,0.82471,0.82471,0.82471,0.82471,0.82471,0.82471,0.82471,0.82471,0.82715,0.8291,0.8291,0.8291,0.8291,0.8291,0.8291,0.8291,0.8291,0.8291,0.83105,0.83105,0.83105,0.83105,0.83105,0.83105,0.83301,0.83301,0.83496,0.83301,0,0,0,0,1.0566,1.0566,1.0566,1.0566,1.0566,1.0566,1.0566,1.0566,1.0566,1.0566,1.0566,1.0566,1.0566,1.0566,1.0566,1.0566,1.0566,1.0566,1.0566,1.0566,1.0566,1.0566,1.0566,1.0566,1.0566,1.0566,1.0566,1.0566,1.0566,1.0566,1.0537,1.0537,1.0566,1.0566,1.0566,1.0566,1.0566,1.0566,1.0566,1.0566,1.0566,1.0566,1.0566,1.0566,1.0537,1.0566,1.0566,1.0566,1.0566,1.0566,1.0566,1.0596,1.0566,1.0596,1.0596,1.0566,1.0566,1.0566,1.0537,1.0537,1.0537,1.0537,1.0537,1.0537,1.0537,1.0537,1.0537,1.0537,1.0537,1.0537,1.0537,1.0537,1.0537,1.0537,1.0537,1.0537,1.0537,1.0537,1.0508,1.0508,1.0537,1.0537,1.0508,1.0537,1.0508,1.0508,1.0508,1.0508,1.0508,1.0508,1.0508,1.0508,1.0508,1.0508,1.0508,1.0508,1.0508,1.0469,1.0508,1.0508,1.0469,1.0469,1.0469,1.0508,1.0508,1.0508,1.0508,1.0508,1.0508,1.0508,1.0508,1.0469,1.0508,1.0469,1.0469,1.0469,1.0469,1.0469,1.0469,1.0439,1.0439,1.0439,1.0439,1.0439,1.0439,1.0439,1.041,1.0439,1.041,1.041,1.041,1.041,1.041,1.041,1.041,1.041,1.041,1.041,1.041,1.041,1.0381,1.041,1.041,1.0381,1.0381,1.0381,1.0381,1.0381,1.0381,1.0381,1.041,1.0381,1.0381,1.0381,1.0381,1.0381,1.0381,1.0381,1.0381,1.0381,1.0381,1.0352,1.0381,1.0381,1.0352,1.0352,1.0352,1.0352,1.0352,1.0352,1.0312,1.0312,1.0312,1.0312,1.0352,1.0352,1.0352,1.0352,1.0352,1.0352,1.0352,1.0352,1.0352,1.0312,1.0312,1.0312,1.0312,1.0352,1.0312,1.0352,1.0352,1.0312,1.0312,1.0312,1.0322,1.0322,1.0322,1.0322,1.0352,0,0,0,0,0,0,0,0,0,0,0,0,0,0,0,0,0,0,0,0,1.0449,1.0449,1.0449,1.0449,1.0449,1.0449,0,0,0,1.2861,1.2861,1.2861,1.2861,1.2812,1.2812,1.2861,1.2812,1.0879,1.2812,1.0986,1.0742,1.0742,1.0713,1.0713,1.0674,1.0674,1.0645,1.0645,1.0615,1.0615,1.0615,1.0615,1.0615,1.0576,0,0,0,0,0,0,0,0,0,0,0,0,0,0,0,0,0,0,0,0,0,0,0,0,0,0,0,0,0,0,0,0,0,0
0.92822,0.92822,0.92822,0.92822,0.92822,0.92822,0.92822,0.92822,0.92822,0.92822,0.92822,0.92822,0.92822,0.92822,0.92822,0.92822,0.92822,0.92822,0.92822,0.92822,0.92822,0.92822,0.92822,0.92822,0.92822,0.92822,0.92822,0.92822,0.92822,0.92822,0.92822,0.92822,0.92822,0.93066,0.93066,0.93066,0.93359,0.93115,0.93115,0.93115,0.92822,0.93115,0.93115,0,0,0,1.1377,1.1377,1.1377,1.1377,1.1416,1.1416,1.1416,1.1416,1.1455,1.1416,1.1455,1.1455,1.1455,1.1455,1.1455,1.1494,1.1494,1.1533,1.1533,1.1533,1.1572,1.1533,1.1533,1.1533,1.1572,1.1572,1.1572,1.1572,1.1572,1.1572,1.1572,1.1572,1.1572,1.1611,1.1611,1.1572,1.1611,1.1572,1.1611,1.1611,1.1611,1.1611,1.1611,1.1611,1.1611,1.1611,1.165,1.165,1.1611,1.165,1.1689,1.1689,1.1689,1.1689,1.1689,1.1768,1.1768,1.1768,1.1729,1.1768,1.1816,0,0,0,0,0,0,0,0,0,0.82666,0.82471,0.82471,0.82275,0.8208,0.81885,0.8169,0.8169,0.8169,0.81494,0.81494,0.8169,0.8169,0.81885,0.8169,0.81885,0.81885,0.81885,0.81885,0.8208,0.82275,0.82275,0.82275,0.82275,0.82275,0.82275,0.82471,0.82471,0.82471,0.82471,0.82471,0.82471,0.8252,0.8252,0.8252,0.8252,0.8252,0.82715,0.82715,0.82715,0.8291,0.8291,0.8291,0.8291,0.8291,0.8291,0.8291,0.8291,0.8291,0.8291,0.8291,0.83105,0.83105,0.83105,0.83105,0.83105,0.83105,0.83301,0.83301,0,0,0,0,1.0566,1.0566,1.0566,1.0566,1.0566,1.0566,1.0566,1.0566,1.0566,1.0566,1.0566,1.0566,1.0566,1.0566,1.0566,1.0566,1.0566,1.0566,1.0566,1.0596,1.0566,1.0566,1.0566,1.0566,1.0566,1.0566,1.0566,1.0566,1.0566,1.0566,1.0537,1.0537,1.0566,1.0566,1.0566,1.0566,1.0566,1.0566,1.0566,1.0566,1.0566,1.0566,1.0566,1.0566,1.0537,1.0566,1.0566,1.0566,1.0566,1.0566,1.0566,1.0566,1.0566,1.0566,1.0566,1.0566,1.0537,1.0537,1.0537,1.0537,1.0537,1.0537,1.0537,1.0537,1.0537,1.0537,1.0537,1.0537,1.0537,1.0537,1.0537,1.0537,1.0537,1.0537,1.0537,1.0508,1.0508,1.0537,1.0508,1.0508,1.0508,1.0537,1.0508,1.0537,1.0508,1.0508,1.0537,1.0508,1.0508,1.0508,1.0508,1.0508,1.0508,1.0508,1.0508,1.0508,1.0469,1.0469,1.0469,1.0508,1.0469,1.0469,1.0469,1.0508,1.0508,1.0508,1.0508,1.0508,1.0508,1.0508,1.0469,1.0469,1.0469,1.0469,1.0469,1.0469,1.0469,1.0469,1.0469,1.0439,1.0439,1.0439,1.0439,1.0439,1.0439,1.0439,1.041,1.0439,1.041,1.041,1.041,1.041,1.041,1.041,1.041,1.041,1.041,1.041,1.041,1.041,1.0381,1.0381,1.041,1.0381,1.041,1.0381,1.0381,1.0381,1.0381,1.0381,1.0381,1.0381,1.0381,1.0381,1.0381,1.0381,1.0381,1.0381,1.0381,1.0381,1.0381,1.0381,1.0381,1.0381,1.0381,1.0352,1.0352,1.0352,1.0352,1.0352,1.0352,1.0312,1.0312,1.0312,1.0352,1.0352,1.0352,1.0352,1.0352,1.0312,1.0312,1.0352,1.0352,1.0312,1.0312,1.0312,1.0312,1.0352,1.0322,1.0352,1.0352,1.0322,1.0322,1.0322,1.0322,1.0322,1.0322,1.0352,1.0381,1.0576,0,0,0,0,0,0,0,0,0,0,0,0,1.0479,0,0,0,0,0,1.0479,1.0479,1.0449,1.0449,1.0449,1.0449,1.0449,1.0449,0,0,1.2861,1.2861,1.2861,1.2861,1.2861,1.2861,1.2861,1.2812,1.2812,1.0781,1.0781,1.0742,1.0742,1.0713,1.0713,1.0674,1.0674,1.0645,1.0645,1.0645,1.0615,1.0615,1.0615,1.0576,1.0576,0,0,0,0,0,0,0,0,0,0,0,0,0,0,0,0,0,0,0,0,0,0,0,0,0,0,0,0,0,0,0,0,0,0
0.92822,0.92822,0.92822,0.92822,0.93066,0.92822,0.92822,0.92822,0.92822,0.92822,0.93066,0.92822,0.92822,0.92822,0.92822,0.92822,0.92822,0.92822,0.92822,0.92822,0.92822,0.92822,0.92822,0.92822,0.92822,0.92822,0.93066,0.93066,0.92822,0.92822,0.92822,0.92822,0.92822,0.93115,0.93115,0.93115,0.93115,0.93115,0.93115,0.93115,0.92822,0.93115,0.93115,0,0,0,1.1338,1.1377,1.1377,1.1377,1.1377,1.1377,1.1377,1.1416,1.1416,1.1416,1.1416,1.1416,1.1416,1.1416,1.1416,1.1455,1.1455,1.1494,1.1494,1.1494,1.1533,1.1533,1.1533,1.1533,1.1572,1.1533,1.1533,1.1533,1.1533,1.1533,1.1533,1.1533,1.1572,1.1572,1.1572,1.1533,1.1572,1.1533,1.1572,1.1533,1.1572,1.1572,1.1572,1.1572,1.1572,1.1611,1.1611,1.1611,1.1572,1.1611,1.1611,1.165,1.165,1.165,1.1611,1.165,1.165,1.165,1.165,1.165,1.165,1.165,0,0,0,0,0,0,0,0,0,0.82471,0.82471,0.82275,0.8208,0.81885,0.8169,0.8169,0.8169,0.81494,0.8169,0.8169,0.8169,0.81885,0.81885,0.81885,0.81885,0.81885,0.8208,0.8208,0.82275,0.82275,0.82275,0.82275,0.82471,0.82275,0.8252,0.8252,0.8252,0.8252,0.8252,0.8252,0.8252,0.8252,0.8252,0.8252,0.82715,0.82715,0.82715,0.8291,0.8291,0.8291,0.8291,0.8291,0.8291,0.8291,0.8291,0.8291,0.8291,0.83105,0.83105,0.8291,0.8291,0.83105,0.83105,0.83105,0.83301,0.83301,0.83301,0,0,0,0,1.0566,1.0566,1.0566,1.0596,1.0596,1.0566,1.0566,1.0596,1.0596,1.0596,1.0566,1.0566,1.0566,1.0566,1.0566,1.0596,1.0566,1.0566,1.0596,1.0566,1.0566,1.0566,1.0566,1.0566,1.0566,1.0566,1.0566,1.0566,1.0566,1.0566,1.0566,1.0537,1.0566,1.0566,1.0566,1.0566,1.0566,1.0566,1.0566,1.0566,1.0566,1.0566,1.0566,1.0566,1.0537,1.0537,1.0566,1.0566,1.0566,1.0566,1.0566,1.0566,1.0566,1.0566,1.0566,1.0566,1.0537,1.0537,1.0537,1.0537,1.0537,1.0537,1.0537,1.0537,1.0537,1.0537,1.0537,1.0537,1.0537,1.0537,1.0537,1.0537,1.0537,1.0537,1.0537,1.0508,1.0508,1.0537,1.0508,1.0508,1.0537,1.0537,1.0537,1.0537,1.0537,1.0537,1.0508,1.0508,1.0508,1.0508,1.0508,1.0508,1.0508,1.0508,1.0508,1.0508,1.0469,1.0469,1.0508,1.0469,1.0469,1.0469,1.0508,1.0537,1.0508,1.0508,1.0508,1.0508,1.0508,1.0508,1.0469,1.0469,1.0469,1.0439,1.0469,1.0469,1.0469,1.0469,1.0469,1.0469,1.0439,1.0439,1.0439,1.0439,1.0439,1.0439,1.0439,1.041,1.041,1.041,1.041,1.041,1.041,1.041,1.041,1.041,1.041,1.0381,1.0381,1.041,1.0381,1.0381,1.041,1.041,1.0381,1.0381,1.0381,1.0381,1.0381,1.0381,1.0381,1.0381,1.0381,1.0381,1.041,1.0381,1.0381,1.0381,1.0381,1.0381,1.0381,1.0381,1.0381,1.0381,1.0381,1.0352,1.0352,1.0352,1.0352,1.0352,1.0312,1.0312,1.0322,1.0322,1.0352,1.0322,1.0352,1.0352,1.0352,1.0322,1.0322,1.0352,1.0322,1.0322,1.0322,1.0322,1.0352,1.0322,1.0322,1.0322,1.0322,1.0322,1.0322,1.0322,1.0322,1.0322,1.0322,1.0352,1.0381,1.0449,1.0576,0,0,1.0605,1.0576,0,0,0,0,0,1.0508,1.0479,0,1.0508,1.0508,0,0,0,1.0479,1.0449,1.0449,1.041,1.0449,1.0449,1.0449,0,0,0,1.2861,1.2861,1.291,1.291,1.2861,1.2861,1.2861,1.2861,1.2861,1.0742,1.0811,1.0742,1.0742,1.0713,1.0713,1.0674,1.0674,1.0645,1.0645,1.0645,1.0615,1.0615,1.0615,1.0576,1.0576,0,0,0,0,0,0,0,0,0,0,0,0,0,0,0,0,0,0,0,0,0,0,0,0,0,0,0,0,0,0,0,0,0,0
0.92822,0.93066,0.92822,0.92822,0.93066,0.93066,0.92822,0.92822,0.92822,0.93066,0.93066,0.93066,0.92822,0.92822,0.92822,0.92822,0.92822,0.92822,0.92822,0.92822,0.93115,0.93115,0.92822,0.93115,0.93115,0.93115,0.93115,0.93115,0.93115,0.93115,0.93115,0.93115,0.92822,0.93115,0.93115,0.93115,0.93115,0.93115,0.93115,0.93115,0.93115,0.93115,0.93115,0,0,0,1.1338,1.1338,1.1338,1.1338,1.1338,1.1377,1.1377,1.1377,1.1377,1.1377,1.1377,1.1377,1.1377,1.1377,1.1377,1.1377,1.1416,1.1416,1.1416,1.1455,1.1494,1.1494,1.1494,1.1455,1.1494,1.1494,1.1494,1.1455,1.1455,1.1455,1.1455,1.1494,1.1533,1.1533,1.1533,1.1533,1.1533,1.1533,1.1533,1.1494,1.1533,1.1494,1.1533,1.1533,1.1572,1.1572,1.1572,1.1572,1.1572,1.1572,1.1611,1.1572,1.1611,1.1611,1.1611,1.1611,1.1611,1.1611,1.1611,1.1611,1.1611,1.1611,0,0,0,0,0,0,0,0,0,0.82471,0.82471,0.82275,0.8208,0.8208,0.81885,0.81885,0.8169,0.8169,0.81885,0.81885,0.81885,0.81885,0.81885,0.81885,0.8208,0.8208,0.8208,0.8208,0.82275,0.82275,0.82275,0.8252,0.8252,0.8252,0.8252,0.8252,0.8252,0.8252,0.8252,0.8252,0.8252,0.8252,0.8252,0.8252,0.82715,0.82715,0.8291,0.8291,0.8291,0.8291,0.8291,0.8291,0.8291,0.8291,0.8291,0.8291,0.8291,0.83105,0.83105,0.83105,0.83105,0.83105,0.83105,0.83105,0.83301,0.83301,0,0,0,0,1.0566,1.0596,1.0596,1.0596,1.0596,1.0596,1.0596,1.0596,1.0596,1.0596,1.0596,1.0566,1.0566,1.0596,1.0566,1.0596,1.0596,1.0596,1.0596,1.0596,1.0596,1.0566,1.0566,1.0566,1.0566,1.0566,1.0566,1.0566,1.0596,1.0566,1.0566,1.0566,1.0566,1.0566,1.0605,1.0566,1.0566,1.0566,1.0566,1.0566,1.0566,1.0566,1.0566,1.0566,1.0566,1.0566,1.0566,1.0566,1.0566,1.0566,1.0566,1.0566,1.0566,1.0566,1.0566,1.0537,1.0537,1.0537,1.0537,1.0537,1.0537,1.0537,1.0537,1.0537,1.0537,1.0537,1.0537,1.0537,1.0537,1.0537,1.0537,1.0537,1.0537,1.0537,1.0508,1.0537,1.0508,1.0508,1.0537,1.0537,1.0537,1.0537,1.0537,1.0537,1.0537,1.0537,1.0537,1.0508,1.0508,1.0508,1.0508,1.0508,1.0508,1.0508,1.0469,1.0469,1.0469,1.0469,1.0469,1.0469,1.0469,1.0469,1.0469,1.0469,1.0508,1.0508,1.0508,1.0508,1.0508,1.0508,1.0479,1.0479,1.0479,1.0479,1.0439,1.0479,1.0479,1.0479,1.0479,1.0479,1.0479,1.0439,1.0439,1.0439,1.0439,1.0439,1.0439,1.0439,1.041,1.041,1.041,1.041,1.041,1.041,1.041,1.041,1.041,1.041,1.041,1.041,1.041,1.041,1.0381,1.0381,1.0381,1.041,1.0381,1.0381,1.0381,1.0381,1.0381,1.0381,1.0381,1.0381,1.041,1.041,1.041,1.0381,1.0381,1.0381,1.0381,1.0381,1.0381,1.0381,1.0381,1.0381,1.0352,1.0352,1.0352,1.0352,1.0352,1.0352,1.0322,1.0322,1.0322,1.0352,1.0322,1.0352,1.0352,1.0352,1.0352,1.0352,1.0352,1.0322,1.0322,1.0322,1.0322,1.0352,1.0322,1.0322,1.0322,1.0322,1.0322,1.0322,1.0322,1.0322,1.0322,1.0322,1.0352,1.0352,1.041,1.0576,1.0547,1.0576,1.0605,1.0576,0,0,0,0,1.0547,1.0508,1.0479,1.0479,1.0479,1.0479,1.0479,1.0479,1.0479,1.0479,1.0479,1.0449,1.0449,1.0449,1.0449,1.0449,0,0,1.2861,1.291,1.291,1.291,1.291,1.2861,1.2861,1.2861,1.2861,1.2861,1.085,1.085,1.0742,1.0742,1.0713,1.0713,1.0684,1.0684,1.0645,1.0645,1.0645,1.0615,1.0615,1.0615,1.0576,1.0576,0,0,0,0,0,0,0,0,0,0,0,0,0,0,0,0,0,0,0,0,0,0,0,0,0,0,0,0,0,0,0,0,0,0
0.93066,0.93066,0.92822,0.92822,0.93066,0.93066,0.92822,0.92822,0.93115,0.93115,0.93115,0.93115,0.93115,0.93115,0.93115,0.93115,0.92822,0.92822,0.93115,0.92822,0.92822,0.92822,0.93115,0.93115,0.93115,0.93115,0.93115,0.93115,0.93115,0.93115,0.93115,0.93115,0.93115,0.93359,0.93115,0.93115,0.93359,0.93115,0.93359,0.93359,0.93115,0.93359,0.93359,0,0,0,1.1299,1.1338,1.1299,1.1299,1.1299,1.1338,1.1338,1.1338,1.1338,1.1338,1.1338,1.1338,1.1338,1.1338,1.1338,1.1377,1.1377,1.1377,1.1377,1.1416,1.1416,1.1416,1.1455,1.1455,1.1455,1.1455,1.1455,1.1455,1.1455,1.1455,1.1455,1.1455,1.1455,1.1494,1.1494,1.1494,1.1533,1.1494,1.1494,1.1494,1.1455,1.1455,1.1494,1.1494,1.1494,1.1533,1.1533,1.1533,1.1533,1.1572,1.1572,1.1533,1.1572,1.1572,1.1533,1.1572,1.1572,1.1533,1.1533,1.1572,1.1533,1.1533,0,0,0,0,0,0,0,0,0.82715,0.82471,0.82471,0.82275,0.82275,0.8208,0.8208,0.81885,0.81885,0.8169,0.81885,0.81885,0.81885,0.81885,0.81885,0.81885,0.8208,0.8208,0.8208,0.8208,0.82275,0.82275,0.82324,0.8252,0.8252,0.8252,0.8252,0.8252,0.8252,0.8252,0.8252,0.8252,0.8252,0.8252,0.8252,0.82715,0.82715,0.82715,0.8291,0.8291,0.83105,0.83105,0.8291,0.8291,0.83105,0.83105,0.83105,0.8291,0.8291,0.83105,0.83105,0.83105,0.83105,0.83105,0.83105,0.83105,0.8335,0.8335,0,0,0,0,1.0566,1.0566,1.0596,1.0596,1.0596,1.0596,1.0596,1.0596,1.0596,1.0596,1.0596,1.0596,1.0596,1.0596,1.0596,1.0596,1.0596,1.0596,1.0596,1.0596,1.0596,1.0596,1.0596,1.0605,1.0566,1.0566,1.0566,1.0566,1.0605,1.0566,1.0566,1.0566,1.0566,1.0605,1.0605,1.0566,1.0566,1.0566,1.0566,1.0566,1.0566,1.0566,1.0566,1.0566,1.0566,1.0566,1.0566,1.0566,1.0566,1.0566,1.0566,1.0566,1.0566,1.0566,1.0566,1.0537,1.0537,1.0537,1.0537,1.0537,1.0537,1.0537,1.0537,1.0537,1.0537,1.0537,1.0537,1.0537,1.0537,1.0537,1.0537,1.0537,1.0537,1.0537,1.0537,1.0537,1.0537,1.0508,1.0537,1.0537,1.0537,1.0537,1.0508,1.0537,1.0537,1.0508,1.0508,1.0508,1.0508,1.0508,1.0508,1.0508,1.0508,1.0508,1.0469,1.0469,1.0469,1.0469,1.0469,1.0479,1.0479,1.0479,1.0479,1.0479,1.0508,1.0479,1.0508,1.0479,1.0479,1.0479,1.0479,1.0479,1.0479,1.0439,1.0439,1.0479,1.0479,1.0479,1.0479,1.0439,1.0439,1.0439,1.0439,1.0439,1.0439,1.0439,1.0439,1.0439,1.041,1.041,1.041,1.041,1.041,1.041,1.041,1.041,1.041,1.041,1.041,1.0381,1.041,1.041,1.0381,1.0381,1.041,1.0381,1.0381,1.0381,1.0381,1.0381,1.0381,1.0381,1.0381,1.0381,1.041,1.041,1.041,1.0381,1.0381,1.0381,1.0381,1.0381,1.0381,1.0381,1.0381,1.0381,1.0352,1.0352,1.0352,1.0352,1.0352,1.0352,1.0322,1.0322,1.0322,1.0352,1.0352,1.0352,1.0352,1.0352,1.0352,1.0352,1.0352,1.0322,1.0322,1.0322,1.0322,1.0322,1.0322,1.0322,1.0322,1.0322,1.0322,1.0322,1.0322,1.0322,1.0322,1.0322,1.0322,1.0352,1.0449,1.0547,1.0479,1.0605,1.0605,1.0547,1.0508,1.0508,1.0479,1.0449,1.0449,1.0449,1.0449,1.0449,1.0479,1.0479,1.0479,1.0479,1.0479,1.0479,1.0479,1.0479,1.0449,1.0449,1.0449,0,0,0,1.2861,1.291,1.291,1.291,1.291,1.291,1.2861,1.2861,1.2861,1.2861,1.085,1.085,1.0742,1.0742,1.0713,1.0713,1.0645,1.0684,1.0645,1.0645,1.0645,1.0615,1.0615,1.0615,1.0576,1.0576,0,0,0,0,0,0,0,0,0,0,0,0,0,0,0,0,0,0,0,0,0,0,0,0,0,0,0,0,0,0,0,0,0,0
0.93066,0.93115,0.93115,0.93115,0.93115,0.93115,0.93115,0.93115,0.93115,0.93115,0.93115,0.93115,0.93115,0.93115,0.93115,0.93115,0.93115,0.92822,0.92822,0.92822,0.92822,0.93115,0.93115,0.93115,0.93115,0.93115,0.93115,0.93115,0.93115,0.93115,0.93115,0.93115,0.93115,0.93359,0.93359,0.93359,0.93359,0.93359,0.93359,0.93359,0.93359,0.93359,0.93603,0,0,0,1.126,1.1299,1.126,1.126,1.126,1.126,1.126,1.1299,1.1299,1.1299,1.1299,1.1299,1.1299,1.1299,1.1299,1.1299,1.1338,1.1299,1.1338,1.1338,1.1377,1.1338,1.1416,1.1377,1.1455,1.1416,1.1416,1.1416,1.1416,1.1416,1.1416,1.1416,1.1416,1.1416,1.1455,1.1455,1.1455,1.1455,1.1455,1.1455,1.1455,1.1455,1.1455,1.1455,1.1455,1.1455,1.1494,1.1494,1.1494,1.1494,1.1533,1.1494,1.1533,1.1533,1.1533,1.1533,1.1533,1.1533,1.1494,1.1533,1.1494,1.1533,0,0,0,0,0,0,0,0,0.82715,0.82275,0.82275,0.82275,0.82275,0.8208,0.8208,0.81885,0.81885,0.81885,0.81885,0.81885,0.81885,0.81885,0.81885,0.8208,0.8208,0.8208,0.8208,0.8208,0.82324,0.82324,0.82324,0.8252,0.8252,0.8252,0.8252,0.8252,0.8252,0.8252,0.8252,0.8252,0.8252,0.8252,0.8252,0.82715,0.82715,0.8291,0.8291,0.8291,0.83105,0.83105,0.83105,0.83105,0.83105,0.83105,0.83105,0.83105,0.83105,0.83105,0.83105,0.83105,0.83105,0.83105,0.83105,0.83105,0.8335,0.8335,0,0,0,0,1.0566,1.0596,1.0596,1.0596,1.0596,1.0596,1.0596,1.0596,1.0596,1.0596,1.0596,1.0596,1.0596,1.0596,1.0596,1.0596,1.0605,1.0566,1.0605,1.0605,1.0605,1.0605,1.0605,1.0566,1.0566,1.0566,1.0566,1.0566,1.0605,1.0566,1.0566,1.0566,1.0566,1.0605,1.0605,1.0566,1.0566,1.0566,1.0566,1.0566,1.0566,1.0566,1.0566,1.0566,1.0566,1.0566,1.0566,1.0566,1.0566,1.0566,1.0566,1.0566,1.0566,1.0566,1.0566,1.0566,1.0537,1.0537,1.0537,1.0537,1.0537,1.0537,1.0537,1.0537,1.0537,1.0537,1.0537,1.0537,1.0537,1.0537,1.0537,1.0537,1.0537,1.0537,1.0537,1.0537,1.0537,1.0537,1.0537,1.0537,1.0537,1.0537,1.0508,1.0537,1.0537,1.0508,1.0537,1.0508,1.0508,1.0508,1.0508,1.0508,1.0508,1.0508,1.0479,1.0479,1.0479,1.0479,1.0479,1.0479,1.0479,1.0479,1.0479,1.0479,1.0508,1.0479,1.0508,1.0479,1.0479,1.0479,1.0479,1.0479,1.0479,1.0439,1.0439,1.0439,1.0479,1.0479,1.0479,1.0479,1.0479,1.0439,1.0439,1.0439,1.0439,1.0439,1.0439,1.0439,1.0439,1.0439,1.0439,1.0439,1.0439,1.0439,1.0439,1.0439,1.041,1.041,1.041,1.041,1.041,1.041,1.0381,1.0381,1.0381,1.0381,1.0381,1.0381,1.0381,1.0381,1.0381,1.0381,1.0381,1.0381,1.041,1.041,1.041,1.0381,1.0381,1.0352,1.0381,1.0381,1.0381,1.0381,1.0381,1.0381,1.0381,1.0352,1.0352,1.0352,1.0352,1.0352,1.0322,1.0322,1.0322,1.0352,1.0352,1.0352,1.0352,1.0352,1.0352,1.0352,1.0352,1.0352,1.0352,1.0322,1.0322,1.0322,1.0322,1.0322,1.0322,1.0322,1.0322,1.0322,1.0322,1.0293,1.0293,1.0322,1.0322,1.0352,1.0352,1.0479,1.0479,1.0615,1.0547,1.0479,1.0479,1.0479,1.0449,1.0449,1.0449,1.0449,1.0449,1.0479,1.0508,1.0479,1.0479,1.0479,1.0479,1.0479,1.0449,1.0449,1.0449,1.0449,1.0449,1.0479,0,0,1.2861,1.2861,1.2871,1.292,1.292,1.292,1.2871,1.2871,1.2871,1.2822,1.085,1.082,1.0752,1.0752,1.0713,1.0684,1.0645,1.0684,1.0645,1.0645,1.0645,1.0615,1.0615,1.0615,1.0576,1.0576,0,0,0,0,0,0,0,0,0,0,0,0,0,0,0,0,0,0,0,0,0,0,0,0,0,0,0,0,0,0,0,0,0,0
0.93115,0.93115,0.93115,0.93115,0.93115,0.93115,0.93115,0.93115,0.93115,0.93115,0.93115,0.93115,0.93115,0.93115,0.93115,0.93115,0.93115,0.93115,0.93115,0.93115,0.93115,0.93115,0.93115,0.93115,0.93359,0.93115,0.93359,0.93359,0.93359,0.93359,0.93115,0.93115,0.93115,0.93359,0.93115,0.93115,0.93359,0.93359,0.93359,0.93359,0.93359,0.93359,0.93652,0,0,0,1.1221,1.1221,1.1221,1.1221,1.1221,1.1221,1.1221,1.1221,1.1221,1.126,1.126,1.126,1.126,1.126,1.126,1.126,1.126,1.126,1.126,1.1299,1.1299,1.1299,1.1338,1.1338,1.1377,1.1377,1.1377,1.1377,1.1377,1.1377,1.1377,1.1377,1.1377,1.1377,1.1416,1.1416,1.1455,1.1416,1.1416,1.1416,1.1416,1.1416,1.1416,1.1416,1.1377,1.1416,1.1416,1.1455,1.1455,1.1455,1.1455,1.1455,1.1494,1.1494,1.1494,1.1494,1.1494,1.1494,1.1494,1.1494,1.1494,1.1494,0,0,0,0,0,0,0,0,0,0.8252,0.8252,0.82275,0.82275,0.82275,0.8208,0.8208,0.8208,0.8208,0.8208,0.8208,0.8208,0.81885,0.8208,0.8208,0.82129,0.82129,0.82129,0.82129,0.82324,0.82324,0.8252,0.8252,0.8252,0.8252,0.8252,0.8252,0.8252,0.8252,0.8252,0.8252,0.8252,0.8252,0.8252,0.82715,0.82715,0.8291,0.8291,0.83105,0.83105,0.83105,0.83105,0.83105,0.83105,0.83105,0.83105,0.83105,0.83105,0.83105,0.83105,0.83105,0.83105,0.83105,0.8335,0.83105,0.8335,0.8335,0,0,0,0,1.0566,1.0596,1.0596,1.0596,1.0596,1.0596,1.0596,1.0596,1.0596,1.0605,1.0605,1.0605,1.0605,1.0605,1.0605,1.0605,1.0605,1.0605,1.0605,1.0605,1.0566,1.0566,1.0566,1.0566,1.0566,1.0605,1.0566,1.0566,1.0605,1.0566,1.0605,1.0566,1.0566,1.0605,1.0605,1.0566,1.0566,1.0566,1.0566,1.0566,1.0566,1.0566,1.0566,1.0566,1.0566,1.0566,1.0605,1.0566,1.0566,1.0566,1.0566,1.0566,1.0566,1.0605,1.0566,1.0566,1.0566,1.0537,1.0537,1.0537,1.0537,1.0537,1.0537,1.0537,1.0537,1.0537,1.0537,1.0537,1.0537,1.0537,1.0537,1.0537,1.0537,1.0537,1.0537,1.0537,1.0537,1.0537,1.0537,1.0537,1.0537,1.0508,1.0508,1.0537,1.0537,1.0508,1.0508,1.0508,1.0508,1.0508,1.0508,1.0508,1.0508,1.0479,1.0479,1.0479,1.0479,1.0479,1.0479,1.0479,1.0479,1.0479,1.0479,1.0479,1.0508,1.0479,1.0479,1.0479,1.0479,1.0479,1.0479,1.0479,1.0439,1.0439,1.0439,1.0479,1.0479,1.0479,1.0479,1.0479,1.0479,1.0479,1.0439,1.0439,1.0439,1.0439,1.0439,1.0439,1.0439,1.0439,1.041,1.041,1.0439,1.041,1.0439,1.041,1.041,1.041,1.041,1.041,1.041,1.041,1.0381,1.0381,1.0381,1.0381,1.0381,1.0381,1.0381,1.0381,1.0381,1.0381,1.0381,1.0381,1.0381,1.041,1.0381,1.0381,1.0352,1.0322,1.0381,1.0381,1.0381,1.0381,1.0352,1.0381,1.0352,1.0352,1.0352,1.0352,1.0352,1.0352,1.0322,1.0322,1.0322,1.0352,1.0352,1.0352,1.0352,1.0352,1.0352,1.0352,1.0352,1.0352,1.0352,1.0322,1.0322,1.0322,1.0322,1.0322,1.0322,1.0322,1.0322,1.0322,1.0322,1.0322,1.0322,1.0322,1.0322,1.0322,1.0449,1.0576,1.0576,1.0576,1.0479,1.0449,1.0449,1.0449,1.0449,1.0449,1.0449,1.0449,1.0449,1.0479,1.0479,1.0479,1.0479,1.0479,1.0479,1.0479,1.0479,1.0449,1.0449,1.0449,1.0449,1.0479,0,0,1.2871,1.2871,1.2871,1.292,1.292,1.292,1.2871,1.2871,1.2822,1.2822,1.0889,1.0752,1.0752,1.0752,1.0713,1.0684,1.0684,1.0684,1.0645,1.0645,1.0645,1.0615,1.0615,1.0615,1.0547,0,0,0,0,0,0,0,0,0,0,0,0,0,0,0,0,0,0,0,0,0,0,0,0,0,0,0,0,0,0,0,0,0,0,0
0.93115,0.93115,0.93115,0.93115,0.93115,0.93115,0.93115,0.93115,0.93115,0.93115,0.93115,0.93359,0.93359,0.93359,0.93359,0.93359,0.93115,0.93115,0.93115,0.93115,0.93115,0.93115,0.93115,0.93115,0.93115,0.93115,0.93115,0.93603,0.93359,0.93115,0.93115,0.93652,0.93115,0.93652,0.93359,0.93359,0.93359,0.93359,0.93359,0.93359,0.93359,0.93359,0.93652,0,0,0,1.1152,1.1152,1.1152,1.1152,1.1152,1.1152,1.1191,1.1191,1.1191,1.123,1.123,1.123,1.123,1.123,1.123,1.123,1.123,1.123,1.123,1.123,1.123,1.126,1.126,1.126,1.1299,1.1338,1.1338,1.1338,1.1338,1.1338,1.1338,1.1338,1.1338,1.1338,1.1338,1.1338,1.1377,1.1377,1.1377,1.1377,1.1338,1.1377,1.1377,1.1338,1.1377,1.1377,1.1377,1.1416,1.1416,1.1416,1.1416,1.1416,1.1455,1.1455,1.1455,1.1455,1.1455,1.1455,1.1455,1.1455,1.1455,0,0,0,0,0,0,0,0,0,0,0.8252,0.8252,0.82324,0.82324,0.8208,0.8208,0.8208,0.8208,0.82129,0.82129,0.82129,0.82129,0.82129,0.82129,0.82129,0.82129,0.82129,0.82129,0.82324,0.82324,0.8252,0.8252,0.8252,0.8252,0.8252,0.8252,0.8252,0.8252,0.82715,0.82715,0.8252,0.82715,0.82715,0.82715,0.8291,0.82715,0.8291,0.8291,0.8291,0.83105,0.83105,0.83105,0.83105,0.83105,0.83105,0.83105,0.83105,0.83105,0.83105,0.83154,0.83154,0.83154,0.8335,0.8335,0.8335,0.8335,0.83154,0,0,0,0,1.0566,1.0566,1.0605,1.0605,1.0605,1.0605,1.0605,1.0605,1.0605,1.0605,1.0605,1.0605,1.0605,1.0605,1.0605,1.0605,1.0605,1.0605,1.0605,1.0566,1.0566,1.0566,1.0566,1.0566,1.0566,1.0566,1.0605,1.0605,1.0605,1.0605,1.0605,1.0605,1.0566,1.0605,1.0605,1.0605,1.0605,1.0566,1.0566,1.0566,1.0566,1.0566,1.0566,1.0566,1.0566,1.0566,1.0605,1.0566,1.0566,1.0566,1.0566,1.0566,1.0566,1.0566,1.0566,1.0566,1.0566,1.0537,1.0566,1.0537,1.0537,1.0537,1.0537,1.0537,1.0537,1.0537,1.0537,1.0566,1.0537,1.0537,1.0537,1.0537,1.0537,1.0537,1.0537,1.0537,1.0537,1.0537,1.0537,1.0537,1.0537,1.0508,1.0508,1.0508,1.0508,1.0508,1.0508,1.0508,1.0508,1.0508,1.0508,1.0508,1.0508,1.0508,1.0479,1.0479,1.0508,1.0479,1.0479,1.0479,1.0479,1.0479,1.0479,1.0479,1.0508,1.0479,1.0508,1.0479,1.0479,1.0479,1.0479,1.0479,1.0439,1.0439,1.0439,1.0479,1.0479,1.0479,1.0479,1.0479,1.0479,1.0439,1.0439,1.0439,1.0439,1.0439,1.0439,1.0439,1.0449,1.0449,1.041,1.041,1.041,1.041,1.041,1.041,1.041,1.041,1.041,1.041,1.041,1.041,1.0381,1.0381,1.0381,1.0381,1.0352,1.0381,1.0352,1.0381,1.0381,1.0381,1.0381,1.0381,1.0381,1.0381,1.0381,1.0381,1.0352,1.0352,1.0352,1.0381,1.0381,1.0381,1.0352,1.0352,1.0352,1.0352,1.0352,1.0352,1.0352,1.0352,1.0322,1.0322,1.0322,1.0352,1.0352,1.0352,1.0352,1.0322,1.0322,1.0322,1.0322,1.0352,1.0352,1.0322,1.0322,1.0322,1.0322,1.0322,1.0322,1.0322,1.0322,1.0322,1.0322,1.0293,1.0293,1.0322,1.0322,1.0352,1.0547,1.0547,1.0547,1.0518,1.0479,1.0479,1.0479,1.042,1.0449,1.0449,1.0449,1.0449,1.0449,1.0449,1.0449,1.0479,1.0479,1.0479,1.0479,1.0479,1.0449,1.0449,1.0449,1.0449,1.0449,1.0449,1.0449,0,0,1.2871,1.2871,1.292,1.292,1.292,1.2871,1.2871,1.2871,1.0889,1.0781,1.0752,1.0752,1.0752,1.0713,1.0684,1.0684,1.0684,1.0645,1.0645,1.0645,1.0615,1.0615,1.0586,1.0547,0,0,0,0,0,0,0,0,0,0,0,0,0,0,0,0,0,0,0,0,0,0,0,0,0,0,0,0,0,0,0,0,0,0,0
0.93115,0.93115,0.93115,0.93115,0.93115,0.93115,0.93115,0.93115,0.93115,0.93115,0.93115,0.93359,0.93115,0.93359,0.93359,0.93359,0.93359,0.93603,0.93359,0.93359,0.93359,0.93359,0.93115,0.93115,0.93115,0.93115,0.93652,0.93652,0.93115,0.93359,0.93652,0.93652,0.93652,0.93652,0.93359,0.93359,0.93359,0.93359,0.93359,0.93359,0.93359,0.93359,0.93652,0,0,0,1.1074,1.1113,1.1113,1.1113,1.1113,1.1113,1.1152,1.1152,1.1191,1.1191,1.1191,1.123,1.123,1.1191,1.1191,1.1191,1.1191,1.1191,1.123,1.1191,1.1191,1.123,1.1191,1.1191,1.123,1.123,1.126,1.126,1.127,1.127,1.127,1.1299,1.1299,1.1299,1.1299,1.1299,1.1299,1.1299,1.1299,1.1299,1.1299,1.1299,1.1299,1.1299,1.1338,1.1338,1.1338,1.1377,1.1377,1.1377,1.1416,1.1416,1.1416,1.1416,1.1416,1.1416,1.1416,1.1377,1.1377,1.1377,1.1416,0,0,0,0,0,0,0,0,0,0,0.8252,0.8252,0.82324,0.82324,0.82324,0.82129,0.82129,0.82129,0.82129,0.82129,0.82129,0.82129,0.82129,0.82129,0.82129,0.82129,0.82129,0.82324,0.82324,0.8252,0.8252,0.8252,0.8252,0.8252,0.8252,0.82715,0.82715,0.8252,0.8252,0.82715,0.8252,0.82715,0.8252,0.82715,0.8291,0.82715,0.8291,0.8291,0.8291,0.83105,0.83105,0.83105,0.83154,0.83154,0.83154,0.83154,0.83154,0.83154,0.83154,0.83154,0.8335,0.83154,0.8335,0.8335,0.8335,0.8335,0,0,0,0,0,1.0566,1.0605,1.0605,1.0605,1.0605,1.0605,1.0605,1.0605,1.0605,1.0605,1.0605,1.0605,1.0605,1.0605,1.0605,1.0605,1.0605,1.0605,1.0605,1.0566,1.0566,1.0566,1.0566,1.0566,1.0566,1.0566,1.0605,1.0605,1.0605,1.0605,1.0605,1.0605,1.0605,1.0635,1.0605,1.0605,1.0605,1.0566,1.0566,1.0566,1.0566,1.0566,1.0566,1.0566,1.0566,1.0566,1.0605,1.0566,1.0566,1.0566,1.0566,1.0566,1.0566,1.0566,1.0566,1.0566,1.0566,1.0537,1.0537,1.0537,1.0537,1.0537,1.0537,1.0537,1.0537,1.0537,1.0537,1.0576,1.0576,1.0537,1.0537,1.0537,1.0537,1.0537,1.0537,1.0537,1.0537,1.0537,1.0537,1.0537,1.0537,1.0508,1.0508,1.0508,1.0508,1.0508,1.0508,1.0508,1.0508,1.0508,1.0508,1.0508,1.0508,1.0508,1.0508,1.0508,1.0479,1.0479,1.0479,1.0479,1.0479,1.0479,1.0479,1.0479,1.0508,1.0479,1.0479,1.0479,1.0479,1.0479,1.0479,1.0479,1.0439,1.0439,1.0479,1.0479,1.0479,1.0479,1.0479,1.0479,1.0479,1.0449,1.0449,1.0449,1.0449,1.0449,1.0449,1.0449,1.0449,1.0449,1.0449,1.0449,1.041,1.041,1.041,1.041,1.041,1.041,1.041,1.041,1.041,1.041,1.0381,1.0381,1.0381,1.0381,1.0352,1.0381,1.0381,1.0381,1.0381,1.0381,1.0381,1.0381,1.0381,1.0381,1.0381,1.0381,1.0381,1.0352,1.0352,1.0381,1.0381,1.0381,1.0352,1.0381,1.0352,1.0352,1.0352,1.0352,1.0352,1.0322,1.0322,1.0322,1.0322,1.0352,1.0352,1.0352,1.0352,1.0352,1.0352,1.0352,1.0322,1.0352,1.0352,1.0322,1.0322,1.0322,1.0322,1.0322,1.0322,1.0322,1.0322,1.0322,1.0322,1.0293,1.0293,1.0293,1.0322,1.0322,1.0518,1.0479,1.0479,1.0479,1.0449,1.0449,1.0449,1.0449,1.0449,1.0449,1.0479,1.0449,1.0449,1.0547,1.0547,1.0518,1.0479,1.0479,1.0479,1.0479,1.0479,1.0479,1.0449,1.0449,0,0,0,1.292,1.2871,1.2871,1.292,1.2871,1.2871,1.2871,1.2822,1.2822,1.0889,1.0889,1.0781,1.0752,1.0752,1.0752,1.0713,1.0684,1.0684,1.0684,1.0645,1.0645,1.0615,1.0615,1.0615,1.0615,1.0586,0,0,0,0,0,0,0,0,0,0,0,0,0,0,0,0,0,0,0,0,0,0,0,0,0,0,0,0,0,0,0,0,0,0,0
0.93359,0.93359,0.93359,0.93359,0.93359,0.93359,0.93359,0.93359,0.93359,0.93115,0.93115,0.93115,0.93603,0.93359,0.93359,0.93359,0.93359,0.93652,0.93652,0.93652,0.93652,0.93359,0.93359,0.93359,0.93359,0.93115,0.93652,0.93652,0.93115,0.93652,0.93652,0.93652,0.93652,0.93359,0.93359,0.93359,0.93652,0.93652,0.93652,0.93652,0.93652,0.93652,0,0,0,1.1006,1.1084,1.1045,1.1045,1.1045,1.1084,1.1113,1.1113,1.1113,1.1113,1.1152,1.1152,1.1191,1.1191,1.1152,1.1152,1.1191,1.1191,1.1152,1.1152,1.1152,1.1152,1.1152,1.1152,1.1191,1.1191,1.1191,1.1191,1.1191,1.123,1.123,1.123,1.127,1.127,1.127,1.127,1.127,1.127,1.127,1.127,1.1299,1.127,1.127,1.1299,1.127,1.1309,1.1309,1.1309,1.1338,1.1338,1.1338,1.1338,1.1377,1.1338,1.1377,1.1377,1.1338,1.1338,1.1338,1.1338,1.1338,0,0,0,0,0,0,0,0,0,0,0.8291,0.8252,0.8252,0.8252,0.82324,0.82324,0.82324,0.82129,0.82129,0.82129,0.82129,0.82129,0.82324,0.82324,0.82324,0.82324,0.82324,0.82324,0.82324,0.82324,0.8252,0.8252,0.8252,0.8252,0.8252,0.82715,0.82715,0.82715,0.8252,0.82715,0.82715,0.82715,0.82715,0.82715,0.82715,0.8291,0.82715,0.8291,0.83154,0.83154,0.83154,0.8335,0.83154,0.83154,0.83154,0.83154,0.83154,0.83154,0.83154,0.83154,0.83154,0.8335,0.8335,0.8335,0.8335,0.8335,0.83154,0,0,0,0,1.0508,1.0566,1.0566,1.0605,1.0605,1.0605,1.0605,1.0605,1.0605,1.0605,1.0605,1.0605,1.0605,1.0605,1.0605,1.0605,1.0605,1.0605,1.0605,1.0605,1.0605,1.0566,1.0566,1.0566,1.0566,1.0566,1.0605,1.0605,1.0605,1.0605,1.0605,1.0605,1.0605,1.0605,1.0635,1.0605,1.0605,1.0605,1.0605,1.0605,1.0605,1.0605,1.0566,1.0566,1.0605,1.0566,1.0566,1.0566,1.0605,1.0566,1.0566,1.0576,1.0576,1.0576,1.0576,1.0576,1.0576,1.0576,1.0537,1.0537,1.0537,1.0537,1.0537,1.0537,1.0537,1.0537,1.0537,1.0576,1.0576,1.0576,1.0537,1.0537,1.0537,1.0537,1.0537,1.0537,1.0537,1.0537,1.0537,1.0537,1.0537,1.0537,1.0537,1.0508,1.0508,1.0508,1.0508,1.0508,1.0508,1.0508,1.0508,1.0508,1.0508,1.0508,1.0508,1.0508,1.0508,1.0479,1.0479,1.0479,1.0479,1.0479,1.0479,1.0479,1.0479,1.0508,1.0479,1.0479,1.0479,1.0479,1.0479,1.0479,1.0479,1.0479,1.0479,1.0479,1.0479,1.0479,1.0479,1.0449,1.0449,1.0449,1.0449,1.0449,1.0449,1.0449,1.0449,1.0449,1.0449,1.0449,1.0449,1.0449,1.041,1.041,1.041,1.041,1.041,1.041,1.041,1.041,1.041,1.041,1.041,1.0381,1.0381,1.0381,1.0352,1.0352,1.0381,1.0381,1.0381,1.0381,1.0381,1.0381,1.0381,1.0381,1.0381,1.0381,1.0381,1.0381,1.0381,1.0381,1.0381,1.0381,1.0381,1.0352,1.0381,1.0352,1.0352,1.0352,1.0352,1.0352,1.0322,1.0322,1.0322,1.0322,1.0352,1.0352,1.0352,1.0352,1.0322,1.0322,1.0352,1.0322,1.0322,1.0322,1.0322,1.0322,1.0352,1.0322,1.0322,1.0322,1.0322,1.0322,1.0322,1.0322,1.0293,1.0293,1.0293,1.0293,0,1.0479,1.0479,1.0479,1.0479,1.0479,1.0449,1.0449,1.0449,1.0479,1.0449,1.0479,1.0449,1.0518,1.0547,1.0547,1.0518,1.0479,1.0518,1.0518,1.0518,1.0518,1.0518,1.0479,1.0479,0,0,0,1.3018,1.292,1.292,1.2969,1.2822,1.2822,1.2822,1.2773,1.2539,1.0889,1.0889,1.0752,1.0752,1.0752,1.0752,1.0713,1.0684,1.0645,1.0684,1.0645,1.0645,1.0615,1.0615,1.0615,1.0615,1.0586,0,0,0,0,0,0,0,0,0,0,0,0,0,0,0,0,0,0,0,0,0,0,0,0,0,0,0,0,0,0,0,0,0,0,0
0.93359,0.93359,0.93359,0.93359,0.93359,0.93359,0.93359,0.93359,0.93359,0.93115,0.93359,0.93652,0.93652,0.93652,0.93652,0.93652,0.93359,0.93652,0.93652,0.93652,0.93359,0.93359,0.93359,0.93359,0.93359,0.93359,0.93652,0.93652,0.93652,0.93652,0.93652,0.93652,0.93652,0.93652,0.93652,0.93652,0.93652,0.93652,0.93652,0.93652,0.93652,0.93652,0,0,0,1.0977,1.1045,1.1006,1.1006,1.1006,1.1006,1.1006,1.1006,1.1006,1.1006,1.1045,1.1045,1.1084,1.1084,1.1084,1.1113,1.1113,1.1113,1.1113,1.1113,1.1113,1.1113,1.1113,1.1113,1.1152,1.1152,1.1152,1.1152,1.1191,1.1191,1.1191,1.1191,1.123,1.123,1.123,1.123,1.123,1.123,1.123,1.123,1.127,1.123,1.127,1.127,1.127,1.127,1.127,1.127,1.127,1.127,1.127,1.127,1.1309,1.1309,1.1309,1.1309,1.1309,1.1309,1.1309,1.1309,0,0,0,0,0,0,0,0,0,0,0,0.8291,0.8291,0.82715,0.8252,0.8252,0.82324,0.82324,0.82324,0.82129,0.82129,0.82129,0.82129,0.82324,0.82324,0.82324,0.82324,0.82324,0.82324,0.82324,0.82324,0.8252,0.82715,0.82715,0.82715,0.82715,0.82715,0.8291,0.8291,0.8252,0,0.8291,0.8291,0.8291,0.82715,0.82715,0.8291,0.8291,0.83154,0.83154,0.83154,0.83154,0.8335,0.8335,0.8335,0.83154,0.83154,0.83154,0.83154,0.83154,0.83154,0.83154,0.8335,0.8335,0.8335,0.8335,0.8335,0.83154,0,0,0,0,1.0566,1.0605,1.0605,1.0605,1.0605,1.0605,1.0605,1.0605,1.0605,1.0605,1.0605,1.0605,1.0605,1.0605,1.0605,1.0605,1.0605,1.0605,1.0605,1.0605,1.0605,1.0566,1.0566,1.0566,1.0566,1.0566,1.0566,1.0605,1.0566,1.0605,1.0605,1.0605,1.0605,1.0605,1.0635,1.0605,1.0605,1.0605,1.0605,1.0605,1.0605,1.0605,1.0605,1.0605,1.0605,1.0576,1.0576,1.0576,1.0576,1.0576,1.0576,1.0576,1.0576,1.0576,1.0605,1.0605,1.0576,1.0576,1.0576,1.0537,1.0537,1.0537,1.0537,1.0537,1.0537,1.0537,1.0537,1.0537,1.0537,1.0576,1.0537,1.0537,1.0537,1.0537,1.0537,1.0537,1.0537,1.0537,1.0537,1.0537,1.0537,1.0537,1.0537,1.0537,1.0508,1.0508,1.0508,1.0508,1.0508,1.0508,1.0508,1.0537,1.0508,1.0508,1.0508,1.0508,1.0508,1.0508,1.0479,1.0479,1.0508,1.0508,1.0479,1.0479,1.0479,1.0508,1.0508,1.0508,1.0479,1.0479,1.0508,1.0479,1.0479,1.0479,1.0479,1.0479,1.0479,1.0479,1.0479,1.0449,1.0449,1.0449,1.0449,1.0449,1.0449,1.0449,1.0449,1.0449,1.0449,1.0449,1.0449,1.0449,1.0449,1.041,1.041,1.041,1.041,1.041,1.041,1.041,1.041,1.041,1.041,1.0381,1.0381,1.0381,1.0381,1.0352,1.0381,1.0381,1.0381,1.0381,1.0381,1.0381,1.0381,1.0381,1.0381,1.0381,1.0381,1.0352,1.0352,1.0381,1.0381,1.0381,1.0381,1.0352,1.0381,1.0381,1.0352,1.0352,1.0352,1.0322,1.0322,1.0322,1.0322,1.0322,1.0352,1.0352,1.0352,1.0352,1.0322,1.0322,1.0352,1.0322,1.0322,1.0322,1.0322,1.0322,1.0322,1.0322,1.0322,1.0322,1.0322,1.0322,1.0322,1.0322,1.0293,1.0293,1.0293,0,0,0,1.0449,1.2266,1.0479,1.0479,1.0479,1.0449,1.0449,1.0479,1.0479,1.0479,1.0479,1.0518,1.0547,1.0547,1.0518,1.0479,1.0518,1.0518,1.0518,1.0518,1.0479,1.0479,1.0479,1.0518,1.0518,1.0479,1.0479,1.2969,1.249,1.249,1.249,1.2539,1.2539,0,1.249,1.249,1.0889,1.0781,1.0752,1.0752,1.0752,1.0713,1.0684,1.0684,1.0684,1.0645,1.0645,1.0615,1.0615,1.0615,1.0615,1.0547,0,0,0,0,0,0,0,0,0,0,0,0,0,0,0,0,0,0,0,0,0,0,0,0,0,0,0,0,0,0,0,0,0,0,0
0.93359,0.93359,0.93359,0.93359,0.93359,0.93359,0.93652,0.93359,0.93359,0.93359,0.93359,0.93652,0.93359,0.93652,0.93359,0.93652,0.93359,0.93652,0.93652,0.93652,0.93652,0.93359,0.93359,0.93359,0.93359,0.93652,0.93652,0.93652,0.93652,0.93652,0.93652,0.93652,0.93652,0.93652,0.93652,0.93652,0.93652,0.93652,0.93652,0.93652,0.93652,0.93652,0,0,0,1.0977,1.1006,1.0977,1.0977,1.0977,1.0977,1.0977,1.0977,1.0977,1.0977,1.0977,1.1006,1.1045,1.1045,1.1045,1.1045,1.1045,1.1045,1.1045,1.1045,1.1045,1.1045,1.1045,1.1084,1.1123,1.1123,1.1152,1.1152,1.1152,1.1152,1.1191,1.1152,1.1191,1.1191,1.1191,1.1191,1.123,1.123,1.1191,1.123,1.123,1.123,1.123,1.123,1.123,1.123,1.123,1.123,1.123,1.123,1.1191,1.1191,1.123,1.127,1.127,1.127,1.127,1.127,1.127,1.127,0,0,0,0,0,0,0,0,0,0,0,0.8291,0.8291,0.82715,0.8252,0.8252,0.82324,0.82324,0.82324,0.82324,0.82324,0.82324,0.82324,0.82324,0.82324,0.82324,0.82324,0.82324,0.82324,0.8252,0.82324,0.8252,0.82715,0.82715,0.82715,0.82715,0.82715,0.82715,0.8291,0.8291,0.8291,0.8291,0.8291,0.8291,0.8291,0.8291,0.8291,0.8291,0.83154,0.83154,0.83154,0.83154,0.8335,0.8335,0.83154,0.83154,0.83154,0.83154,0.8335,0.8335,0.8335,0.8335,0.8335,0.8335,0.8335,0.8335,0.8335,0.8335,0,0,0,0,1.0605,1.0605,1.0605,1.0605,1.0605,1.0605,1.0605,1.0605,1.0605,1.0605,1.0605,1.0605,1.0605,1.0605,1.0605,1.0605,1.0605,1.0605,1.0605,1.0605,1.0566,1.0566,1.0566,1.0566,1.0566,1.0566,1.0605,1.0605,1.0605,1.0605,1.0605,1.0605,1.0605,1.0605,1.0635,1.0605,1.0605,1.0605,1.0605,1.0605,1.0605,1.0605,1.0605,1.0605,1.0605,1.0605,1.0605,1.0576,1.0576,1.0576,1.0576,1.0576,1.0576,1.0576,1.0576,1.0576,1.0576,1.0576,1.0537,1.0537,1.0537,1.0537,1.0537,1.0537,1.0576,1.0576,1.0537,1.0576,1.0576,1.0576,1.0537,1.0537,1.0537,1.0537,1.0537,1.0537,1.0537,1.0537,1.0537,1.0537,1.0537,1.0537,1.0537,1.0537,1.0537,1.0508,1.0537,1.0508,1.0508,1.0508,1.0508,1.0537,1.0508,1.0508,1.0508,1.0508,1.0508,1.0508,1.0508,1.0508,1.0508,1.0508,1.0479,1.0479,1.0479,1.0508,1.0508,1.0508,1.0508,1.0479,1.0508,1.0479,1.0479,1.0479,1.0479,1.0479,1.0547,1.0479,1.0479,1.0449,1.0479,1.0449,1.0449,1.0449,1.0449,1.0449,1.0449,1.0449,1.0449,1.0449,1.0449,1.041,1.0449,1.041,1.041,1.041,1.041,1.041,1.041,1.041,1.041,1.041,1.0381,1.0381,1.0381,1.0381,1.0381,1.0381,1.0381,1.0381,1.0381,1.0381,1.0381,1.042,1.0381,1.0381,1.0381,1.0381,1.0381,1.0381,1.0381,1.0381,1.0381,1.0381,1.0381,1.0352,1.0352,1.0352,1.0352,1.0352,1.0322,1.0322,1.0322,1.0322,1.0322,1.0322,1.0352,1.0352,1.0352,1.0352,1.0322,1.0322,1.0322,1.0322,1.0322,1.0322,1.0322,1.0322,1.0322,1.0322,1.0322,1.0322,1.0293,1.0322,1.0322,1.0322,1.0293,1.0293,1.0293,1.0322,0,0,1.2266,1.2266,0,0,1.0449,1.0449,1.0449,0,0,1.0479,1.0479,1.0547,1.0547,1.0547,1.0518,1.0479,1.0479,1.0518,1.0518,1.0518,0,1.0488,1.0488,1.0488,1.0488,1.0488,0,0,1.249,0,1.2402,1.2402,1.2441,1.2441,1.2354,1.249,1.0781,1.0781,1.0781,1.0752,1.0752,1.0713,1.0684,1.0645,1.0684,1.0645,1.0645,1.0615,1.0615,1.0615,1.0615,1.0547,0,0,0,0,0,0,0,0,0,0,0,0,0,0,0,0,0,0,0,0,0,0,0,0,0,0,0,0,0,0,0,0,0,0,0
0.93359,0.93359,0.93359,0.93359,0.93359,0.93359,0.93359,0.93359,0.93359,0.93359,0.93359,0.93359,0.93359,0.93652,0.93652,0.93652,0.93652,0.93652,0.93652,0.93652,0.93652,0.93652,0.93408,0.93652,0.93408,0.93652,0.93652,0.93652,0.93652,0.93652,0.93652,0.93652,0.93652,0.93652,0.93652,0.93652,0.93652,0.93652,0.93652,0.93652,0.93652,0.93652,0,0,0,1.0938,1.0977,1.0938,1.0938,1.0938,1.0938,1.0938,1.0938,1.0938,1.0938,1.0938,1.0977,1.1006,1.1006,1.1006,1.1006,1.1006,1.1006,1.1006,1.1006,1.1006,1.1006,1.1045,1.1045,1.1084,1.1084,1.1084,1.1123,1.1123,1.1123,1.1123,1.1123,1.1123,1.1123,1.1123,1.1123,1.1123,1.1152,1.1191,1.1191,1.1191,1.1191,1.1191,1.1191,1.1191,1.1191,1.1191,1.1191,1.1191,1.1152,1.1152,1.1152,1.1191,1.1191,1.123,1.123,1.123,1.123,1.123,1.123,0,0,0,0,0,0,0,0,0,0,0,0.83105,0.83105,0.8291,0.82715,0.8252,0.82324,0.82324,0.82324,0.82324,0.82324,0.82324,0.82324,0.82324,0.82324,0.82324,0.82324,0.82324,0.82324,0.82324,0.82324,0.8252,0.82715,0.82715,0.82715,0.82715,0.82715,0.82959,0.82959,0.82715,0.82959,0.82959,0.82959,0.82959,0.82959,0.83154,0.83154,0.83154,0.83154,0.83154,0.83154,0.83154,0.8335,0.8335,0.8335,0.8335,0.8335,0.8335,0.8335,0.8335,0.8335,0.8335,0.8335,0.8335,0.8335,0.8335,0.8335,0.8335,0,0,0,0,1.0605,1.0605,1.0605,1.0605,1.0605,1.0605,1.0605,1.0605,1.0605,1.0605,1.0605,1.0605,1.0605,1.0605,1.0605,1.0605,1.0605,1.0605,1.0605,1.0605,1.0566,1.0566,1.0566,1.0566,1.0566,1.0566,1.0605,1.0605,1.0605,1.0605,1.0605,1.0605,1.0605,1.0605,1.0635,1.0605,1.0605,1.0605,1.0605,1.0605,1.0605,1.0605,1.0605,1.0605,1.0605,1.0605,1.0605,1.0576,1.0576,1.0576,1.0576,1.0576,1.0576,1.0576,1.0576,1.0576,1.0576,1.0576,1.0576,1.0576,1.0576,1.0537,1.0537,1.0537,1.0576,1.0576,1.0537,1.0576,1.0576,1.0576,1.0576,1.0537,1.0576,1.0576,1.0576,1.0537,1.0537,1.0537,1.0537,1.0537,1.0537,1.0537,1.0537,1.0537,1.0537,1.0508,1.0508,1.0508,1.0508,1.0508,1.0508,1.0508,1.0508,1.0508,1.0508,1.0508,1.0508,1.0508,1.0508,1.0508,1.0508,1.0508,1.0479,1.0508,1.0508,1.0508,1.0508,1.0508,1.0508,1.0508,1.0508,1.0508,1.0508,1.0479,1.0479,1.0479,1.0479,1.0479,1.0479,1.0449,1.0479,1.0449,1.0449,1.0449,1.0449,1.0449,1.0449,1.0449,1.0449,1.0449,1.0449,1.0449,1.0449,1.0449,1.0449,1.041,1.041,1.041,1.041,1.041,1.041,1.042,1.042,1.042,1.042,1.0381,1.0381,1.0381,1.0381,1.0381,1.0381,1.042,1.042,1.042,1.042,1.0381,1.0381,1.0381,1.0352,1.0381,1.0352,1.0381,1.0352,1.0352,1.0352,1.0352,1.0352,1.0352,1.0352,1.0352,1.0322,1.0322,1.0322,1.0322,1.0322,1.0322,1.0352,1.0352,1.0352,1.0352,1.0322,1.0322,1.0322,1.0322,1.0322,1.0322,1.0322,1.0322,1.0322,1.0322,1.0322,1.0322,1.0322,1.0322,1.0322,1.0322,1.0322,1.0322,1.0293,1.0322,0,0,1.2266,1.2266,1.2129,1.2129,1.2266,1.2266,1.2266,1.2217,1.2217,1.0547,1.0547,1.0547,1.0547,1.0518,1.0518,1.0488,1.0518,1.0518,0,0,0,0,0,1.042,1.042,0,0,0,1.2178,0,1.2305,1.2354,1.2402,1.2354,1.0928,1.0889,1.082,1.0781,1.0781,1.0752,1.0752,1.0713,1.0684,1.0684,1.0684,1.0645,1.0645,1.0654,1.0615,1.0615,1.0615,1.0586,0,0,0,0,0,0,0,0,0,0,0,0,0,0,0,0,0,0,0,0,0,0,0,0,0,0,0,0,0,0,0,0,0,0,0
0.93359,0.93359,0.93359,0.93359,0.93359,0.93359,0.93359,0.93652,0.93652,0.93359,0.93652,0.93359,0.93359,0.93652,0.93652,0.93652,0.93652,0.93652,0.93652,0.93652,0.93652,0.93652,0.93652,0.93652,0.93652,0.93652,0.93897,0.93652,0.93897,0.93897,0.93897,0.93897,0.93897,0.93652,0.93652,0.93652,0.93652,0.93652,0.93652,0.93652,0.93652,0.93652,0,0,0,1.0898,1.0938,1.0898,1.0898,1.0898,1.0898,1.0908,1.0908,1.0908,1.0908,1.0908,1.0938,1.0938,1.0938,1.0938,1.0938,1.0938,1.0938,1.0977,1.0977,1.0977,1.0977,1.0977,1.0977,1.1045,1.1045,1.1045,1.1084,1.1084,1.1084,1.1084,1.1084,1.1084,1.1045,1.1084,1.1084,1.1084,1.1123,1.1123,1.1123,1.1123,1.1123,1.1123,1.1123,1.1123,1.1123,1.1123,1.1123,1.1152,1.1123,1.1123,1.1123,1.1152,1.1152,1.1191,1.1162,1.1191,1.1191,1.1191,1.1191,1.1162,1.1162,0,0,0,0,0.86279,0,0,0,0.83154,0.83154,0.83154,0.8291,0.82715,0.8252,0.8252,0.82324,0.82324,0.82324,0.82324,0.82324,0.82324,0.82324,0.82324,0.82324,0.82324,0.82324,0.82324,0.8252,0.8252,0.82715,0.82715,0.82715,0.82715,0.82959,0.82715,0.82959,0.82959,0.82959,0.82959,0.82959,0.83154,0.83154,0.83154,0.83154,0.83154,0.83154,0.83154,0.83154,0.83154,0.8335,0.8335,0.8335,0.8335,0.8335,0.8335,0.8335,0.8335,0.8335,0.8335,0.83545,0.83545,0.83545,0.8335,0.83545,0.83545,0.8335,0,0,0,0,1.0605,1.0635,1.0635,1.0605,1.0605,1.0605,1.0605,1.0605,1.0605,1.0605,1.0605,1.0605,1.0605,1.0605,1.0605,1.0605,1.0605,1.0605,1.0605,1.0576,1.0576,1.0576,1.0576,1.0576,1.0605,1.0605,1.0605,1.0605,1.0605,1.0605,1.0605,1.0605,1.0605,1.0605,1.0635,1.0605,1.0605,1.0605,1.0605,1.0605,1.0605,1.0605,1.0605,1.0605,1.0605,1.0605,1.0605,1.0605,1.0576,1.0576,1.0576,1.0576,1.0576,1.0576,1.0576,1.0576,1.0537,1.0576,1.0576,1.0576,1.0576,1.0576,1.0537,1.0576,1.0576,1.0576,1.0537,1.0576,1.0576,1.0576,1.0576,1.0576,1.0576,1.0537,1.0576,1.0537,1.0537,1.0537,1.0537,1.0537,1.0537,1.0537,1.0537,1.0547,1.0547,1.0508,1.0547,1.0547,1.0508,1.0508,1.0547,1.0547,1.0508,1.0508,1.0508,1.0508,1.0508,1.0508,1.0508,1.0508,1.0508,1.0508,1.0508,1.0508,1.0479,1.0508,1.0547,1.0547,1.0508,1.0508,1.0508,1.0508,1.0508,1.0479,1.0479,1.0479,1.0479,1.0479,1.0449,1.0449,1.0479,1.0449,1.0449,1.0449,1.0449,1.0449,1.0479,1.0449,1.0449,1.0449,1.0449,1.0449,1.0449,1.0449,1.0449,1.0449,1.0449,1.0449,1.042,1.042,1.042,1.042,1.042,1.042,1.042,1.0381,1.0381,1.0381,1.0381,1.0381,1.0381,1.0381,1.042,1.042,1.042,1.042,1.042,1.0381,1.0381,1.0381,1.0352,1.0381,1.0352,1.0352,1.0352,1.0352,1.0352,1.0322,1.0352,1.0322,1.0322,1.0322,1.0322,1.0322,1.0322,1.0322,1.0352,1.0352,1.0352,1.0352,1.0322,1.0322,1.0322,1.0322,1.0322,1.0322,1.0322,1.0322,1.0322,1.0322,1.0322,1.0322,1.0293,1.0322,1.0322,1.0293,1.0322,1.0322,1.0322,1.0322,0,0,0,1.2217,1.2129,1.2129,1.2129,1.2129,1.2129,1.2178,1.2178,1.2178,1.2266,1.2266,1.2178,1.2217,1.2217,1.2217,1.2217,1.2178,0,1.2178,0,0,0,1.2266,1.2217,1.2139,1.2139,1.2129,1.2178,1.2266,1.2314,1.2354,1.2354,1.2354,1.2354,1.0889,1.085,1.0781,1.0781,1.0752,1.0752,1.0713,1.0713,1.0684,1.0684,1.0684,1.0654,1.0654,1.0615,1.0615,1.0615,1.0586,0,0,0,0,0,0,0,0,0,0,0,0,0,0,0,0,0,0,0,0,0,0,0,0,0,0,0,0,0,0,0,0,0,0,0
0.93359,0.93359,0.93359,0.93359,0.93359,0.93652,0.93652,0.93652,0.93652,0.93652,0.93652,0.93652,0.93652,0.93652,0.93652,0.93652,0.93897,0.93652,0.93652,0.93652,0.93652,0.93652,0.93652,0.93652,0.93652,0.93652,0.93652,0.93897,0.93897,0.93897,0.93897,0.93897,0.93897,0.93652,0.93652,0.93897,0.93652,0.93652,0.93652,0.93652,0.93652,0,0,0,1.0869,1.0908,1.0869,1.0869,1.083,1.083,1.0869,1.0869,1.0869,1.0869,1.0869,1.0869,1.0908,1.0869,1.0869,1.0908,1.0908,1.0908,1.0908,1.0938,1.0938,1.0938,1.0938,1.0977,1.0977,1.1016,1.1016,1.1016,1.1016,1.1016,1.1016,1.1016,1.1016,1.1045,1.1045,1.1045,1.1045,1.1045,1.1084,1.1084,1.1084,1.1084,1.1084,1.1084,1.1123,1.1084,1.1084,1.1123,1.1123,1.1123,1.1123,1.1084,1.1084,1.1084,1.1084,1.1123,1.1123,1.1123,1.1162,1.1162,1.1162,1.1123,1.1162,0,0,0,0,0.86328,0,0,0,0,0.8335,0.83154,0.8291,0.82715,0.8252,0.8252,0.82324,0.82324,0.82324,0.82324,0.82324,0.82324,0.82324,0.82324,0.82324,0.82324,0.82324,0.8252,0.8252,0.8252,0.82715,0.82715,0.82715,0.82715,0.82715,0.82959,0.82959,0.82959,0.82959,0.82959,0.82959,0.83154,0.83154,0.83154,0.83154,0.83154,0.83154,0.83154,0.83154,0.8335,0.8335,0.8335,0.8335,0.8335,0.83545,0.83545,0.83545,0.83545,0.83545,0.83545,0.83545,0.83545,0.83545,0.83545,0.83545,0.83545,0.83545,0,0,0,0,1.0605,1.0635,1.0635,1.0635,1.0605,1.0605,1.0605,1.0605,1.0605,1.0605,1.0605,1.0605,1.0605,1.0605,1.0605,1.0605,1.0605,1.0605,1.0605,1.0605,1.0576,1.0576,1.0605,1.0605,1.0605,1.0605,1.0605,1.0605,1.0605,1.0605,1.0605,1.0605,1.0605,1.0605,1.0635,1.0635,1.0635,1.0605,1.0605,1.0605,1.0605,1.0605,1.0605,1.0605,1.0605,1.0605,1.0605,1.0605,1.0605,1.0576,1.0576,1.0576,1.0576,1.0576,1.0576,1.0576,1.0576,1.0576,1.0576,1.0576,1.0576,1.0576,1.0576,1.0576,1.0576,1.0576,1.0537,1.0576,1.0576,1.0576,1.0537,1.0537,1.0576,1.0537,1.0537,1.0537,1.0547,1.0547,1.0547,1.0547,1.0547,1.0547,1.0547,1.0547,1.0547,1.0547,1.0547,1.0547,1.0547,1.0547,1.0547,1.0547,1.0508,1.0508,1.0508,1.0508,1.0508,1.0508,1.0508,1.0508,1.0508,1.0508,1.0508,1.0508,1.0508,1.0547,1.0547,1.0547,1.0508,1.0508,1.0547,1.0508,1.0508,1.0479,1.0479,1.0479,1.0479,1.0479,1.0449,1.0449,1.0449,1.0449,1.0449,1.0449,1.0449,1.0449,1.0449,1.0449,1.0449,1.0449,1.0449,1.0449,1.0449,1.0449,1.0449,1.0449,1.0449,1.0449,1.042,1.042,1.042,1.042,1.042,1.042,1.042,1.042,1.042,1.042,1.042,1.042,1.0381,1.0381,1.042,1.0381,1.0381,1.0381,1.0381,1.0381,1.0381,1.0352,1.0352,1.0352,1.0352,1.0352,1.0352,1.0322,1.0352,1.0322,1.0352,1.0322,1.0322,1.0322,1.0322,1.0322,1.0322,1.0322,1.0352,1.0352,1.0352,1.0352,1.0322,1.0322,1.0322,1.0322,1.0322,1.0322,1.0322,1.0322,1.0322,1.0322,1.0322,1.0322,1.0293,1.0293,1.0322,1.0322,1.0293,1.0322,1.0322,1.0322,0,0,0,1.2129,1.2129,1.2129,1.209,1.209,1.2129,1.2129,1.209,1.209,1.2129,1.2129,1.2178,1.2129,1.2178,1.2139,1.2178,1.2178,1.2139,1.2139,1.2139,1.2139,1.2139,1.2139,1.2178,1.2178,1.2227,1.2266,1.2266,1.2314,1.2314,1.2314,1.2314,1.2314,1.2314,1.085,1.082,1.0781,1.0781,1.0752,1.0752,1.0713,1.0713,1.0684,1.0684,1.0684,1.0654,1.0654,1.0615,1.0654,1.0615,1.0615,0,0,0,0,0,0,0,0,0,0,0,0,0,0,0,0,0,0,0,0,0,0,0,0,0,0,0,0,0,0,0,0,0,0,0
0.93408,0.93408,0.93408,0.93652,0.93652,0.93652,0.93652,0.93652,0.93652,0.93652,0.93652,0.93652,0.93652,0.93652,0.93652,0.93897,0.93897,0.93897,0.93897,0.93652,0.93652,0.93652,0.93652,0.93652,0.93652,0.93652,0.93897,0.93897,0.93897,0.93897,0.93897,0.93897,0.93897,0.93897,0.93897,0.93897,0.93945,0.93945,0.93945,0.93652,0.93945,0,0,1.083,1.083,1.083,1.0801,1.0801,1.0801,1.0801,1.083,1.083,1.083,1.083,1.083,1.083,1.0869,1.083,1.083,1.083,1.0869,1.0869,1.0869,1.0908,1.0908,1.0908,1.0908,1.0908,1.0908,1.0938,1.0977,1.0977,1.0938,1.0977,1.0977,1.0977,1.0977,1.1016,1.1016,1.0977,1.1016,1.1016,1.1045,1.1016,1.1016,1.1016,1.1016,1.1045,1.1045,1.1045,1.1084,1.1084,1.1084,1.1084,1.1084,1.1045,1.1045,1.1084,1.1084,1.1084,1.1084,1.1084,1.1084,1.1084,1.1084,1.1084,1.1055,0,0,0,0.86328,0.86084,0.85449,0.8501,0.84815,0.8335,0.8335,0.83154,0.82959,0.82715,0.8252,0.8252,0.82324,0.82324,0.82324,0.82324,0.82324,0.82324,0.82324,0.82324,0.82324,0.82324,0.8252,0.8252,0.82764,0.8252,0.82764,0.82764,0.82959,0.82959,0.82959,0.82959,0.82959,0.82959,0.83154,0.82959,0.83154,0.83154,0.83154,0.83154,0.83154,0.8335,0.8335,0.8335,0.8335,0.8335,0.8335,0.8335,0.8335,0.83545,0.83545,0.83545,0.83545,0.83789,0.83789,0.83594,0.83789,0.83789,0.83789,0.83789,0.83789,0.83984,0,0,0,0,1.0635,1.0605,1.0635,1.0635,1.0605,1.0605,1.0605,1.0605,1.0605,1.0605,1.0605,1.0605,1.0605,1.0605,1.0605,1.0605,1.0605,1.0605,1.0605,1.0605,1.0605,1.0576,1.0576,1.0605,1.0605,1.0605,1.0605,1.0605,1.0605,1.0605,1.0605,1.0605,1.0605,1.0605,1.0605,1.0635,1.0635,1.0635,1.0635,1.0605,1.0605,1.0605,1.0605,1.0605,1.0605,1.0605,1.0605,1.0605,1.0605,1.0605,1.0605,1.0576,1.0605,1.0576,1.0576,1.0576,1.0576,1.0576,1.0576,1.0576,1.0576,1.0576,1.0576,1.0576,1.0576,1.0605,1.0576,1.0576,1.0576,1.0576,1.0576,1.0576,1.0547,1.0576,1.0547,1.0547,1.0547,1.0547,1.0547,1.0547,1.0547,1.0547,1.0547,1.0547,1.0547,1.0547,1.0547,1.0547,1.0547,1.0547,1.0547,1.0547,1.0547,1.0508,1.0547,1.0508,1.0508,1.0508,1.0508,1.0508,1.0508,1.0508,1.0508,1.0508,1.0508,1.0508,1.0547,1.0547,1.0547,1.0508,1.0508,1.0508,1.0508,1.0479,1.0479,1.0479,1.0479,1.0508,1.0479,1.0479,1.0449,1.0449,1.0479,1.0479,1.0479,1.0479,1.0479,1.0449,1.0449,1.0449,1.0449,1.0449,1.0449,1.0449,1.0449,1.0449,1.0449,1.0449,1.0449,1.0449,1.042,1.042,1.042,1.042,1.042,1.042,1.042,1.042,1.042,1.042,1.042,1.0381,1.042,1.042,1.0381,1.042,1.0381,1.0381,1.0381,1.0381,1.0381,1.0352,1.0352,1.0352,1.0352,1.0352,1.0352,1.0352,1.0322,1.0352,1.0322,1.0322,1.0322,1.0322,1.0322,1.0322,1.0322,1.0352,1.0352,1.0352,1.0322,1.0322,1.0322,1.0322,1.0322,1.0322,1.0322,1.0322,1.0322,1.0322,1.0322,1.0322,1.0322,1.0293,1.0322,1.0322,1.0322,1.0322,1.0322,1.0322,0,0,0,1.2129,1.2129,1.209,1.209,1.209,1.209,1.209,1.209,1.2051,1.2051,1.209,1.2139,1.2139,1.2139,1.2139,1.2139,1.2139,1.209,1.209,1.2139,1.209,1.2139,1.209,1.2139,1.2139,1.2227,1.2227,1.2227,1.2227,1.2266,1.2266,1.2266,1.2266,1.2266,1.2266,1.082,1.0781,1.0781,1.0781,1.0752,1.0752,1.0752,1.0723,1.0684,1.0684,1.0684,1.0654,1.0654,1.0654,1.0654,1.0615,1.0615,0,0,0,0,0,0,0,0,0,0,0,0,0,0,0,0,0,0,0,0,0,0,0,0,0,0,0,0,0,0,0,0,0,0,0
0.93652,0.93652,0.93652,0.93652,0.93652,0.93652,0.93652,0.93652,0.93652,0.93652,0.93652,0.93652,0.93652,0.93897,0.93897,0.93897,0.93897,0.93897,0.93897,0.93652,0.93652,0.93652,0.93652,0.93652,0.93652,0.93652,0.93652,0.93652,0.93652,0.93945,0.93945,0.93945,0.93945,0.93945,0.93945,0.93945,0.93945,0.93945,0.93945,0.93945,0.93945,0,0,1.083,1.083,1.0801,1.0801,1.0801,1.0762,1.0801,1.0762,1.0762,1.0801,1.0762,1.0801,1.0801,1.0801,1.0801,1.0801,1.084,1.084,1.0869,1.084,1.0869,1.0869,1.0869,1.0869,1.0869,1.0869,1.0908,1.0908,1.0938,1.0908,1.0938,1.0938,1.0938,1.0938,1.0977,1.0938,1.0938,1.0938,1.0977,1.0977,1.0938,1.0938,1.0938,1.0977,1.0977,1.0977,1.0977,1.1016,1.1045,1.1045,1.1045,1.1045,1.1016,1.1016,1.1045,1.1055,1.1055,1.1016,1.1016,1.1055,1.1055,1.1016,1.1016,1.1016,0,0,0,0,0,0.85449,0.8501,0.84815,0.84815,0.83545,0.8335,0.83154,0.82959,0.82715,0.8252,0.8252,0.82324,0.82324,0.82324,0.82324,0.82324,0.82324,0.82324,0.82324,0.82324,0.8252,0.8252,0.82764,0.8252,0.82764,0.82959,0.82959,0.82959,0.82959,0.82959,0.82959,0.82959,0.83154,0.83154,0.83154,0.83154,0.83154,0.8335,0.83154,0.8335,0.8335,0.8335,0.8335,0.8335,0.8335,0.8335,0.8335,0.8335,0.83594,0.83789,0.83789,0.83789,0.83789,0.83789,0.83789,0.83789,0.83789,0.83789,0.83789,0.83984,0,0,0,0,1.0635,1.0635,1.0635,1.0635,1.0605,1.0605,1.0605,1.0605,1.0605,1.0605,1.0605,1.0605,1.0605,1.0605,1.0605,1.0605,1.0605,1.0605,1.0605,1.0605,1.0605,1.0576,1.0605,1.0605,1.0605,1.0605,1.0605,1.0605,1.0605,1.0605,1.0605,1.0605,1.0605,1.0605,1.0605,1.0645,1.0645,1.0645,1.0645,1.0645,1.0605,1.0605,1.0605,1.0605,1.0605,1.0605,1.0605,1.0605,1.0605,1.0605,1.0605,1.0605,1.0605,1.0576,1.0576,1.0576,1.0576,1.0576,1.0576,1.0576,1.0576,1.0576,1.0576,1.0576,1.0576,1.0605,1.0605,1.0576,1.0576,1.0576,1.0576,1.0576,1.0547,1.0547,1.0547,1.0547,1.0547,1.0547,1.0547,1.0547,1.0547,1.0547,1.0547,1.0547,1.0547,1.0547,1.0547,1.0547,1.0547,1.0547,1.0547,1.0547,1.0547,1.0508,1.0547,1.0508,1.0508,1.0508,1.0508,1.0508,1.0508,1.0508,1.0508,1.0508,1.0508,1.0508,1.0547,1.0547,1.0547,1.0547,1.0508,1.0508,1.0508,1.0508,1.0479,1.0479,1.0479,1.0479,1.0479,1.0479,1.0449,1.0479,1.0479,1.0479,1.0479,1.0479,1.0449,1.0449,1.0449,1.0449,1.0449,1.0449,1.0449,1.0449,1.0449,1.0449,1.0449,1.0449,1.0449,1.042,1.042,1.042,1.042,1.042,1.042,1.042,1.042,1.042,1.042,1.042,1.042,1.042,1.042,1.042,1.0381,1.0381,1.042,1.0381,1.0391,1.0391,1.0352,1.0352,1.0352,1.0352,1.0352,1.0352,1.0352,1.0352,1.0352,1.0352,1.0322,1.0322,1.0322,1.0322,1.0322,1.0322,1.0322,1.0352,1.0352,1.0352,1.0322,1.0322,1.0322,1.0322,1.0322,1.0322,1.0322,1.0322,1.0322,1.0322,1.0322,1.0322,1.0322,1.0293,1.0293,1.0322,1.0293,1.0293,1.0322,1.0322,0,0,1.2129,1.2129,1.209,1.209,1.209,1.209,1.209,1.209,1.209,1.2051,1.2051,1.2051,1.209,1.209,1.209,1.2139,1.2139,1.2139,1.209,1.209,1.209,1.209,1.2139,1.209,1.2139,1.2139,1.2178,1.2178,1.2178,1.2178,1.2227,1.2227,1.2227,1.2227,1.2266,1.2266,1.082,1.082,1.0791,1.0791,1.0791,1.0752,1.0752,1.0723,1.0684,1.0684,1.0684,1.0654,1.0654,1.0615,1.0615,1.0615,1.0615,0,0,0,0,0,0,0,0,0,0,0,0,0,0,0,0,0,0,0,0,0,0,0,0,0,0,0,0,0,0,0,0,0,0,0
0.93652,0.93652,0.93652,0.93652,0.93652,0.93652,0.93652,0.93652,0.93652,0.93652,0.93652,0.93652,0.93897,0.93897,0.93945,0.93945,0.93945,0.93945,0.93945,0.93945,0.93945,0.93652,0.93945,0.93652,0.93945,0.93945,0.93652,0.93652,0.93945,0.93945,0.93945,0.93945,0.93945,0.93945,0.93945,0.93945,0.93945,0.93945,0.93945,0.93945,0.93945,0,0,1.0693,1.0693,1.0762,1.0732,1.0732,1.0732,1.0732,1.0732,1.0732,1.0762,1.0732,1.0771,1.0771,1.0771,1.0771,1.0771,1.0801,1.084,1.084,1.084,1.084,1.084,1.084,1.084,1.084,1.084,1.0869,1.0908,1.0908,1.0869,1.0908,1.0908,1.0908,1.0908,1.0938,1.0908,1.0938,1.0908,1.0938,1.0938,1.0938,1.0908,1.0908,1.0908,1.0908,1.0908,1.0908,1.0947,1.0977,1.0977,1.0977,1.0977,1.0977,1.0977,1.0977,1.0977,1.0977,1.0977,1.0977,1.0977,1.0977,1.0977,1.0977,1.0947,0,0,0,0,0,0.85254,0.85254,0.84815,0.84815,0.84619,0.8335,0.83154,0.82959,0.82764,0.82764,0.8252,0.8252,0.82324,0.82324,0.82324,0.82324,0.82324,0.82324,0.82324,0.8252,0.82568,0.82764,0.82764,0.82764,0.82959,0.82959,0.82959,0.83154,0.83154,0.83154,0.83154,0.83154,0.83154,0.83154,0.83154,0.83154,0.83154,0.83154,0.83154,0.8335,0.8335,0.8335,0.8335,0.8335,0.8335,0.8335,0.8335,0.83594,0.83789,0.83789,0.83789,0.83789,0.83789,0.83789,0.83984,0.83789,0.83789,0.83984,0.83984,0.83984,0,0,0,0,1.0635,1.0635,1.0635,1.0635,1.0635,1.0635,1.0635,1.0605,1.0605,1.0605,1.0605,1.0605,1.0605,1.0605,1.0605,1.0605,1.0605,1.0605,1.0605,1.0605,1.0605,1.0605,1.0605,1.0605,1.0605,1.0605,1.0605,1.0605,1.0605,1.0605,1.0605,1.0605,1.0605,1.0605,1.0605,1.0645,1.0645,1.0645,1.0645,1.0645,1.0645,1.0645,1.0645,1.0645,1.0605,1.0645,1.0605,1.0605,1.0605,1.0605,1.0605,1.0605,1.0605,1.0576,1.0605,1.0576,1.0576,1.0576,1.0576,1.0605,1.0576,1.0605,1.0576,1.0576,1.0576,1.0605,1.0576,1.0576,1.0576,1.0576,1.0576,1.0576,1.0547,1.0547,1.0547,1.0547,1.0547,1.0547,1.0547,1.0547,1.0547,1.0547,1.0547,1.0547,1.0547,1.0547,1.0547,1.0547,1.0547,1.0547,1.0547,1.0547,1.0547,1.0547,1.0547,1.0508,1.0508,1.0508,1.0508,1.0508,1.0508,1.0508,1.0508,1.0508,1.0508,1.0508,1.0547,1.0547,1.0547,1.0508,1.0508,1.0547,1.0508,1.0479,1.0479,1.0479,1.0479,1.0479,1.0479,1.0449,1.0449,1.0449,1.0479,1.0449,1.0479,1.0449,1.0449,1.0449,1.0449,1.0449,1.0449,1.0449,1.0449,1.0449,1.0449,1.0449,1.0449,1.0449,1.0449,1.0449,1.042,1.042,1.042,1.042,1.042,1.042,1.042,1.042,1.042,1.042,1.042,1.042,1.042,1.042,1.0391,1.0391,1.042,1.0391,1.0391,1.0391,1.0352,1.0352,1.0352,1.0352,1.0352,1.0352,1.0352,1.0352,1.0322,1.0322,1.0322,1.0322,1.0322,1.0322,1.0322,1.0322,1.0322,1.0352,1.0352,1.0352,1.0322,1.0322,1.0322,1.0322,1.0322,1.0352,1.0322,1.0322,1.0322,1.0322,1.0322,1.0322,1.0322,1.0293,1.0293,1.0293,1.0293,1.0293,1.0293,0,0,1.2139,1.209,1.209,1.209,1.209,1.2051,1.209,1.209,1.209,1.209,1.2051,1.2002,1.2051,1.2051,1.209,1.209,1.209,1.209,1.209,1.209,1.209,1.209,1.209,1.209,1.2051,1.209,1.209,1.2139,1.2139,1.2178,1.2178,1.2227,1.2227,1.2139,1.2139,1.0859,1.0859,1.082,1.0791,1.0791,1.0791,1.0791,1.0752,1.0752,1.0723,1.0723,1.0684,1.0684,1.0654,1.0654,1.0654,1.0615,1.0615,1.0615,0,0,0,0,0,0,0,0,0,0,0,0,0,0,0,0,0,0,0,0,0,0,0,0,0,0,0,0,0,0,0,0,0,0,0
0.93652,0.93652,0.93652,0.93652,0.93652,0.93652,0.93652,0.93652,0.93652,0.93652,0.93652,0.93945,0.93945,0.93945,0.93945,0.93945,0.93945,0.93945,0.9419,0.93945,0.93945,0.93945,0.93945,0.93945,0.93945,0.93945,0.93652,0.93652,0.93945,0.93945,0.93945,0.93945,0.93945,0.9419,0.9419,0.9419,0.93945,0.93945,0.93945,0.93945,0,0,1.0635,1.0664,1.0664,1.0664,1.0703,1.0703,1.0703,1.0703,1.0703,1.0703,1.0732,1.0703,1.0732,1.0732,1.0732,1.0732,1.0732,1.0771,1.0771,1.0801,1.0801,1.0801,1.0801,1.0801,1.0801,1.0801,1.0801,1.084,1.0869,1.0869,1.0869,1.0869,1.0869,1.0869,1.084,1.0869,1.0869,1.0869,1.0869,1.0869,1.0869,1.0869,1.0869,1.0869,1.0869,1.0869,1.0869,1.0869,1.0908,1.0947,1.0908,1.0947,1.0947,1.0947,1.0947,1.0947,1.0947,1.0947,1.0947,1.0947,1.0947,1.0947,1.0947,1.0947,1.0947,0,0,0,0,0,0.8501,0.8501,0.84815,0,0.8418,0.8335,0.83154,0.82959,0.82764,0.82764,0.8252,0.8252,0.82324,0.82324,0.82324,0.82324,0.82568,0.82324,0.82568,0.82568,0.82764,0.82764,0.82764,0.82959,0.82959,0.82959,0.83154,0.83154,0.83154,0.82959,0.83154,0.83154,0.83154,0.83154,0.83154,0.83154,0.8335,0.8335,0.8335,0.8335,0.8335,0.8335,0.8335,0.8335,0.8335,0.8335,0.8335,0.83594,0.83789,0.83789,0.83789,0.83984,0.83984,0.83984,0.83984,0.83789,0.83984,0.83984,0.83984,0.83984,0,0,0,0,1.0635,1.0635,1.0635,1.0635,1.0635,1.0635,1.0605,1.0605,1.0605,1.0605,1.0605,1.0605,1.0605,1.0605,1.0605,1.0605,1.0605,1.0605,1.0605,1.0605,1.0605,1.0605,1.0605,1.0605,1.0605,1.0605,1.0605,1.0605,1.0605,1.0605,1.0605,1.0605,1.0605,1.0605,1.0605,1.0645,1.0645,1.0645,1.0645,1.0645,1.0645,1.0645,1.0645,1.0605,1.0605,1.0605,1.0605,1.0605,1.0645,1.0645,1.0605,1.0605,1.0605,1.0576,1.0576,1.0576,1.0576,1.0576,1.0605,1.0605,1.0576,1.0576,1.0576,1.0576,1.0605,1.0605,1.0576,1.0576,1.0576,1.0576,1.0576,1.0576,1.0547,1.0547,1.0547,1.0547,1.0547,1.0547,1.0547,1.0547,1.0547,1.0547,1.0547,1.0547,1.0547,1.0547,1.0547,1.0547,1.0547,1.0547,1.0547,1.0547,1.0547,1.0547,1.0547,1.0547,1.0547,1.0508,1.0508,1.0508,1.0508,1.0508,1.0508,1.0508,1.0508,1.0518,1.0547,1.0547,1.0547,1.0518,1.0518,1.0518,1.0518,1.0479,1.0449,1.0479,1.0479,1.0479,1.0479,1.0449,1.0449,1.0449,1.0479,1.0479,1.0479,1.0479,1.0479,1.0449,1.0449,1.0449,1.0449,1.0449,1.0449,1.0449,1.0449,1.0449,1.0449,1.0449,1.0449,1.0449,1.0449,1.0449,1.042,1.042,1.042,1.042,1.042,1.042,1.042,1.042,1.042,1.0391,1.0391,1.0391,1.0391,1.0391,1.0391,1.0391,1.0391,1.0352,1.0352,1.0352,1.0352,1.0352,1.0352,1.0352,1.0352,1.0352,1.0352,1.0322,1.0322,1.0322,1.0322,1.0322,1.0322,1.0322,1.0322,1.0352,1.0352,1.0352,1.0322,1.0322,1.0322,1.0322,1.0322,1.0361,1.0322,1.0322,1.0322,1.0322,1.0322,1.0322,1.0322,1.0293,1.0293,1.0264,1.0293,1.0234,0,0,0,1.1963,0,1.209,1.2051,1.2051,1.2051,1.2051,1.2002,1.2002,1.2002,1.2002,1.2002,1.2002,1.2002,1.2051,1.2051,1.2051,1.209,1.209,1.209,1.209,1.2051,1.209,1.2051,1.2051,1.2051,1.209,1.2139,1.2139,1.2139,1.2139,1.2178,1.2178,1.2139,1.2139,1.0859,1.0859,1.0791,1.0791,1.0791,1.0791,1.0791,1.0752,1.0752,1.0723,1.0684,1.0723,1.0684,1.0654,1.0654,1.0615,1.0615,1.0615,1.0615,0,0,0,0,0,0,0,0,0,0,0,0,0,0,0,0,0,0,0,0,0,0,0,0,0,0,0,0,0,0,0,0,0,0,0
0.93652,0.93652,0.93652,0.93652,0.93945,0.93652,0.93945,0.93945,0.93945,0.93652,0.93945,0.93945,0.93945,0.93945,0.93945,0.93945,0.93945,0.9419,0.9419,0.93945,0.9419,0.93945,0.93945,0.93945,0.93945,0.93945,0.93945,0.93945,0.93945,0.93945,0.93945,0.93945,0.93945,0.9419,0.9419,0.9419,0.9419,0.93945,0.9419,0.9419,0,0,1.0635,1.0635,1.0596,1.0596,1.0664,1.0664,1.0664,1.0664,1.0664,1.0664,1.0703,1.0703,1.0703,1.0703,1.0703,1.0703,1.0703,1.0703,1.0732,1.0732,1.0732,1.0771,1.0771,1.0771,1.0771,1.0771,1.0801,1.084,1.084,1.084,1.084,1.084,1.084,1.0801,1.084,1.084,1.084,1.0801,1.084,1.0801,1.084,1.084,1.084,1.084,1.084,1.084,1.084,1.084,1.084,1.0869,1.0801,1.084,1.084,1.0869,1.0869,1.0869,1.0869,1.0869,1.0908,1.0908,1.0908,1.0908,1.0908,1.0908,0,0,0,0,0,0,0,0,0,0,0.8418,0.8335,0.83154,0.82959,0.82959,0.82764,0.82568,0.82568,0.82324,0.82324,0.82324,0.82568,0.82568,0.82568,0.82568,0.82568,0.82764,0.82764,0.82959,0.82959,0.82959,0.83154,0.83154,0.83154,0.83154,0.83154,0.83154,0.83154,0.83154,0.83154,0.83154,0.83154,0.8335,0.8335,0.8335,0.8335,0.8335,0.8335,0.8335,0.8335,0.8335,0.8335,0.83398,0.83594,0.83789,0.83789,0.83789,0.83984,0.83984,0.83984,0.83984,0.83984,0.83984,0.83984,0.83984,0.83984,0.83984,0,0,0,1.0635,1.0635,1.0635,1.0635,1.0635,1.0635,1.0635,1.0645,1.0645,1.0605,1.0605,1.0605,1.0605,1.0605,1.0605,1.0605,1.0605,1.0605,1.0605,1.0605,1.0605,1.0605,1.0605,1.0605,1.0605,1.0605,1.0605,1.0605,1.0605,1.0605,1.0605,1.0605,1.0605,1.0605,1.0605,1.0645,1.0645,1.0645,1.0645,1.0645,1.0645,1.0645,1.0645,1.0645,1.0645,1.0645,1.0605,1.0645,1.0645,1.0645,1.0605,1.0605,1.0605,1.0605,1.0605,1.0605,1.0605,1.0605,1.0605,1.0605,1.0576,1.0576,1.0576,1.0576,1.0605,1.0605,1.0576,1.0576,1.0576,1.0576,1.0576,1.0576,1.0547,1.0576,1.0576,1.0576,1.0547,1.0547,1.0547,1.0547,1.0547,1.0547,1.0547,1.0547,1.0547,1.0547,1.0547,1.0547,1.0547,1.0547,1.0547,1.0547,1.0547,1.0547,1.0547,1.0547,1.0547,1.0508,1.0518,1.0518,1.0518,1.0518,1.0518,1.0518,1.0518,1.0518,1.0547,1.0547,1.0518,1.0518,1.0518,1.0518,1.0518,1.0479,1.0479,1.0479,1.0479,1.0479,1.0479,1.0479,1.0449,1.0449,1.0479,1.0449,1.0479,1.0479,1.0479,1.0479,1.0479,1.0449,1.0449,1.0449,1.0449,1.0449,1.0449,1.0449,1.0449,1.0449,1.0449,1.0449,1.0449,1.0449,1.042,1.042,1.042,1.042,1.042,1.042,1.042,1.042,1.042,1.0391,1.0391,1.0391,1.0391,1.0391,1.0391,1.0391,1.0391,1.0352,1.0352,1.0352,1.0352,1.0352,1.0352,1.0352,1.0352,1.0352,1.0352,1.0322,1.0322,1.0322,1.0322,1.0322,1.0322,1.0322,1.0322,1.0361,1.0361,1.0361,1.0361,1.0361,1.0361,1.0322,1.0322,1.0361,1.0322,1.0322,1.0322,1.0322,1.0322,1.0322,1.0322,1.0293,1.0293,1.0264,1.0293,1.0293,0,0,0,1.1963,1.2002,1.2002,1.1963,1.2002,1.2002,1.2002,1.1963,1.1963,1.1963,1.1963,1.1963,1.2012,1.1963,1.2012,1.2051,1.2012,1.2012,1.2051,1.2051,1.2051,1.2012,1.2051,1.2051,1.2051,1.2051,1.209,1.209,1.2139,1.209,1.209,1.2139,1.2139,1.0889,1.0889,1.0859,1.0859,1.082,1.082,1.082,1.0791,1.0752,1.0752,1.0752,1.0723,1.0723,1.0723,1.0684,1.0684,1.0654,1.0654,1.0654,1.0615,1.0615,0,0,0,0,0,0,0,0,0,0,0,0,0,0,0,0,0,0,0,0,0,0,0,0,0,0,0,0,0,0,0,0,0,0,0
0.93945,0.93945,0.93945,0.93652,0.93945,0.93945,0.93945,0.93945,0.93945,0.93945,0.93945,0.93945,0.93945,0.93945,0.93945,0.93945,0.93945,0.93945,0.93945,0.93945,0.93945,0.93945,0.93945,0.93945,0.93945,0.93945,0.93945,0.93945,0.93945,0.93945,0.93945,0.93945,0.93945,0.9419,0.9419,0.9419,0.93945,0.93945,0.9419,0.9419,0.9419,0,1.0635,1.0596,1.0596,1.0596,1.0635,1.0635,1.0635,1.0635,1.0664,1.0635,1.0664,1.0664,1.0664,1.0664,1.0664,1.0664,1.0664,1.0664,1.0703,1.0703,1.0703,1.0732,1.0732,1.0732,1.0732,1.0732,1.0732,1.0801,1.0801,1.0771,1.0801,1.0771,1.0771,1.0801,1.0801,1.0801,1.0801,1.0801,1.0801,1.0771,1.0801,1.0771,1.0801,1.0801,1.084,1.084,1.0801,1.084,1.0801,1.0771,1.0771,1.0771,1.0801,1.0801,1.0801,1.084,1.084,1.084,1.084,1.084,1.0879,1.0879,1.084,1.084,0,0,0,0,0,0,0,0,0,0,0.8418,0.8335,0.83154,0.82959,0.82959,0.82764,0.82764,0.82568,0.82568,0.82568,0.82568,0.82568,0.82568,0.82568,0.82764,0.82764,0.82764,0.82959,0.82959,0.82959,0.83154,0.83154,0.83154,0.83154,0.83154,0.83154,0.83154,0.83154,0.83154,0.83154,0.8335,0.8335,0.8335,0.8335,0.83398,0.83398,0.83398,0.83398,0.83398,0.83398,0.83398,0.83398,0.83398,0.83594,0.83789,0.83789,0.83789,0.83984,0.83984,0.83984,0.83984,0.83984,0.83984,0.83984,0.83984,0.83984,0.83984,0,0,0,0,1.0605,1.0645,1.0645,1.0645,1.0645,1.0645,1.0645,1.0645,1.0645,1.0605,1.0605,1.0605,1.0605,1.0605,1.0605,1.0605,1.0605,1.0605,1.0605,1.0605,1.0605,1.0605,1.0605,1.0605,1.0605,1.0605,1.0605,1.0605,1.0605,1.0605,1.0605,1.0605,1.0605,1.0605,1.0645,1.0645,1.0645,1.0645,1.0645,1.0645,1.0645,1.0645,1.0645,1.0645,1.0645,1.0645,1.0645,1.0645,1.0645,1.0605,1.0605,1.0605,1.0605,1.0605,1.0605,1.0576,1.0605,1.0605,1.0605,1.0576,1.0576,1.0576,1.0576,1.0576,1.0605,1.0576,1.0576,1.0576,1.0576,1.0576,1.0576,1.0576,1.0576,1.0576,1.0576,1.0547,1.0547,1.0547,1.0547,1.0547,1.0547,1.0547,1.0547,1.0547,1.0547,1.0547,1.0547,1.0547,1.0547,1.0547,1.0547,1.0547,1.0547,1.0547,1.0547,1.0518,1.0518,1.0518,1.0518,1.0518,1.0518,1.0518,1.0518,1.0518,1.0518,1.0547,1.0547,1.0547,1.0518,1.0518,1.0518,1.0518,1.0518,1.0479,1.0518,1.0479,1.0479,1.0479,1.0479,1.0449,1.0449,1.0479,1.0449,1.0479,1.0479,1.0449,1.0449,1.0479,1.0449,1.0449,1.0449,1.0449,1.0449,1.0449,1.0449,1.0449,1.0449,1.0449,1.0449,1.0449,1.0449,1.042,1.042,1.042,1.042,1.042,1.042,1.042,1.042,1.042,1.0391,1.0391,1.0391,1.0391,1.0391,1.0391,1.0391,1.0391,1.0352,1.0352,1.0352,1.0352,1.0352,1.0352,1.0322,1.0352,1.0352,1.0352,1.0322,1.0322,1.0322,1.0322,1.0322,1.0322,1.0293,1.0293,1.0322,1.0322,1.0322,1.0322,1.0322,1.0322,1.0322,1.0322,1.0361,1.0322,1.0322,1.0322,1.0322,1.0322,1.0322,1.0322,1.0322,1.0322,1.0293,1.0322,1.0322,0,0,1.1885,1.1963,1.1963,1.1924,1.1924,1.1963,1.1963,1.1963,1.1924,1.1963,1.1963,1.1963,1.1963,1.1963,1.1963,1.2012,1.2012,1.1963,1.1963,1.2012,1.1963,1.1963,1.1963,1.2012,1.2012,1.2012,1.2051,1.2051,1.209,1.209,1.2051,1.2012,1.2051,1.2051,1.0859,1.0889,1.0889,1.0859,1.082,1.082,1.0791,1.0791,1.0752,1.0752,1.0752,1.0723,1.0723,1.0723,1.0723,1.0684,1.0654,1.0654,1.0654,1.0625,1.0625,0,0,0,0,0,0,0,0,0,0,0,0,0,0,0,0,0,0,0,0,0,0,0,0,0,0,0,0,0,0,0,0,0,0,0
0.93945,0.93945,0.93945,0.93945,0.93945,0.93945,0.93945,0.93945,0.93945,0.93945,0.93945,0.93945,0.93945,0.93945,0.93945,0.93945,0.9419,0.9419,0.93945,0.93945,0.93945,0.93945,0.93945,0.93945,0.93945,0.93945,0.93945,0.93945,0.93945,0.93945,0.93945,0.93945,0.93945,0.9419,0.9419,0.9419,0.93945,0.93945,0.9419,0.9419,0.9419,0,0,1.0566,1.0566,1.0566,1.0596,1.0596,1.0596,1.0596,1.0596,1.0635,1.0635,1.0596,1.0596,1.0596,1.0596,1.0635,1.0635,1.0635,1.0664,1.0664,1.0664,1.0703,1.0703,1.0703,1.0703,1.0703,1.0703,1.0771,1.0771,1.0732,1.0732,1.0732,1.0771,1.0771,1.0771,1.0771,1.0771,1.0771,1.0771,1.0771,1.0771,1.0771,1.0771,1.0771,1.0771,1.0771,1.0771,1.0771,1.0771,1.0771,1.0771,1.0771,1.0771,1.0771,1.0771,1.0801,1.0801,1.0801,1.0801,1.0801,1.0801,1.084,1.0811,1.0771,0,0,0,0,0,0,0,0,0,0,0.8418,0.8335,0.83154,0.82959,0.82959,0.82764,0.82764,0.82764,0.82764,0.82764,0.82764,0.82764,0.82764,0.82764,0.82764,0.82764,0.82764,0.82959,0.82959,0.82959,0.83154,0.83154,0.83154,0.83154,0.83154,0.83154,0.83154,0.83154,0.83154,0.83398,0.83398,0.83398,0.83398,0.83398,0.83398,0.83398,0.83398,0.83398,0.83398,0.83398,0.83398,0.83398,0.83398,0.83789,0.83789,0.83789,0.83984,0.83984,0.83984,0.83984,0.83984,0.83984,0.83984,0.83984,0.84228,0.83984,0.84228,0,0,0,0,1.0605,1.0645,1.0645,1.0645,1.0645,1.0645,1.0645,1.0645,1.0645,1.0605,1.0605,1.0605,1.0605,1.0605,1.0605,1.0605,1.0605,1.0605,1.0605,1.0605,1.0605,1.0605,1.0605,1.0605,1.0605,1.0605,1.0605,1.0605,1.0605,1.0605,1.0605,1.0605,1.0605,1.0605,1.0645,1.0645,1.0645,1.0645,1.0645,1.0645,1.0645,1.0645,1.0645,1.0645,1.0645,1.0645,1.0645,1.0645,1.0645,1.0605,1.0605,1.0605,1.0605,1.0605,1.0605,1.0605,1.0605,1.0605,1.0605,1.0576,1.0576,1.0576,1.0576,1.0576,1.0576,1.0576,1.0576,1.0576,1.0576,1.0576,1.0576,1.0576,1.0576,1.0576,1.0576,1.0576,1.0576,1.0547,1.0547,1.0547,1.0547,1.0547,1.0547,1.0547,1.0547,1.0547,1.0547,1.0547,1.0547,1.0547,1.0547,1.0547,1.0547,1.0547,1.0547,1.0547,1.0518,1.0518,1.0518,1.0518,1.0518,1.0518,1.0518,1.0479,1.0518,1.0547,1.0518,1.0518,1.0518,1.0518,1.0518,1.0518,1.0518,1.0518,1.0518,1.0449,1.0518,1.0518,1.0479,1.0479,1.0479,1.0479,1.0479,1.0479,1.0479,1.0479,1.0479,1.0479,1.0449,1.0449,1.0449,1.0449,1.0449,1.0449,1.0449,1.0449,1.0449,1.0449,1.0449,1.0449,1.0449,1.042,1.042,1.042,1.042,1.042,1.042,1.042,1.042,1.042,1.0391,1.0391,1.0391,1.0391,1.0391,1.0352,1.0352,1.0352,1.0352,1.0352,1.0322,1.0361,1.0361,1.0361,1.0322,1.0322,1.0322,1.0361,1.0322,1.0322,1.0322,1.0322,1.0322,1.0322,1.0293,1.0293,1.0322,1.0322,1.0361,1.0322,1.0322,1.0322,1.0322,1.0322,1.0361,1.0322,1.0322,1.0322,1.0322,1.0322,1.0322,1.0322,1.0322,1.0322,1.0293,1.0322,1.0322,0,1.1836,1.1924,1.1924,1.1924,1.1924,1.1885,1.1885,1.1885,1.1885,1.1885,1.1885,1.1885,1.1924,1.1924,1.1924,1.1963,1.1963,1.1963,1.1924,1.1924,1.1963,1.1963,1.1963,1.1963,1.1963,1.2012,1.2012,1.2012,1.2012,1.2012,1.2012,1.2012,1.1963,1.1963,1.1963,1.1963,1.1963,1.0889,1.0889,1.0859,1.082,1.0791,1.0791,1.0752,1.0752,1.0752,1.0723,1.0723,1.0723,1.0723,1.0684,1.0654,1.0654,1.0625,1.0625,1.0625,0,0,0,0,0,0,0,0,0,0,0,0,0,0,0,0,0,0,0,0,0,0,0,0,0,0,0,0,0,0,0,0,0,0,0
0.93945,0.93945,0.93945,0.93945,0.93945,0.93945,0.93945,0.93945,0.93945,0.93945,0.93945,0.93945,0.93945,0.93945,0.93945,0.93945,0.9419,0.9419,0.93945,0.93945,0.93945,0.93945,0.93945,0.93945,0.93945,0.93945,0.93945,0.93945,0.93945,0.93945,0.93945,0.93945,0.93945,0.93945,0.9419,0.93945,0.93945,0.9419,0.94238,0.94238,0.94238,0,0,1.0498,1.0498,1.0537,1.0498,1.0566,1.0566,1.0566,1.0596,1.0596,1.0596,1.0596,1.0566,1.0566,1.0566,1.0566,1.0566,1.0605,1.0605,1.0605,1.0635,1.0664,1.0664,1.0664,1.0664,1.0664,1.0664,1.0703,1.0703,1.0703,1.0703,1.0703,1.0703,1.0732,1.0732,1.0732,1.0732,1.0732,1.0732,1.0732,1.0732,1.0703,1.0732,1.0732,1.0732,1.0732,1.0732,1.0732,1.0732,1.0732,1.0732,1.0732,1.0732,1.0771,1.0771,1.0771,1.0771,1.0771,1.0771,1.0811,1.0811,1.0811,1.0811,1.0771,0,0,0,0,0,0,0,0,0,0,0.8418,0.8335,0.83154,0.82959,0.82959,0.82959,0.82764,0.82764,0.82764,0.82764,0.82764,0.82764,0.82764,0.82764,0.82764,0.82959,0.82959,0.82959,0.82959,0.82959,0.83154,0.83154,0.83154,0.83154,0.83398,0.83154,0.83154,0.83398,0.83398,0.83398,0.83398,0.83398,0.83398,0.83398,0.83398,0.83398,0.83398,0.83398,0.83398,0.83398,0.83398,0.83398,0.83594,0.83984,0.83789,0.83789,0.83984,0.83984,0.83984,0.83984,0.83984,0.83984,0.83984,0.84033,0.84228,0.84033,0.84228,0.84228,0,0,0,1.0645,1.0605,1.0645,1.0645,1.0645,1.0605,1.0645,1.0645,1.0645,1.0605,1.0605,1.0605,1.0605,1.0605,1.0605,1.0605,1.0605,1.0605,1.0605,1.0605,1.0605,1.0605,1.0605,1.0605,1.0605,1.0605,1.0605,1.0605,1.0605,1.0605,1.0605,1.0605,1.0605,1.0605,1.0645,1.0645,1.0645,1.0645,1.0645,1.0645,1.0645,1.0645,1.0645,1.0645,1.0645,1.0645,1.0645,1.0605,1.0645,1.0605,1.0605,1.0615,1.0615,1.0615,1.0615,1.0615,1.0615,1.0615,1.0615,1.0576,1.0576,1.0576,1.0576,1.0576,1.0576,1.0576,1.0576,1.0576,1.0615,1.0615,1.0615,1.0576,1.0615,1.0576,1.0576,1.0576,1.0576,1.0547,1.0547,1.0547,1.0547,1.0547,1.0547,1.0547,1.0547,1.0547,1.0547,1.0547,1.0547,1.0547,1.0547,1.0547,1.0547,1.0547,1.0547,1.0547,1.0518,1.0518,1.0518,1.0518,1.0518,1.0518,1.0518,1.0518,1.0479,1.0518,1.0518,1.0518,1.0518,1.0518,1.0518,1.0518,1.0518,1.0518,1.0479,1.0518,1.0518,1.0518,1.0518,1.0479,1.0479,1.0479,1.0479,1.0479,1.0479,1.0479,1.0479,1.0479,1.0479,1.0479,1.0449,1.0449,1.0449,1.0449,1.0449,1.0449,1.0449,1.0449,1.0449,1.0449,1.0449,1.042,1.042,1.042,1.042,1.042,1.042,1.042,1.042,1.042,1.0391,1.0391,1.0391,1.0391,1.0391,1.0391,1.0391,1.0391,1.0391,1.0361,1.0361,1.0361,1.0361,1.0361,1.0322,1.0322,1.0322,1.0361,1.0322,1.0322,1.0322,1.0322,1.0322,1.0322,1.0293,1.0293,1.0322,1.0322,1.0322,1.0322,1.0322,1.0361,1.0361,1.0361,1.0361,1.0361,1.0322,1.0322,1.0322,1.0322,1.0322,1.0322,1.0332,1.0332,1.0332,1.0361,1.0332,0,1.1836,1.1836,1.1836,1.1885,1.1797,1.1846,1.1797,1.1836,1.1836,1.1836,1.1836,1.1885,1.1885,1.1885,1.1885,1.1924,1.1924,1.1924,1.1885,1.1885,1.1885,1.1885,1.1924,1.1924,1.1963,1.1963,1.1963,1.1963,1.1963,1.1963,1.1963,1.1963,1.1924,1.1924,1.1924,1.1924,1.0928,1.0889,1.0889,1.0859,1.082,1.082,1.0791,1.0752,1.0752,1.0752,1.0723,1.0723,1.0752,1.0723,1.0723,1.0654,1.0654,1.0625,1.0625,1.0625,0,0,0,0,0,0,0,0,0,0,0,0,0,0,0,0,0,0,0,0,0,0,0,0,0,0,0,0,0,0,0,0,0,0,0
0.93945,0.93945,0.93945,0.93945,0.93945,0.93945,0.93945,0.93945,0.93945,0.93945,0.93945,0.93945,0.93945,0.93945,0.93945,0.9419,0.9419,0.9419,0.9419,0.9419,0.93945,0.93945,0.93945,0.93945,0.93945,0.93945,0.93945,0.93945,0.93945,0.93945,0.93945,0.93945,0.93945,0.94238,0.94238,0.94238,0.93945,0.94238,0.94238,0.94238,0.94238,0,0,1.0498,1.0498,1.0498,1.0498,1.0498,1.0537,1.0537,1.0537,1.0498,1.0498,1.0498,1.0498,1.0498,1.0498,1.0498,1.0537,1.0537,1.0566,1.0566,1.0605,1.0635,1.0635,1.0635,1.0635,1.0635,1.0635,1.0664,1.0664,1.0635,1.0635,1.0664,1.0664,1.0664,1.0664,1.0703,1.0703,1.0703,1.0703,1.0703,1.0703,1.0703,1.0703,1.0703,1.0703,1.0732,1.0703,1.0703,1.0703,1.0742,1.0742,1.0742,1.0742,1.0742,1.0742,1.0771,1.0771,1.0742,1.0742,1.0771,1.0771,1.0771,1.0771,1.0742,0,0,0,0,0,0,0,0,0,0,0.8335,0.83154,0.83154,0.82959,0.82959,0.82959,0.82959,0.82959,0.82764,0.82959,0.82959,0.82959,0.82959,0.82959,0.82959,0.82959,0.82959,0.82959,0.82959,0.82959,0.83154,0.83154,0.83154,0.83398,0.83398,0.83398,0.83398,0.83398,0.83398,0.83398,0.83594,0.83594,0.83594,0.83594,0.83594,0.83398,0.83398,0.83398,0.83398,0.83398,0.83594,0.83398,0.83594,0.83984,0.83984,0.83984,0.83984,0.84033,0.84228,0.84228,0.84033,0.84033,0.84033,0.84033,0.84228,0,0.84033,0,0,0,0,0,1.0645,1.0605,1.0645,1.0645,1.0605,1.0605,1.0645,1.0605,1.0605,1.0605,1.0605,1.0605,1.0605,1.0605,1.0605,1.0605,1.0605,1.0605,1.0605,1.0605,1.0605,1.0605,1.0605,1.0605,1.0605,1.0605,1.0605,1.0605,1.0605,1.0576,1.0576,1.0576,1.0576,1.0605,1.0605,1.0645,1.0645,1.0645,1.0645,1.0645,1.0645,1.0645,1.0645,1.0645,1.0645,1.0645,1.0615,1.0615,1.0615,1.0615,1.0615,1.0615,1.0615,1.0615,1.0615,1.0615,1.0615,1.0615,1.0576,1.0576,1.0576,1.0576,1.0576,1.0547,1.0576,1.0576,1.0576,1.0576,1.0615,1.0615,1.0615,1.0615,1.0615,1.0576,1.0576,1.0576,1.0547,1.0547,1.0547,1.0547,1.0547,1.0547,1.0547,1.0547,1.0547,1.0547,1.0547,1.0547,1.0547,1.0547,1.0547,1.0547,1.0547,1.0547,1.0547,1.0518,1.0518,1.0518,1.0518,1.0518,1.0518,1.0518,1.0518,1.0479,1.0518,1.0518,1.0518,1.0518,1.0518,1.0518,1.0518,1.0518,1.0518,1.0479,1.0518,1.0518,1.0518,1.0479,1.0479,1.0479,1.0479,1.0479,1.0488,1.0488,1.0488,1.0488,1.0488,1.0488,1.0488,1.0488,1.0488,1.0488,1.0449,1.0449,1.0449,1.0449,1.0449,1.0449,1.0449,1.0449,1.042,1.042,1.042,1.042,1.042,1.042,1.042,1.042,1.042,1.0391,1.0391,1.0391,1.0391,1.0391,1.0391,1.0391,1.0391,1.0391,1.0361,1.0361,1.0361,1.0361,1.0361,1.0361,1.0322,1.0322,1.0361,1.0322,1.0322,1.0322,1.0322,1.0322,1.0322,1.0322,1.0322,1.0361,1.0361,1.0361,1.0361,1.0361,1.0361,1.0361,1.0361,1.0361,1.0361,1.0332,1.0332,1.0332,1.0332,1.0332,1.0332,1.0332,1.0332,1.0332,1.0332,0,1.168,1.1797,1.1797,1.1797,1.1797,1.1797,1.1797,1.1797,1.1797,1.1797,1.1797,1.1797,1.1797,1.1797,1.1797,1.1885,1.1846,1.1885,1.1885,1.1846,1.1846,1.1885,1.1885,1.1885,1.1885,1.1924,1.1924,1.1924,1.1924,1.1924,1.1885,1.1885,1.1885,1.1846,1.1846,1.1885,1.1758,1.0889,1.0889,1.0889,1.0859,1.0859,1.0859,1.0791,1.0752,1.0752,1.0723,1.0723,1.0723,1.0752,1.0752,1.0723,1.0684,1.0654,1.0654,1.0625,1.0625,0,0,0,0,0,0,0,0,0,0,0,0,0,0,0,0,0,0,0,0,0,0,0,0,0,0,0,0,0,0,0,0,0,0,0
0.93945,0.93945,0.93945,0.93945,0.93945,0.93945,0.93945,0.9419,0.93945,0.93945,0.93945,0.93945,0.9419,0.93945,0.9419,0.9419,0.9419,0.9419,0.9419,0.9419,0.93945,0.93945,0.93945,0.93945,0.93945,0.93945,0.93945,0.93945,0.93945,0.93945,0.93945,0.93945,0.93945,0.93945,0.94238,0.93945,0.93945,0.94238,0.94238,0.94238,0.94238,0,0,1.041,1.0498,1.0498,1.0469,1.0469,1.0469,1.0498,1.0469,1.0469,1.0469,1.0469,1.0469,1.0469,1.0469,1.0469,1.0508,1.0508,1.0508,1.0537,1.0537,1.0537,1.0537,1.0537,1.0537,1.0537,1.0566,1.0605,1.0635,1.0635,1.0635,1.0635,1.0635,1.0635,1.0674,1.0674,1.0635,1.0674,1.0674,1.0674,1.0674,1.0674,1.0674,1.0674,1.0674,1.0703,1.0674,1.0674,1.0674,1.0703,1.0703,1.0703,1.0703,1.0703,1.0742,1.0742,1.0742,1.0742,1.0742,1.0742,1.0742,1.0742,1.0703,0,0,0,0,0,0,0,0,0,0,0,0.83398,0.83154,0.83154,0.83154,0.82959,0.82959,0.82959,0.82959,0.82959,0.82959,0.82959,0.82959,0.82959,0.82959,0.82959,0.82959,0.82959,0.82959,0.83203,0.82959,0.83398,0.83154,0.83154,0.83398,0.83398,0.83398,0.83398,0.83398,0.83398,0.83398,0.83594,0.83594,0.83594,0.83594,0.83594,0.83594,0.83594,0.83594,0.83398,0.83398,0.83594,0.83594,0.83789,0.84033,0.84033,0.84033,0.84033,0.84228,0.84228,0.84228,0.84228,0.84033,0.84033,0.84033,0.84228,0.84033,0,0,0,1.0781,1.0742,1.0674,1.0674,1.0645,1.0605,1.0605,1.0605,1.0605,1.0605,1.0605,1.0605,1.0605,1.0605,1.0605,1.0605,1.0605,1.0605,1.0605,1.0605,1.0605,1.0605,1.0605,1.0576,1.0576,1.0576,1.0576,1.0576,1.0576,1.0576,1.0576,1.0576,1.0576,1.0576,1.0576,1.0576,1.0605,1.0645,1.0645,1.0645,1.0645,1.0645,1.0645,1.0645,1.0615,1.0645,1.0645,1.0645,1.0645,1.0615,1.0615,1.0615,1.0615,1.0615,1.0615,1.0615,1.0615,1.0615,1.0615,1.0615,1.0615,1.0576,1.0576,1.0576,1.0576,1.0576,1.0547,1.0547,1.0576,1.0576,1.0576,1.0576,1.0615,1.0615,1.0615,1.0615,1.0576,1.0576,1.0576,1.0547,1.0547,1.0547,1.0547,1.0547,1.0547,1.0547,1.0547,1.0547,1.0547,1.0547,1.0547,1.0547,1.0547,1.0547,1.0547,1.0547,1.0547,1.0518,1.0518,1.0518,1.0518,1.0518,1.0518,1.0518,1.0518,1.0518,1.0479,1.0518,1.0518,1.0518,1.0518,1.0518,1.0518,1.0518,1.0518,1.0518,1.0518,1.0518,1.0518,1.0518,1.0518,1.0488,1.0488,1.0488,1.0518,1.0518,1.0518,1.0488,1.0488,1.0488,1.0488,1.0488,1.0449,1.0488,1.0488,1.0449,1.0449,1.0449,1.0449,1.0449,1.0449,1.0449,1.0449,1.042,1.042,1.042,1.042,1.042,1.042,1.042,1.042,1.042,1.0391,1.0391,1.042,1.042,1.0391,1.0391,1.0391,1.0391,1.0391,1.0361,1.0361,1.0361,1.0322,1.0361,1.0322,1.0322,1.0322,1.0361,1.0322,1.0322,1.0322,1.0322,1.0322,1.0322,1.0322,1.0322,1.0361,1.0361,1.0361,1.0361,1.0361,1.0361,1.0361,1.0361,1.0361,1.0361,1.0332,1.0361,1.0361,1.0332,1.0332,1.0332,1.0332,1.0332,1.0332,1.0332,1.0332,0,1.1797,1.1797,1.1797,1.1797,1.1797,1.1797,1.1797,1.1797,1.1758,1.1758,1.1758,1.1758,1.1758,1.1758,1.1758,1.1758,1.1758,1.1758,1.1758,1.1758,1.1797,1.1846,1.1846,1.1846,1.1846,1.1885,1.1846,1.1846,1.1846,1.1846,1.1846,1.1846,1.1807,1.1807,1.1807,1.1758,1.0889,1.0889,1.0889,1.0859,1.0859,1.082,1.0791,1.0752,1.0723,1.0723,1.0723,1.0723,1.0752,1.0723,1.0723,1.0693,1.0654,1.0654,1.0625,1.0625,0,0,0,0,0,0,0,0,0,0,0,0,0,0,0,0,0,0,0,0,0,0,0,0,0,0,0,0,0,0,0,0,0,0,0
0.93945,0.9419,0.93945,0.93945,0.93945,0.93945,0.93945,0.9419,0.9419,0.93945,0.93945,0.9419,0.9419,0.9419,0.9419,0.9419,0.9419,0.94482,0.94238,0.94238,0.94238,0.94238,0.93945,0.94727,0.93945,0.93945,0.93945,0.93945,0.93945,0.93945,0.93945,0.93945,0.93945,0.94238,0.94238,0.94238,0.94238,0.94238,0.94238,0.94482,0.94482,0,0,1.0371,1.0508,1.0508,1.0469,1.0439,1.0439,1.0439,1.0439,1.0469,1.0439,1.0469,1.0439,1.0439,1.0439,1.0439,1.0439,1.0439,1.0439,1.0469,1.0469,1.0469,1.0469,1.0469,1.0469,1.0508,1.0537,1.0566,1.0566,1.0566,1.0566,1.0566,1.0566,1.0566,1.0566,1.0566,1.0566,1.0566,1.0605,1.0635,1.0605,1.0635,1.0635,1.0635,1.0635,1.0674,1.0635,1.0635,1.0635,1.0635,1.0674,1.0674,1.0674,1.0674,1.0674,1.0703,1.0703,1.0703,1.0703,1.0703,1.0703,1.0703,1.0674,1.0703,1.0703,0,0,0,0,0,0,0,0,0.83154,0.83154,0.83154,0.83154,0.82959,0.82959,0.82959,0.82959,0.82959,0.82959,0.82959,0.82959,0.82959,0.82959,0.82959,0.82959,0.82959,0.82959,0.83203,0.83203,0.82959,0.83203,0.83398,0.83398,0.83398,0.83398,0.83398,0.83398,0.83398,0.83398,0.83398,0.83594,0.83789,0.83789,0.83789,0.83789,0.83594,0.83594,0.83594,0.83398,0.83398,0.83594,0.83594,0.83789,0.84033,0.84033,0.84033,0.84033,0.84228,0.84228,0.84228,0.84228,0.84033,0.84033,0.84033,0.84228,0.84033,0,0,0,1.0322,1.0322,0,1.0674,0,1.0645,1.0605,1.0605,1.0576,1.0576,1.0547,1.0508,1.0547,1.0576,1.0605,1.041,1.0381,1.0381,1.0605,1.0576,1.0576,1.0576,1.0576,1.0576,1.0576,1.0576,1.0576,1.0576,1.0576,1.0576,1.0576,1.0576,1.0576,1.0576,1.0576,1.0576,1.0615,1.0615,1.0615,1.0615,1.0615,1.0615,1.0615,1.0615,1.0615,1.0615,1.0615,1.0615,1.0615,1.0615,1.0615,1.0615,1.0615,1.0615,1.0615,1.0615,1.0615,1.0615,1.0615,1.0615,1.0615,1.0615,1.0576,1.0576,1.0576,1.0576,1.0547,1.0547,1.0576,1.0576,1.0576,1.0615,1.0615,1.0615,1.0615,1.0615,1.0576,1.0576,1.0576,1.0547,1.0547,1.0547,1.0547,1.0547,1.0547,1.0547,1.0547,1.0547,1.0547,1.0547,1.0547,1.0547,1.0547,1.0547,1.0547,1.0547,1.0518,1.0518,1.0518,1.0518,1.0518,1.0518,1.0518,1.0518,1.0518,1.0518,1.0479,1.0547,1.0518,1.0518,1.0518,1.0518,1.0518,1.0518,1.0518,1.0518,1.0518,1.0518,1.0518,1.0518,1.0518,1.0488,1.0488,1.0488,1.0518,1.0518,1.0518,1.0488,1.0488,1.0488,1.0488,1.0488,1.0449,1.0449,1.0449,1.0449,1.0449,1.0449,1.0449,1.0449,1.0449,1.0449,1.0449,1.042,1.042,1.042,1.042,1.042,1.042,1.042,1.042,1.042,1.042,1.042,1.042,1.042,1.0391,1.0391,1.0391,1.0391,1.0391,1.0361,1.0361,1.0361,1.0322,1.0361,1.0322,1.0322,1.0322,1.0361,1.0322,1.0322,1.0332,1.0332,1.0332,1.0332,1.0332,1.0332,1.0361,1.0361,1.0361,1.0361,1.0361,1.0361,1.0361,1.0361,1.0361,1.0361,1.0361,1.0361,1.0332,1.0332,1.0332,1.0332,1.0332,1.0332,1.0332,1.0332,0,0,1.1758,1.1758,1.1641,1.1641,1.168,1.168,1.168,1.1719,1.1719,1.1719,1.1719,1.1758,1.168,1.168,1.168,1.1719,1.1719,1.1719,1.1719,1.168,1.168,1.1758,1.1758,1.1719,1.168,1.168,1.168,1.1719,1.1719,1.1807,1.1807,1.1807,1.1758,1.1758,1.1758,1.0898,1.0898,1.0898,1.0898,1.0859,1.0859,1.082,1.0791,1.0752,1.0752,1.0752,1.0723,1.0723,1.0752,1.0723,1.0723,1.0693,1.0654,1.0654,1.0625,1.0625,0,0,0,0,0,0,0,0,0,0,0,0,0,0,0,0,0,0,0,0,0,0,0,0,0,0,0,0,0,0,0,0,0,0,0
0.9419,0.9419,0.9419,0.9419,0.9419,0.9419,0.9419,0.9419,0.9419,0.94238,0.94238,0.94238,0.94238,0.94238,0.94238,0.94238,0.94238,0.94482,0.94238,0.94482,0.94482,0.93945,0.94482,0.94727,0.94482,0.94727,0.93945,0.93945,0.94238,0.94238,0.94238,0.93945,0.93945,0.93945,0.94238,0.94238,0.94238,0.94238,0.94238,0.94482,0.94482,0,0,1.0371,1.0439,1.0469,1.0439,1.0439,1.0439,1.0439,1.0439,1.0439,1.0439,1.0439,1.0439,1.0439,1.041,1.041,1.041,1.041,1.041,1.041,1.041,1.0439,1.0439,1.0439,1.0439,1.0469,1.0508,1.0537,1.0537,1.0537,1.0537,1.0537,1.0537,1.0537,1.0537,1.0537,1.0537,1.0537,1.0566,1.0537,1.0537,1.0537,1.0537,1.0576,1.0576,1.0576,1.0576,1.0605,1.0605,1.0576,1.0635,1.0635,1.0635,1.0674,1.0674,1.0674,1.0674,1.0674,1.0674,1.0674,1.0674,1.0674,1.0674,1.0674,1.0703,0,0,0,0,0,0,0,0,0.83398,0.83398,0.83154,0.83154,0.83203,0.82959,0.82959,0.82959,0.82959,0.82959,0.82959,0.82959,0.82959,0.82959,0.82959,0.83203,0.83203,0.83203,0.83203,0.83203,0.83203,0.83398,0.83398,0.83398,0.83398,0.83398,0.83398,0.83398,0.83398,0.83398,0.83594,0.83789,0.83789,0.83789,0.83789,0.83789,0.83789,0.83789,0.83594,0.83594,0.83594,0.83594,0.83594,0.83789,0.84033,0.84033,0.84033,0.84228,0.84228,0.84228,0.84228,0.84228,0.84228,0.84228,0.84033,0.84228,0.84228,0,0,0,1.0283,1.0322,1.0322,1.0283,1.0283,0,0,1.0508,1.0508,1.0508,1.0508,1.0479,1.0508,1.0547,1.0576,1.0352,0,1.0322,1.0322,1.0322,1.0352,1.0352,1.0381,1.0381,1.041,1.0547,1.0508,1.0508,1.0547,1.0547,1.0547,1.0547,1.0576,1.0576,1.0576,1.0615,1.0615,1.0615,1.0615,1.0615,1.0576,1.0615,1.0615,1.0615,1.0576,1.0615,1.0615,1.0615,1.0615,1.0615,1.0615,1.0615,1.0615,1.0615,1.0615,1.0615,1.0615,1.0615,1.0615,1.0615,1.0615,1.0576,1.0576,1.0576,1.0576,1.0547,1.0547,1.0547,1.0576,1.0576,1.0576,1.0615,1.0615,1.0615,1.0615,1.0615,1.0576,1.0576,1.0576,1.0576,1.0547,1.0547,1.0547,1.0547,1.0547,1.0547,1.0547,1.0547,1.0547,1.0547,1.0547,1.0547,1.0547,1.0547,1.0518,1.0547,1.0518,1.0518,1.0518,1.0518,1.0518,1.0518,1.0518,1.0518,1.0518,1.0518,1.0518,1.0547,1.0518,1.0518,1.0518,1.0518,1.0518,1.0518,1.0518,1.0518,1.0518,1.0518,1.0518,1.0518,1.0518,1.0488,1.0488,1.0488,1.0518,1.0518,1.0518,1.0488,1.0518,1.0449,1.0488,1.0449,1.0449,1.0449,1.0449,1.0449,1.0449,1.0449,1.0449,1.0449,1.0449,1.0449,1.0449,1.042,1.042,1.042,1.042,1.042,1.042,1.042,1.042,1.042,1.042,1.042,1.042,1.042,1.042,1.042,1.0391,1.0391,1.0391,1.0391,1.0391,1.0391,1.0361,1.0361,1.0361,1.0332,1.0332,1.0332,1.0332,1.0332,1.0332,1.0332,1.0332,1.0332,1.0332,1.0332,1.0361,1.0361,1.0361,1.0361,1.0361,1.0361,1.0361,1.0361,1.0361,1.0361,1.0361,1.0361,1.0332,1.0332,1.0332,1.0332,1.0332,1.0332,1.0332,1.0332,0,0,1.1719,1.1641,1.1602,1.1602,1.1602,1.1602,1.1602,1.1602,0,1.1641,1.1641,1.168,1.168,1.1641,1.1641,1.168,1.1641,1.1641,1.168,1.1641,1.168,1.1719,1.1719,1.168,1.168,1.168,1.168,1.168,1.168,1.168,1.168,1.1719,1.1719,1.1719,1.1719,1.1719,1.0898,1.0898,1.0898,1.0859,1.0859,1.083,1.0791,1.0762,1.0762,1.0762,1.0723,1.0723,1.0762,1.0762,1.0723,1.0693,1.0654,1.0654,1.0625,1.0625,0,0,0,0,0,0,0,0,0,0,0,0,0,0,0,0,0,0,0,0,0,0,0,0,0,0,0,0,0,0,0,0,0,0,0
0.9419,0.9419,0.94238,0.94238,0.94238,0.94238,0.94238,0.94238,0.94238,0.94238,0.94238,0.94238,0.94238,0.94238,0.94238,0.94238,0.94482,0.94482,0.94482,0.94482,0.94238,0.93945,0.94775,0.94775,0.94775,0.94775,0.93945,0.94238,0.94238,0.94238,0.94238,0.94238,0.94238,0.94238,0.94238,0.94238,0.94238,0.94238,0.94238,0.94482,0.94482,0,0,1.0342,1.0371,1.041,1.041,1.041,1.041,1.041,1.041,1.041,1.0371,1.041,1.041,1.0371,1.0371,1.0381,1.0381,1.0381,1.0381,1.0381,1.0381,1.0381,1.041,1.041,1.041,1.0439,1.0469,1.0469,1.0508,1.0508,1.0508,1.0508,1.0508,1.0508,1.0508,1.0508,1.0508,1.0508,1.0537,1.0508,1.0537,1.0508,1.0508,1.0537,1.0537,1.0576,1.0576,1.0576,1.0576,1.0576,1.0576,1.0576,1.0576,1.0537,1.0576,1.0576,1.0537,1.0576,1.0576,1.0576,1.0635,1.0635,1.0605,1.0635,1.0635,0,0,0,0,0,0,0,0,0.83203,0.83398,0.83203,0.83203,0.83203,0.83203,0.82959,0.82959,0.82959,0.82959,0.83203,0.82959,0.83203,0.83203,0.83203,0.83203,0.83203,0.83203,0.83203,0.83203,0.83203,0.83398,0.83398,0.83398,0.83398,0.83398,0.83398,0.83398,0.83594,0.83594,0.83594,0.83789,0.83789,0.83789,0.83789,0.83789,0.83789,0.83838,0.83838,0.83594,0.83838,0.83838,0.83838,0.83789,0.84033,0.84033,0.84228,0.84228,0.84228,0.84228,0.84228,0.84228,0.84228,0.84228,0.84228,0.84228,0.84228,0,0,0,1.0283,1.0322,1.0322,1.0293,1.0293,0,0,0,1.0449,1.0449,1.0449,1.0479,1.0352,1.0352,1.0352,1.0352,1.0322,1.0322,1.0322,1.0322,1.0322,1.0352,1.0352,1.0352,1.0352,1.0352,1.0352,1.0381,1.0381,1.0479,1.0479,1.0547,1.0547,1.0547,1.0547,1.0576,1.0576,1.0576,1.0576,1.0576,1.0576,1.0576,1.0576,1.0615,1.0576,1.0576,1.0576,1.0615,1.0615,1.0576,1.0576,1.0576,1.0576,1.0576,1.0576,1.0576,1.0576,1.0615,1.0615,1.0615,1.0615,1.0576,1.0576,1.0576,1.0576,1.0547,1.0576,1.0576,1.0576,1.0576,1.0576,1.0576,1.0615,1.0576,1.0576,1.0576,1.0576,1.0547,1.0547,1.0576,1.0547,1.0547,1.0547,1.0547,1.0547,1.0586,1.0547,1.0547,1.0547,1.0547,1.0547,1.0547,1.0547,1.0547,1.0518,1.0518,1.0518,1.0518,1.0518,1.0518,1.0488,1.0518,1.0518,1.0518,1.0518,1.0518,1.0518,1.0547,1.0547,1.0518,1.0547,1.0518,1.0518,1.0518,1.0518,1.0518,1.0518,1.0518,1.0518,1.0518,1.0518,1.0488,1.0518,1.0518,1.0518,1.0518,1.0518,1.0518,1.0518,1.0449,1.0488,1.0449,1.0449,1.0449,1.0449,1.0449,1.0449,1.0449,1.0449,1.0449,1.0449,1.0449,1.0449,1.042,1.042,1.042,1.042,1.042,1.042,1.042,1.042,1.042,1.042,1.042,1.042,1.042,1.042,1.042,1.042,1.042,1.042,1.0391,1.0391,1.0391,1.0361,1.0361,1.0361,1.0361,1.0332,1.0361,1.0332,1.0332,1.0332,1.0332,1.0332,1.0332,1.0332,1.0332,1.0361,1.0361,1.0361,1.0361,1.0361,1.0361,1.0361,1.0361,1.0361,1.0361,1.0361,1.0361,1.0332,1.0332,1.0332,1.0332,1.0332,1.0332,1.0332,1.0332,0,1.1602,1.1602,1.1562,1.1562,1.1562,1.1562,1.1562,1.1562,1.1562,1.1602,1.1602,1.1602,1.1641,1.1641,1.1602,1.1641,1.1641,1.1641,1.1641,1.1641,1.1602,1.1641,1.168,1.168,1.1641,1.1641,1.1641,1.1641,1.1641,1.1641,1.1641,1.1641,1.168,1.1641,1.168,1.168,1.0898,1.0898,1.0898,1.0898,1.0859,1.0859,1.083,1.083,1.0762,1.0762,1.0762,1.0762,1.0723,1.0762,1.0723,1.0723,1.0693,1.0654,1.0654,1.0625,1.0625,0,0,0,0,0,0,0,0,0,0,0,0,0,0,0,0,0,0,0,0,0,0,0,0,0,0,0,0,0,0,0,0,0,0,0
