1.0527,1.0557,1.0557,1.0557,1.0596,1.0625,1.0625,1.0625,1.0625,1.0625,1.0664,1.0664,1.0693,1.0693,1.0732,1.0732,1.0732,1.0732,1.0732,1.0732,1.0762,1.0762,1.0801,1.0762,1.0801,1.083,1.083,1.083,1.0869,1.0898,1.0898,1.0938,1.0898,1.0938,1.0938,1.0977,1.0977,1.0977,1.0977,1.1006,1.1006,1.1006,1.1006,1.1006,1.1045,1.1045,1.1045,1.1084,1.1084,1.1084,1.1123,1.1123,1.1152,1.1152,1.1152,1.1152,1.1191,1.1191,1.1191,1.1191,1.123,1.127,1.127,1.127,1.127,1.127,1.127,1.127,1.127,1.1309,1.1348,1.1348,1.1387,1.1387,1.1387,1.1387,1.1426,1.1426,1.1465,1.1504,1.1504,1.1504,1.1504,1.1504,1.1543,1.1543,1.1543,1.1543,1.1543,1.1582,1.1582,1.1582,1.1621,1.1621,1.1621,1.166,1.166,1.166,1.1699,1.1699,1.1699,1.1748,1.1787,1.1787,1.1787,1.1826,1.1826,1.1826,1.1826,1.1826,1.1826,1.1865,1.1865,1.1865,1.1865,1.1865,1.1914,1.1914,1.1914,1.1914,1.1953,1.1953,1.1992,1.1992,1.1992,1.1992,1.2041,1.2041,1.2041,1.2041,1.208,1.2129,1.2129,1.2129,1.2129,1.2168,1.2168,1.2168,1.2168,1.2168,1.2217,1.2256,1.2256,1.2256,1.2305,1.2305,1.2305,1.2354,1.2354,1.2354,1.2393,1.2393,1.2393,1.2393,1.2393,1.2441,1.2441,1.2441,1.2441,1.2441,1.2441,1.249,1.249,1.249,1.2539,1.2539,1.2578,1.2539,1.2578,1.2578,1.2627,1.2627,1.2627,1.2676,1.2676,1.2725,1.2725,1.2725,1.2725,1.2773,1.2773,1.2773,1.2773,1.2773,1.2822,1.2822,1.2871,1.2871,1.2871,1.292,1.292,1.292,1.292,1.292,1.292,1.292,1.2969,1.2969,1.2969,1.2969,1.3018,1.3018,1.3018,1.3076,1.3076,1.3076,1.3076,1.3125,1.3125,1.3174,1.3223,1.3223,1.3223,1.3223,1.3223,1.3281,1.3223,1.3281,1.3281,1.3281,1.333,1.333,1.333,1.3389,1.3389,1.3389,1.3438,1.3438,1.3496,1.3496,1.3496,1.3496,1.3545,1.3545,1.3545,1.3604,1.3604,1.3604,1.3662,1.3662,1.3662,1.3662,1.3662,1.3711,1.3711,1.3711,1.3711,1.3711,1.3711,1.3711,1.377,1.377,1.377,1.3828,1.3828,1.3887,1.3887,1.3887,1.3887,1.3887,1.3887,1.3887,1.3887,1.3887,1.3828,1.3887,0,0,0,0,0,1.0645,1.0576,1.0605,1.0576,1.0576,1.0576,1.0605,1.0605,1.0576,1.0576,1.0576,1.0537,1.0508,1.0508,1.0508,1.0508,1.0479,1.0508,1.0508,1.0508,1.0508,1.0508,1.0508,1.0508,1.0479,1.0479,1.0479,1.0479,1.0479,1.0479,1.0479,1.0479,1.0479,1.0479,1.0479,1.0479,1.0479,1.0508,1.0508,1.0508,1.0479,1.0479,1.0479,1.0479,1.0479,1.0449,1.0449,1.0449,1.0449,1.041,1.0449,1.041,1.041,1.041,1.041,1.041,1.041,1.041,1.041,1.041,1.041,1.041,1.041,1.0381,1.0381,1.0381,1.0381,1.0381,1.0381,1.0381,1.0381,1.0381,1.0352,1.0381,1.0352,1.0381,1.0381,1.0381,1.041,1.041,1.041,1.041,1.041,1.041,1.041,1.041,1.041,1.0381,1.0381,1.0381,1.0381,1.0381,1.0381,1.0352,1.0352,1.0352,1.0352,1.0352,1.0322,1.0322,1.0352,1.0322,1.0352,1.0352,1.0352,1.0352,1.0352,1.0352,1.0352,1.0293,1.0352,1.0352,1.0322,1.0322,1.0322,1.0322,1.0322,1.0322,1.0322,1.0322,1.0293,1.0322,1.0322,1.0322,1.0322,1.0322,1.0293,1.0293,1.0293,1.0293,1.0293,1.0293,1.0293,1.0293,1.0254,1.0293,1.0293,1.0264,1.0264,1.0264,1.0264,1.0264,1.0264,1.0264,1.0264,1.0264,1.0264,1.0264,1.0264,1.0264,1.0264,1.0264,1.0264,1.0264,1.0264,1.0264,1.0225,1.0225,1.0225,0,0,0,0,0,0,0,0,0,0,0,0,0,0,0,0,0,0,0,0,0,0,0,0,0,0,0,0,0,0,0,0,0
1.0557,1.0557,1.0557,1.0557,1.0596,1.0625,1.0625,1.0625,1.0664,1.0664,1.0693,1.0693,1.0732,1.0732,1.0732,1.0732,1.0732,1.0732,1.0732,1.0762,1.0762,1.0762,1.0801,1.0762,1.0801,1.083,1.083,1.0869,1.0869,1.0898,1.0898,1.0898,1.0938,1.0938,1.0938,1.0977,1.0977,1.1006,1.1006,1.1006,1.1006,1.1006,1.1006,1.1045,1.1045,1.1045,1.1045,1.1084,1.1084,1.1084,1.1123,1.1123,1.1152,1.1152,1.1152,1.1191,1.1191,1.1191,1.1191,1.1191,1.123,1.127,1.127,1.127,1.127,1.127,1.1309,1.1309,1.1309,1.1309,1.1387,1.1348,1.1387,1.1387,1.1387,1.1426,1.1426,1.1426,1.1465,1.1465,1.1504,1.1504,1.1504,1.1543,1.1543,1.1543,1.1543,1.1543,1.1543,1.1543,1.1543,1.1582,1.1621,1.1621,1.166,1.166,1.166,1.166,1.1699,1.1699,1.1699,1.1748,1.1748,1.1748,1.1787,1.1787,1.1826,1.1826,1.1826,1.1865,1.1865,1.1865,1.1865,1.1865,1.1865,1.1865,1.1914,1.1914,1.1953,1.1953,1.1953,1.1992,1.1992,1.1992,1.1992,1.1992,1.2041,1.2041,1.2041,1.2041,1.208,1.208,1.2129,1.2129,1.2129,1.2168,1.2168,1.2168,1.2217,1.2217,1.2217,1.2256,1.2256,1.2256,1.2305,1.2305,1.2305,1.2354,1.2354,1.2354,1.2393,1.2393,1.2393,1.2393,1.2393,1.2393,1.2441,1.2441,1.2441,1.2441,1.249,1.249,1.249,1.249,1.2539,1.2539,1.2578,1.2578,1.2578,1.2627,1.2627,1.2627,1.2627,1.2676,1.2725,1.2725,1.2725,1.2725,1.2725,1.2773,1.2773,1.2773,1.2773,1.2822,1.2822,1.2822,1.2822,1.2871,1.2871,1.292,1.292,1.292,1.292,1.292,1.2969,1.2969,1.2969,1.2969,1.2969,1.3018,1.3018,1.3018,1.3018,1.3076,1.3076,1.3076,1.3125,1.3125,1.3174,1.3174,1.3223,1.3223,1.3223,1.3223,1.3281,1.3281,1.3281,1.3281,1.3281,1.3281,1.333,1.333,1.333,1.3389,1.3389,1.3438,1.3438,1.3438,1.3496,1.3496,1.3496,1.3496,1.3545,1.3545,1.3545,1.3604,1.3604,1.3604,1.3662,1.3662,1.3662,1.3662,1.3662,1.3662,1.3711,1.3711,1.3711,1.3711,1.3711,1.3711,1.3711,1.377,1.377,1.3828,1.3887,1.3887,1.3887,1.3887,1.3887,1.3887,1.3887,1.3887,1.3887,1.3887,1.3887,1.3887,1.3887,0,0,0,0,1.0605,1.0576,1.0576,1.0576,1.0576,1.0576,1.0605,1.0605,1.0576,1.0576,1.0576,1.0537,1.0508,1.0508,1.0508,1.0508,1.0479,1.0479,1.0508,1.0508,1.0508,1.0508,1.0508,1.0508,1.0479,1.0479,1.0479,1.0479,1.0479,1.0479,1.0479,1.0479,1.0479,1.0479,1.0479,1.0479,1.0479,1.0479,1.0508,1.0508,1.0479,1.0479,1.0479,1.0479,1.0479,1.0449,1.0449,1.0449,1.0449,1.041,1.041,1.0449,1.041,1.041,1.041,1.041,1.041,1.041,1.041,1.041,1.041,1.041,1.041,1.0381,1.0381,1.0381,1.0381,1.0381,1.0381,1.0381,1.0381,1.0381,1.0381,1.0381,1.0381,1.0381,1.041,1.041,1.041,1.041,1.041,1.041,1.041,1.041,1.041,1.042,1.042,1.0381,1.0381,1.0381,1.0381,1.0352,1.0381,1.0322,1.0322,1.0322,1.0322,1.0322,1.0322,1.0322,1.0322,1.0322,1.0352,1.0322,1.0352,1.0352,1.0352,1.0352,1.0352,1.0293,1.0352,1.0352,1.0322,1.0322,1.0322,1.0322,1.0322,1.0322,1.0322,1.0293,1.0293,1.0322,1.0322,1.0322,1.0322,1.0322,1.0293,1.0293,1.0293,1.0293,1.0293,1.0293,1.0264,1.0293,1.0264,1.0264,1.0264,1.0264,1.0293,1.0264,1.0264,1.0264,1.0264,1.0264,1.0264,1.0264,1.0264,1.0264,1.0264,1.0264,1.0264,1.0264,1.0264,1.0293,1.0264,1.0264,1.0225,1.0225,1.0225,0,0,0,0,0,0,0,0,0,0,0,0,0,0,0,0,0,0,0,0,0,0,0,0,0,0,0,0,0,0,0,0,0
1.0557,1.0557,1.0557,1.0596,1.0596,1.0625,1.0625,1.0664,1.0664,1.0693,1.0693,1.0693,1.0732,1.0732,1.0732,1.0732,1.0732,1.0732,1.0732,1.0762,1.0762,1.0762,1.083,1.0801,1.083,1.083,1.0869,1.0869,1.0869,1.0898,1.0908,1.0908,1.0938,1.0938,1.0977,1.0977,1.0977,1.1016,1.1016,1.1016,1.1016,1.1016,1.1045,1.1045,1.1045,1.1045,1.1084,1.1084,1.1084,1.1123,1.1123,1.1123,1.1152,1.1162,1.1162,1.1162,1.1191,1.1191,1.1191,1.123,1.123,1.127,1.127,1.127,1.1309,1.1309,1.1309,1.1309,1.1309,1.1309,1.1387,1.1387,1.1387,1.1426,1.1426,1.1426,1.1426,1.1465,1.1465,1.1504,1.1504,1.1543,1.1543,1.1543,1.1543,1.1543,1.1543,1.1543,1.1543,1.1543,1.1543,1.1582,1.1621,1.166,1.166,1.166,1.166,1.1699,1.1699,1.1699,1.1699,1.1748,1.1748,1.1787,1.1787,1.1826,1.1826,1.1865,1.1865,1.1865,1.1865,1.1865,1.1865,1.1865,1.1865,1.1914,1.1953,1.1953,1.1953,1.1953,1.1992,1.1992,1.1992,1.1992,1.2041,1.2041,1.2041,1.2041,1.2041,1.2041,1.208,1.208,1.2129,1.2129,1.2168,1.2168,1.2168,1.2168,1.2217,1.2217,1.2217,1.2256,1.2256,1.2256,1.2305,1.2305,1.2305,1.2354,1.2354,1.2393,1.2393,1.2393,1.2393,1.2441,1.2441,1.2441,1.2441,1.2441,1.2441,1.2441,1.249,1.249,1.249,1.249,1.2539,1.2539,1.2578,1.2578,1.2627,1.2627,1.2676,1.2627,1.2676,1.2676,1.2725,1.2725,1.2725,1.2773,1.2725,1.2773,1.2773,1.2773,1.2773,1.2822,1.2822,1.2822,1.2822,1.2871,1.2871,1.292,1.292,1.292,1.292,1.2969,1.2969,1.2969,1.2969,1.2969,1.2969,1.3027,1.3027,1.3027,1.3027,1.3076,1.3125,1.3125,1.3174,1.3174,1.3174,1.3174,1.3232,1.3232,1.3232,1.3232,1.3281,1.3281,1.3281,1.3281,1.3281,1.333,1.333,1.333,1.3389,1.3389,1.3389,1.3438,1.3438,1.3438,1.3496,1.3496,1.3496,1.3496,1.3545,1.3545,1.3604,1.3545,1.3604,1.3662,1.3662,1.3662,1.3662,1.3662,1.3662,1.3711,1.3662,1.3711,1.3711,1.3711,1.3711,1.3711,1.377,1.377,1.3828,1.3828,1.3887,1.3887,1.3887,1.3887,1.3887,1.3887,1.3887,1.3887,1.3887,1.3887,1.3887,1.3887,1.3887,1.4121,1.4121,0,1.0645,1.0605,1.0605,1.0576,1.0576,1.0576,1.0576,1.0605,1.0576,1.0576,1.0537,1.0576,1.0537,1.0508,1.0508,1.0508,1.0508,1.0508,1.0508,1.0508,1.0508,1.0508,1.0508,1.0508,1.0508,1.0479,1.0479,1.0479,1.0479,1.0479,1.0479,1.0479,1.0479,1.0479,1.0479,1.0479,1.0479,1.0479,1.0479,1.0508,1.0479,1.0479,1.0479,1.0479,1.0479,1.0449,1.0479,1.0449,1.0449,1.0449,1.0449,1.0449,1.0449,1.041,1.041,1.041,1.041,1.041,1.0381,1.041,1.0381,1.041,1.041,1.0381,1.0381,1.0381,1.0381,1.0381,1.0381,1.0381,1.0381,1.0381,1.0381,1.0381,1.0381,1.0381,1.0381,1.041,1.041,1.041,1.042,1.042,1.0449,1.042,1.042,1.042,1.042,1.042,1.042,1.0381,1.0381,1.0381,1.0352,1.0381,1.0352,1.0352,1.0352,1.0352,1.0352,1.0322,1.0322,1.0322,1.0322,1.0352,1.0352,1.0352,1.0352,1.0352,1.0352,1.0352,1.0293,1.0352,1.0352,1.0322,1.0322,1.0322,1.0322,1.0322,1.0322,1.0322,1.0293,1.0293,1.0293,1.0293,1.0322,1.0322,1.0322,1.0293,1.0293,1.0293,1.0293,1.0293,1.0293,1.0293,1.0293,1.0264,1.0264,1.0264,1.0264,1.0293,1.0264,1.0264,1.0264,1.0264,1.0264,1.0264,1.0264,1.0264,1.0264,1.0264,1.0264,1.0225,1.0264,1.0264,1.0264,1.0264,1.0264,1.0225,1.0225,1.0225,0,0,0,0,0,0,0,0,0,0,0,0,0,0,0,0,0,0,0,0,0,0,0,0,0,0,0,0,0,0,0,0,0
1.0596,1.0596,1.0596,1.0596,1.0625,1.0625,1.0625,1.0664,1.0693,1.0693,1.0693,1.0732,1.0732,1.0732,1.0732,1.0732,1.0732,1.0762,1.0762,1.0762,1.0762,1.0801,1.083,1.083,1.083,1.083,1.0869,1.0869,1.0908,1.0908,1.0908,1.0938,1.0938,1.0977,1.0977,1.0977,1.1016,1.1016,1.1016,1.1016,1.1045,1.1045,1.1045,1.1045,1.1084,1.1084,1.1084,1.1123,1.1123,1.1123,1.1162,1.1162,1.1162,1.1162,1.1162,1.1191,1.1191,1.1191,1.1191,1.123,1.123,1.127,1.1309,1.127,1.1309,1.1309,1.1309,1.1309,1.1309,1.1309,1.1387,1.1387,1.1387,1.1426,1.1426,1.1426,1.1465,1.1465,1.1504,1.1504,1.1504,1.1543,1.1543,1.1543,1.1543,1.1543,1.1543,1.1543,1.1543,1.1543,1.1543,1.1582,1.1621,1.1621,1.166,1.1699,1.1699,1.1699,1.1699,1.1699,1.1748,1.1748,1.1748,1.1748,1.1826,1.1826,1.1826,1.1865,1.1865,1.1865,1.1865,1.1865,1.1865,1.1865,1.1865,1.1914,1.1914,1.1953,1.1992,1.2002,1.2002,1.2041,1.2002,1.2041,1.2041,1.2041,1.2041,1.2041,1.2041,1.2041,1.208,1.208,1.2129,1.2129,1.2168,1.2168,1.2168,1.2168,1.2217,1.2217,1.2217,1.2256,1.2256,1.2256,1.2305,1.2305,1.2305,1.2354,1.2354,1.2393,1.2393,1.2393,1.2393,1.2441,1.2441,1.2441,1.2441,1.2441,1.249,1.249,1.249,1.2539,1.249,1.2539,1.2539,1.2578,1.2578,1.2578,1.2627,1.2627,1.2676,1.2676,1.2676,1.2676,1.2725,1.2773,1.2773,1.2773,1.2773,1.2773,1.2773,1.2773,1.2773,1.2822,1.2822,1.2822,1.2871,1.2871,1.292,1.292,1.292,1.2969,1.2969,1.2969,1.2969,1.2969,1.2969,1.2969,1.2969,1.3027,1.3027,1.3027,1.3027,1.3076,1.3125,1.3125,1.3174,1.3174,1.3174,1.3174,1.3232,1.3232,1.3232,1.3281,1.3281,1.3281,1.3281,1.3281,1.333,1.3389,1.3389,1.3389,1.3389,1.3389,1.3438,1.3438,1.3438,1.3438,1.3496,1.3496,1.3496,1.3496,1.3545,1.3545,1.3604,1.3604,1.3604,1.3662,1.3662,1.3662,1.3662,1.3662,1.3711,1.3711,1.3711,1.3711,1.3711,1.3711,1.3711,1.3721,1.377,1.377,1.3828,1.3828,1.3887,1.3887,1.3887,1.3887,1.3887,1.3887,1.3887,1.3887,1.3887,1.3887,1.3887,1.3887,1.3887,1.3828,1.4121,0,1.0645,1.0605,1.0605,1.0576,1.0576,1.0576,1.0576,1.0605,1.0576,1.0576,1.0547,1.0576,1.0547,1.0508,1.0508,1.0508,1.0508,1.0508,1.0508,1.0508,1.0508,1.0508,1.0508,1.0508,1.0508,1.0479,1.0479,1.0479,1.0479,1.0479,1.0479,1.0479,1.0479,1.0479,1.0479,1.0479,1.0479,1.0479,1.0479,1.0479,1.0508,1.0479,1.0479,1.0479,1.0479,1.0449,1.0449,1.0449,1.0449,1.0449,1.041,1.041,1.0449,1.041,1.041,1.041,1.041,1.041,1.0381,1.0381,1.0381,1.0381,1.0381,1.0381,1.0381,1.0381,1.0381,1.0381,1.0381,1.0381,1.0381,1.0381,1.0381,1.0381,1.0381,1.0381,1.0381,1.042,1.042,1.042,1.042,1.042,1.042,1.042,1.042,1.042,1.042,1.042,1.042,1.0381,1.0381,1.0381,1.0381,1.0381,1.0322,1.0322,1.0352,1.0352,1.0352,1.0352,1.0322,1.0322,1.0322,1.0352,1.0352,1.0352,1.0352,1.0352,1.0293,1.0352,1.0322,1.0293,1.0352,1.0322,1.0322,1.0322,1.0322,1.0322,1.0322,1.0322,1.0322,1.0293,1.0293,1.0293,1.0293,1.0293,1.0293,1.0293,1.0293,1.0293,1.0293,1.0293,1.0293,1.0264,1.0293,1.0264,1.0264,1.0264,1.0264,1.0264,1.0264,1.0264,1.0264,1.0264,1.0264,1.0293,1.0264,1.0264,1.0264,1.0264,1.0264,1.0234,1.0234,1.0234,1.0264,1.0264,1.0264,1.0234,1.0234,1.0234,0,0,0,0,0,0,0,0,0,0,0,0,0,0,0,0,0,0,0,0,0,0,0,0,0,0,0,0,0,0,0,0,0
1.0596,1.0596,1.0596,1.0596,1.0625,1.0625,1.0625,1.0625,1.0693,1.0693,1.0693,1.0732,1.0732,1.0732,1.0732,1.0732,1.0762,1.0762,1.0762,1.0762,1.0762,1.083,1.083,1.083,1.083,1.0869,1.0869,1.0869,1.0869,1.0908,1.0908,1.0938,1.0938,1.0977,1.0977,1.0977,1.1016,1.1016,1.1016,1.1016,1.1045,1.1045,1.1045,1.1084,1.1084,1.1084,1.1123,1.1123,1.1123,1.1123,1.1162,1.1162,1.1162,1.1162,1.1191,1.1191,1.1191,1.1191,1.1191,1.123,1.123,1.127,1.127,1.127,1.1309,1.1309,1.1309,1.1309,1.1309,1.1309,1.1387,1.1387,1.1426,1.1426,1.1426,1.1426,1.1465,1.1465,1.1504,1.1504,1.1504,1.1543,1.1543,1.1543,1.1543,1.1543,1.1543,1.1543,1.1543,1.1582,1.1582,1.1582,1.1621,1.166,1.166,1.1699,1.1699,1.1709,1.1709,1.1709,1.1748,1.1748,1.1787,1.1787,1.1826,1.1826,1.1865,1.1865,1.1865,1.1865,1.1865,1.1875,1.1875,1.1875,1.1875,1.1914,1.1914,1.1953,1.1953,1.2002,1.2002,1.2041,1.2002,1.2041,1.2041,1.2041,1.2041,1.2041,1.208,1.208,1.208,1.208,1.2129,1.2129,1.2168,1.2168,1.2168,1.2168,1.2217,1.2217,1.2217,1.2266,1.2266,1.2305,1.2305,1.2305,1.2305,1.2354,1.2354,1.2393,1.2393,1.2393,1.2393,1.2441,1.2393,1.2441,1.2441,1.2441,1.249,1.249,1.2539,1.2539,1.2539,1.2539,1.2588,1.2588,1.2588,1.2588,1.2627,1.2627,1.2627,1.2676,1.2676,1.2676,1.2725,1.2725,1.2773,1.2773,1.2773,1.2773,1.2773,1.2773,1.2773,1.2822,1.2822,1.2871,1.2871,1.292,1.292,1.292,1.2969,1.2969,1.2969,1.2969,1.2969,1.2969,1.2969,1.2969,1.2969,1.3027,1.3027,1.3027,1.3076,1.3076,1.3125,1.3174,1.3174,1.3174,1.3174,1.3174,1.3232,1.3232,1.3281,1.3281,1.3281,1.3281,1.333,1.333,1.3389,1.3389,1.3389,1.3389,1.3389,1.3438,1.3438,1.3438,1.3438,1.3438,1.3496,1.3496,1.3496,1.3496,1.3545,1.3545,1.3604,1.3604,1.3604,1.3662,1.3662,1.3662,1.3662,1.3721,1.3721,1.3721,1.3721,1.3721,1.3721,1.3721,1.3721,1.377,1.377,1.377,1.3828,1.3887,1.3887,1.3887,1.3887,1.3887,1.3887,1.3887,1.3887,1.3887,1.3887,1.3887,1.3887,1.3887,1.3887,1.4121,1.4121,0,1.0645,1.0605,1.0576,1.0576,1.0576,1.0576,1.0576,1.0576,1.0576,1.0547,1.0508,1.0576,1.0508,1.0508,1.0508,1.0508,1.0508,1.0508,1.0508,1.0508,1.0508,1.0508,1.0508,1.0508,1.0508,1.0479,1.0479,1.0479,1.0479,1.0479,1.0479,1.0479,1.0479,1.0479,1.0479,1.0479,1.0479,1.0479,1.0479,1.0479,1.0479,1.0479,1.0479,1.0479,1.0479,1.0449,1.0449,1.0449,1.0449,1.0449,1.041,1.041,1.0449,1.0449,1.041,1.041,1.041,1.041,1.0381,1.0381,1.0381,1.0381,1.041,1.0381,1.0381,1.0381,1.0381,1.0381,1.0381,1.0381,1.0381,1.0381,1.0381,1.0381,1.0381,1.0381,1.0381,1.042,1.042,1.042,1.0381,1.042,1.042,1.042,1.042,1.042,1.042,1.042,1.042,1.0381,1.0381,1.0352,1.0352,1.0352,1.0352,1.0352,1.0352,1.0322,1.0352,1.0352,1.0322,1.0322,1.0322,1.0352,1.0322,1.0293,1.0293,1.0293,1.0293,1.0322,1.0322,1.0293,1.0322,1.0322,1.0322,1.0322,1.0322,1.0322,1.0322,1.0322,1.0322,1.0322,1.0293,1.0293,1.0293,1.0293,1.0293,1.0293,1.0293,1.0293,1.0293,1.0293,1.0293,1.0293,1.0293,1.0264,1.0264,1.0264,1.0264,1.0264,1.0264,1.0264,1.0264,1.0264,1.0264,1.0293,1.0264,1.0264,1.0264,1.0264,1.0264,1.0234,1.0234,1.0264,1.0264,1.0264,1.0234,1.0234,1.0234,1.0234,0,0,0,0,0,0,0,0,0,0,0,0,0,0,0,0,0,0,0,0,0,0,0,0,0,0,0,0,0,0,0,0,0
1.0596,1.0596,1.0596,1.0596,1.0625,1.0625,1.0625,1.0664,1.0693,1.0732,1.0693,1.0732,1.0732,1.0732,1.0732,1.0762,1.0762,1.0762,1.0762,1.0762,1.0801,1.083,1.083,1.083,1.0869,1.0869,1.0869,1.0908,1.0908,1.0908,1.0908,1.0938,1.0977,1.0977,1.0977,1.0977,1.1016,1.1016,1.1016,1.1045,1.1045,1.1045,1.1084,1.1084,1.1084,1.1084,1.1123,1.1123,1.1123,1.1123,1.1162,1.1162,1.1162,1.1162,1.1201,1.1201,1.1201,1.1201,1.123,1.123,1.123,1.127,1.127,1.1309,1.1309,1.1309,1.1309,1.1309,1.1309,1.1348,1.1387,1.1426,1.1426,1.1426,1.1426,1.1465,1.1465,1.1465,1.1504,1.1504,1.1504,1.1543,1.1543,1.1543,1.1543,1.1543,1.1543,1.1543,1.1543,1.1582,1.1582,1.1582,1.1621,1.166,1.1709,1.1709,1.1709,1.1709,1.1709,1.1709,1.1748,1.1787,1.1787,1.1787,1.1826,1.1826,1.1875,1.1875,1.1875,1.1875,1.1875,1.1875,1.1875,1.1875,1.1875,1.1914,1.1914,1.1953,1.2002,1.2002,1.2002,1.2041,1.2041,1.2041,1.2041,1.2041,1.208,1.208,1.208,1.2129,1.209,1.2129,1.2129,1.2168,1.2168,1.2168,1.2168,1.2217,1.2217,1.2217,1.2217,1.2266,1.2305,1.2305,1.2305,1.2305,1.2354,1.2354,1.2354,1.2393,1.2393,1.2393,1.2402,1.2441,1.2441,1.2441,1.2441,1.2441,1.249,1.249,1.2539,1.2539,1.2539,1.2539,1.2588,1.2588,1.2588,1.2588,1.2627,1.2627,1.2676,1.2676,1.2676,1.2676,1.2725,1.2773,1.2773,1.2773,1.2773,1.2822,1.2822,1.2822,1.2822,1.2822,1.2822,1.2871,1.2871,1.292,1.292,1.292,1.2969,1.2969,1.2969,1.2969,1.2979,1.2979,1.3027,1.2979,1.3027,1.3027,1.3027,1.3027,1.3076,1.3076,1.3125,1.3125,1.3174,1.3174,1.3174,1.3174,1.3232,1.3232,1.3281,1.3281,1.3281,1.3281,1.333,1.3389,1.3389,1.3438,1.3438,1.3438,1.3438,1.3438,1.3438,1.3438,1.3438,1.3438,1.3496,1.3496,1.3496,1.3555,1.3555,1.3604,1.3604,1.3604,1.3604,1.3662,1.3662,1.3662,1.3662,1.3721,1.3721,1.3721,1.3721,1.3721,1.3721,1.3721,1.377,1.377,1.3828,1.3828,1.3887,1.3887,1.3887,1.3887,1.3887,1.3887,1.3887,1.3887,1.3887,1.3887,1.3887,1.3887,1.3887,1.3945,1.3945,1.4121,0,0,1.0645,1.0605,1.0576,1.0576,1.0576,1.0576,1.0576,1.0605,1.0576,1.0508,1.0508,1.0508,1.0508,1.0508,1.0508,1.0508,1.0508,1.0508,1.0508,1.0508,1.0508,1.0508,1.0508,1.0508,1.0508,1.0479,1.0479,1.0479,1.0479,1.0479,1.0479,1.0479,1.0479,1.0479,1.0479,1.0479,1.0479,1.0479,1.0479,1.0479,1.0479,1.0479,1.0479,1.0479,1.0479,1.0449,1.0449,1.0449,1.0449,1.0449,1.0449,1.0449,1.0449,1.0449,1.0449,1.0449,1.0449,1.042,1.0381,1.0381,1.0381,1.0381,1.0381,1.0381,1.0381,1.0381,1.0381,1.0381,1.0381,1.0381,1.0381,1.0381,1.0381,1.0381,1.0381,1.0381,1.0381,1.042,1.042,1.0381,1.042,1.042,1.042,1.042,1.042,1.042,1.042,1.042,1.0381,1.0381,1.0381,1.0381,1.0381,1.0381,1.0352,1.0352,1.0352,1.0352,1.0352,1.0352,1.0322,1.0322,1.0322,1.0352,1.0322,1.0293,1.0293,1.0293,1.0293,1.0322,1.0322,1.0322,1.0322,1.0322,1.0322,1.0322,1.0322,1.0322,1.0322,1.0322,1.0293,1.0293,1.0293,1.0293,1.0293,1.0293,1.0293,1.0293,1.0293,1.0293,1.0293,1.0293,1.0293,1.0264,1.0293,1.0264,1.0264,1.0264,1.0264,1.0264,1.0264,1.0264,1.0264,1.0264,1.0264,1.0293,1.0293,1.0264,1.0264,1.0264,1.0234,1.0234,1.0234,1.0234,1.0234,1.0234,1.0234,1.0234,1.0234,1.0234,0,0,0,0,0,0,0,0,0,0,0,0,0,0,0,0,0,0,0,0,0,0,0,0,0,0,0,0,0,0,0,0,0
1.0596,1.0596,1.0596,1.0625,1.0625,1.0625,1.0625,1.0664,1.0693,1.0693,1.0693,1.0732,1.0732,1.0762,1.0762,1.0762,1.0762,1.0762,1.0762,1.0762,1.083,1.083,1.083,1.083,1.0869,1.0869,1.0869,1.0908,1.0908,1.0908,1.0938,1.0977,1.0977,1.0977,1.0977,1.0977,1.1016,1.1016,1.1016,1.1045,1.1045,1.1045,1.1084,1.1084,1.1084,1.1123,1.1123,1.1123,1.1123,1.1162,1.1162,1.1162,1.1162,1.1201,1.1201,1.1201,1.123,1.123,1.123,1.123,1.127,1.1309,1.1309,1.1309,1.1348,1.1348,1.1348,1.1348,1.1348,1.1348,1.1387,1.1387,1.1426,1.1426,1.1426,1.1465,1.1465,1.1504,1.1504,1.1504,1.1504,1.1504,1.1543,1.1543,1.1543,1.1582,1.1582,1.1543,1.1582,1.1582,1.1621,1.1621,1.1621,1.166,1.166,1.1709,1.1709,1.1709,1.1709,1.1748,1.1748,1.1787,1.1787,1.1787,1.1826,1.1826,1.1826,1.1875,1.1875,1.1875,1.1875,1.1875,1.1875,1.1875,1.1914,1.1914,1.1914,1.1953,1.2002,1.2002,1.2002,1.2041,1.2041,1.2041,1.2041,1.2041,1.209,1.209,1.209,1.2129,1.2129,1.2129,1.2178,1.2178,1.2178,1.2178,1.2217,1.2217,1.2266,1.2217,1.2217,1.2266,1.2266,1.2305,1.2305,1.2305,1.2354,1.2402,1.2402,1.2402,1.2402,1.2402,1.2402,1.2441,1.2441,1.2441,1.2441,1.249,1.2539,1.2539,1.2588,1.2588,1.2588,1.2588,1.2588,1.2588,1.2588,1.2627,1.2627,1.2627,1.2676,1.2676,1.2676,1.2676,1.2725,1.2725,1.2773,1.2773,1.2773,1.2822,1.2822,1.2822,1.2822,1.2822,1.2822,1.2871,1.2871,1.292,1.292,1.292,1.2979,1.2979,1.2979,1.2979,1.2979,1.2979,1.3027,1.2979,1.3027,1.3027,1.3027,1.3027,1.3076,1.3076,1.3125,1.3125,1.3174,1.3174,1.3174,1.3174,1.3232,1.3232,1.3281,1.3281,1.3281,1.334,1.334,1.334,1.3389,1.3438,1.3438,1.3438,1.3438,1.3438,1.3447,1.3496,1.3496,1.3496,1.3496,1.3555,1.3555,1.3555,1.3604,1.3604,1.3604,1.3604,1.3662,1.3662,1.3662,1.3662,1.3662,1.3721,1.3721,1.3721,1.3721,1.3721,1.3721,1.3721,1.3721,1.377,1.3828,1.3828,1.3887,1.3887,1.3945,1.3945,1.3945,1.3945,1.3945,1.3945,1.3887,1.3887,1.3887,1.3887,1.3887,1.3887,1.3945,0,0,1.0645,1.0645,1.0605,1.0576,1.0576,1.0576,1.0576,1.0576,1.0576,1.0547,1.0508,1.0479,1.0508,1.0508,1.0508,1.0508,1.0508,1.0508,1.0508,1.0508,1.0508,1.0508,1.0508,1.0508,1.0508,1.0508,1.0479,1.0479,1.0479,1.0479,1.0479,1.0479,1.0479,1.0479,1.0479,1.0479,1.0479,1.0479,1.0479,1.0479,1.0479,1.0479,1.0479,1.0479,1.0479,1.0449,1.0479,1.0449,1.0449,1.0449,1.0449,1.0449,1.0449,1.0479,1.0449,1.0479,1.0479,1.0449,1.042,1.042,1.042,1.0381,1.0381,1.0381,1.0381,1.0381,1.0381,1.0381,1.0381,1.0381,1.0381,1.0381,1.0381,1.0381,1.0381,1.0381,1.0381,1.0381,1.042,1.042,1.042,1.042,1.042,1.042,1.042,1.042,1.0381,1.042,1.0381,1.0381,1.0381,1.0381,1.0352,1.0352,1.0352,1.0352,1.0352,1.0352,1.0352,1.0352,1.0322,1.0322,1.0322,1.0322,1.0322,1.0293,1.0352,1.0322,1.0352,1.0322,1.0322,1.0322,1.0352,1.0322,1.0322,1.0322,1.0322,1.0322,1.0322,1.0322,1.0322,1.0293,1.0293,1.0293,1.0293,1.0293,1.0293,1.0293,1.0293,1.0293,1.0293,1.0293,1.0293,1.0293,1.0264,1.0264,1.0264,1.0264,1.0264,1.0264,1.0264,1.0264,1.0264,1.0264,1.0264,1.0264,1.0293,1.0293,1.0264,1.0264,1.0234,1.0234,1.0234,1.0234,1.0234,1.0234,1.0234,1.0234,1.0234,1.0234,1.0234,0,0,0,0,0,0,0,0,0,0,0,0,0,0,0,0,0,0,0,0,0,0,0,0,0,0,0,0,0,0,0,0,0
1.0625,1.0625,1.0625,1.0625,1.0625,1.0625,1.0625,1.0664,1.0693,1.0732,1.0732,1.0732,1.0732,1.0762,1.0762,1.0762,1.0762,1.0762,1.0762,1.0762,1.083,1.083,1.083,1.0869,1.0869,1.0869,1.0908,1.0908,1.0908,1.0938,1.0938,1.0977,1.0977,1.0977,1.1016,1.1016,1.1016,1.1016,1.1045,1.1045,1.1045,1.1084,1.1084,1.1084,1.1084,1.1123,1.1123,1.1123,1.1162,1.1162,1.1162,1.1162,1.1201,1.1201,1.1201,1.123,1.123,1.123,1.127,1.127,1.1309,1.1309,1.1309,1.1348,1.1348,1.1348,1.1348,1.1348,1.1387,1.1387,1.1426,1.1426,1.1426,1.1426,1.1426,1.1465,1.1504,1.1504,1.1504,1.1504,1.1504,1.1543,1.1543,1.1543,1.1543,1.1543,1.1543,1.1582,1.1582,1.1582,1.1582,1.1621,1.1621,1.166,1.166,1.1709,1.1709,1.1709,1.1709,1.1709,1.1748,1.1787,1.1787,1.1787,1.1826,1.1826,1.1826,1.1875,1.1875,1.1875,1.1875,1.1914,1.1914,1.1914,1.1914,1.1914,1.1953,1.2002,1.2002,1.2002,1.2041,1.2041,1.2041,1.2041,1.2041,1.2041,1.209,1.209,1.209,1.2129,1.2129,1.2129,1.2178,1.2178,1.2178,1.2178,1.2217,1.2217,1.2217,1.2217,1.2217,1.2266,1.2266,1.2305,1.2305,1.2354,1.2402,1.2402,1.2402,1.2402,1.2441,1.2441,1.2441,1.2441,1.2441,1.2441,1.2441,1.249,1.2539,1.2539,1.2588,1.2588,1.2588,1.2588,1.2588,1.2637,1.2637,1.2637,1.2637,1.2676,1.2676,1.2676,1.2676,1.2725,1.2725,1.2773,1.2773,1.2773,1.2773,1.2822,1.2822,1.2822,1.2822,1.2822,1.2871,1.2871,1.292,1.292,1.292,1.292,1.2979,1.2979,1.2979,1.3027,1.2979,1.3027,1.3027,1.3027,1.3027,1.3027,1.3027,1.3076,1.3076,1.3076,1.3125,1.3174,1.3174,1.3184,1.3184,1.3184,1.3232,1.3281,1.3281,1.3281,1.3281,1.334,1.334,1.3389,1.3389,1.3447,1.3447,1.3447,1.3447,1.3447,1.3447,1.3447,1.3496,1.3496,1.3555,1.3555,1.3555,1.3604,1.3604,1.3604,1.3604,1.3604,1.3604,1.3662,1.3662,1.3662,1.3721,1.3721,1.377,1.377,1.377,1.377,1.377,1.377,1.377,1.377,1.3828,1.3828,1.3887,1.3887,1.3945,1.3945,1.3945,1.3945,1.3945,1.3945,1.3945,1.3887,1.3887,1.3887,1.3887,1.3887,1.3887,0,1.0645,1.0645,1.0605,1.0605,1.0576,1.0576,1.0576,1.0576,1.0547,1.0576,1.0547,1.0508,1.0479,1.0479,1.0508,1.0508,1.0508,1.0508,1.0508,1.0508,1.0508,1.0508,1.0508,1.0508,1.0508,1.0508,1.0508,1.0479,1.0479,1.0479,1.0479,1.0479,1.0479,1.0449,1.0449,1.0449,1.0479,1.0479,1.0479,1.0479,1.0479,1.0479,1.0479,1.0479,1.0479,1.0479,1.0479,1.0479,1.0479,1.0449,1.0449,1.0449,1.0449,1.0449,1.0449,1.0449,1.0479,1.0479,1.0449,1.042,1.042,1.042,1.0381,1.0381,1.0381,1.0381,1.0381,1.0381,1.0381,1.0381,1.0381,1.0381,1.0381,1.0381,1.0381,1.0381,1.0381,1.0381,1.0381,1.042,1.042,1.042,1.0381,1.0381,1.0381,1.0381,1.042,1.042,1.042,1.042,1.042,1.0381,1.0381,1.0391,1.0352,1.0391,1.0352,1.0352,1.0352,1.0352,1.0352,1.0352,1.0352,1.0352,1.0322,1.0322,1.0293,1.0352,1.0322,1.0322,1.0322,1.0352,1.0352,1.0352,1.0352,1.0352,1.0322,1.0322,1.0322,1.0322,1.0322,1.0322,1.0293,1.0293,1.0293,1.0293,1.0293,1.0293,1.0293,1.0293,1.0293,1.0293,1.0293,1.0264,1.0264,1.0264,1.0264,1.0264,1.0264,1.0264,1.0264,1.0264,1.0264,1.0264,1.0264,1.0264,1.0264,1.0293,1.0264,1.0264,1.0264,1.0264,1.0264,1.0264,1.0234,1.0234,1.0234,1.0234,1.0234,1.0234,1.0205,1.0205,0,0,0,0,0,0,0,0,0,0,0,0,0,0,0,0,0,0,0,0,0,0,0,0,0,0,0,0,0,0,0,0,0
1.0625,1.0625,1.0625,1.0625,1.0625,1.0664,1.0664,1.0693,1.0732,1.0732,1.0732,1.0732,1.0732,1.0762,1.0762,1.0762,1.0762,1.0762,1.0762,1.0801,1.084,1.084,1.0869,1.0869,1.0869,1.0869,1.0908,1.0908,1.0938,1.0938,1.0938,1.0977,1.0977,1.1016,1.1016,1.1016,1.1045,1.1045,1.1045,1.1045,1.1084,1.1084,1.1123,1.1084,1.1123,1.1123,1.1162,1.1123,1.1162,1.1162,1.1162,1.1201,1.1201,1.1201,1.1201,1.123,1.123,1.123,1.127,1.127,1.1309,1.1309,1.1309,1.1348,1.1348,1.1387,1.1387,1.1387,1.1387,1.1387,1.1426,1.1426,1.1465,1.1426,1.1465,1.1465,1.1504,1.1504,1.1504,1.1504,1.1543,1.1543,1.1543,1.1543,1.1543,1.1582,1.1582,1.1582,1.1582,1.1621,1.1621,1.1621,1.167,1.167,1.167,1.1709,1.1709,1.1709,1.1709,1.1748,1.1748,1.1787,1.1787,1.1787,1.1826,1.1826,1.1826,1.1875,1.1875,1.1875,1.1914,1.1914,1.1914,1.1914,1.1914,1.1953,1.1953,1.2002,1.2002,1.2002,1.2041,1.2041,1.2041,1.2041,1.2041,1.2041,1.209,1.2129,1.2129,1.2129,1.2129,1.2129,1.2178,1.2178,1.2178,1.2178,1.2217,1.2217,1.2217,1.2217,1.2217,1.2266,1.2305,1.2305,1.2305,1.2354,1.2402,1.2402,1.2402,1.2402,1.2441,1.2441,1.2441,1.2441,1.2441,1.249,1.249,1.249,1.2539,1.2588,1.2588,1.2588,1.2588,1.2588,1.2637,1.2637,1.2637,1.2637,1.2637,1.2676,1.2676,1.2676,1.2725,1.2725,1.2725,1.2773,1.2773,1.2773,1.2773,1.2822,1.2822,1.2822,1.2822,1.2822,1.2871,1.293,1.293,1.293,1.2979,1.2979,1.2979,1.2979,1.2979,1.3027,1.3027,1.3027,1.3027,1.3027,1.3027,1.3076,1.3076,1.3076,1.3125,1.3125,1.3125,1.3184,1.3184,1.3184,1.3184,1.3184,1.3232,1.3281,1.3281,1.3281,1.3281,1.334,1.3389,1.3389,1.3389,1.3447,1.3447,1.3447,1.3447,1.3447,1.3447,1.3447,1.3496,1.3496,1.3555,1.3604,1.3604,1.3604,1.3604,1.3604,1.3604,1.3604,1.3604,1.3662,1.3662,1.3662,1.3721,1.3721,1.377,1.3721,1.377,1.3779,1.3779,1.3779,1.3779,1.3779,1.3828,1.3828,1.3887,1.3887,1.3945,1.3945,1.3945,1.3945,1.3945,1.3945,1.3945,1.3945,1.3887,1.3887,1.3887,0,0,0,1.0605,1.0615,1.0615,1.0576,1.0576,1.0576,1.0576,1.0576,1.0547,1.0547,1.0547,1.0508,1.0479,1.0479,1.0508,1.0508,1.0479,1.0508,1.0508,1.0508,1.0508,1.0508,1.0508,1.0508,1.0508,1.0508,1.0508,1.0479,1.0479,1.0479,1.0479,1.0479,1.0479,1.0449,1.0449,1.0479,1.0479,1.0479,1.0479,1.0479,1.0479,1.0479,1.0479,1.0479,1.0479,1.0479,1.0479,1.0449,1.0479,1.0449,1.0449,1.0449,1.042,1.0449,1.0449,1.0449,1.0449,1.0449,1.0449,1.042,1.042,1.0381,1.0381,1.0381,1.0381,1.0381,1.0381,1.0381,1.0381,1.0381,1.0381,1.0381,1.0381,1.0381,1.0352,1.0381,1.0381,1.0381,1.0381,1.042,1.042,1.042,1.042,1.042,1.0381,1.042,1.042,1.0391,1.0391,1.0391,1.0391,1.0391,1.0391,1.0352,1.0352,1.0352,1.0352,1.0352,1.0352,1.0352,1.0352,1.0352,1.0322,1.0352,1.0352,1.0322,1.0322,1.0352,1.0322,1.0322,1.0322,1.0322,1.0322,1.0352,1.0322,1.0322,1.0322,1.0322,1.0322,1.0322,1.0322,1.0322,1.0293,1.0293,1.0293,1.0293,1.0293,1.0293,1.0293,1.0293,1.0293,1.0293,1.0293,1.0293,1.0264,1.0264,1.0264,1.0264,1.0264,1.0264,1.0264,1.0264,1.0264,1.0264,1.0264,1.0264,1.0264,1.0293,1.0264,1.0264,1.0264,1.0264,1.0264,1.0264,1.0234,1.0234,1.0234,1.0234,1.0234,1.0234,1.0205,1.0205,0,0,0,0,0,0,0,0,0,0,0,0,0,0,0,0,0,0,0,0,0,0,0,0,0,0,0,0,0,0,0,0,0
1.0625,1.0625,1.0625,1.0625,1.0664,1.0664,1.0664,1.0693,1.0732,1.0732,1.0732,1.0732,1.0762,1.0762,1.0762,1.0762,1.0762,1.0801,1.084,1.084,1.084,1.084,1.0869,1.0869,1.0869,1.0869,1.0908,1.0908,1.0938,1.0938,1.0938,1.0977,1.0977,1.1016,1.1016,1.1016,1.1055,1.1055,1.1055,1.1055,1.1084,1.1084,1.1123,1.1123,1.1123,1.1123,1.1162,1.1123,1.1162,1.1162,1.1201,1.1201,1.1201,1.1201,1.1201,1.124,1.124,1.127,1.127,1.1309,1.1309,1.1309,1.1309,1.1309,1.1348,1.1387,1.1348,1.1348,1.1387,1.1387,1.1465,1.1426,1.1465,1.1465,1.1465,1.1504,1.1504,1.1504,1.1504,1.1504,1.1543,1.1543,1.1543,1.1582,1.1582,1.1582,1.1582,1.1621,1.1621,1.1621,1.1621,1.167,1.167,1.167,1.1709,1.1709,1.1709,1.1709,1.1709,1.1748,1.1787,1.1787,1.1826,1.1826,1.1826,1.1826,1.1826,1.1826,1.1875,1.1875,1.1875,1.1914,1.1914,1.1914,1.1914,1.1953,1.1953,1.2002,1.2002,1.2002,1.2041,1.2041,1.2041,1.2041,1.2041,1.2041,1.209,1.2129,1.2129,1.2129,1.2129,1.2178,1.2178,1.2178,1.2217,1.2217,1.2217,1.2217,1.2217,1.2217,1.2217,1.2266,1.2305,1.2305,1.2354,1.2354,1.2402,1.2402,1.2402,1.2441,1.2441,1.2441,1.2441,1.2441,1.249,1.249,1.249,1.2539,1.2539,1.2588,1.2588,1.2588,1.2588,1.2588,1.2637,1.2637,1.2637,1.2637,1.2637,1.2686,1.2686,1.2686,1.2725,1.2725,1.2773,1.2773,1.2773,1.2822,1.2822,1.2822,1.2822,1.2822,1.2822,1.2871,1.2871,1.293,1.293,1.293,1.2979,1.2979,1.2979,1.2979,1.2979,1.3027,1.3027,1.3027,1.3027,1.3027,1.3027,1.3076,1.3076,1.3076,1.3125,1.3125,1.3184,1.3184,1.3184,1.3184,1.3184,1.3232,1.3281,1.3281,1.3281,1.3281,1.334,1.334,1.3389,1.3389,1.3389,1.3447,1.3447,1.3447,1.3447,1.3447,1.3447,1.3447,1.3496,1.3496,1.3555,1.3604,1.3604,1.3604,1.3604,1.3604,1.3604,1.3604,1.3604,1.3662,1.3662,1.3662,1.3721,1.3721,1.3779,1.3779,1.3779,1.3779,1.3779,1.3779,1.3779,1.3828,1.3828,1.3887,1.3887,1.3887,1.3945,1.3945,1.3945,1.3945,1.3945,1.3945,1.3945,1.3945,1.3887,1.3887,1.3887,0,0,0,0,1.0615,1.0615,1.0576,1.0576,1.0576,1.0576,1.0547,1.0547,1.0547,1.0508,1.0508,1.0479,1.0479,1.0508,1.0508,1.0479,1.0479,1.0479,1.0508,1.0508,1.0508,1.0479,1.0508,1.0508,1.0508,1.0508,1.0479,1.0479,1.0479,1.0479,1.0479,1.0479,1.0449,1.0449,1.0479,1.0479,1.0479,1.0479,1.0479,1.0479,1.0479,1.0479,1.0479,1.0479,1.0479,1.0449,1.0449,1.0449,1.0449,1.042,1.0449,1.042,1.042,1.0449,1.042,1.0449,1.0449,1.0449,1.042,1.042,1.042,1.0381,1.0381,1.0381,1.0381,1.042,1.0381,1.0381,1.0381,1.0381,1.0391,1.0391,1.0391,1.0391,1.0391,1.0391,1.0391,1.0391,1.042,1.042,1.042,1.042,1.042,1.042,1.042,1.042,1.042,1.0391,1.0391,1.0391,1.0391,1.0391,1.0391,1.0391,1.0352,1.0352,1.0352,1.0352,1.0391,1.0352,1.0352,1.0352,1.0352,1.0352,1.0322,1.0322,1.0322,1.0322,1.0322,1.0322,1.0322,1.0322,1.0352,1.0322,1.0322,1.0322,1.0322,1.0322,1.0322,1.0293,1.0322,1.0293,1.0293,1.0293,1.0293,1.0293,1.0293,1.0293,1.0293,1.0293,1.0293,1.0264,1.0264,1.0264,1.0264,1.0264,1.0264,1.0264,1.0264,1.0264,1.0264,1.0264,1.0264,1.0264,1.0264,1.0264,1.0293,1.0264,1.0264,1.0264,1.0264,1.0264,1.0264,1.0234,1.0234,1.0234,1.0234,1.0234,1.0234,1.0234,1.0234,0,0,0,0,0,0,0,0,0,0,0,0,0,0,0,0,0,0,0,0,0,0,0,0,0,0,0,0,0,0,0,0,0
1.0635,1.0635,1.0635,1.0635,1.0664,1.0664,1.0693,1.0693,1.0732,1.0732,1.0732,1.0732,1.0732,1.0762,1.0762,1.0762,1.0801,1.0801,1.084,1.084,1.084,1.084,1.0869,1.0869,1.0869,1.0869,1.0908,1.0908,1.0938,1.0938,1.0938,1.0977,1.0977,1.0977,1.1016,1.1016,1.1055,1.1055,1.1055,1.1055,1.1055,1.1084,1.1123,1.1123,1.1123,1.1162,1.1162,1.1162,1.1162,1.1162,1.1201,1.1201,1.1201,1.1201,1.124,1.124,1.127,1.127,1.1309,1.1309,1.1309,1.1309,1.1309,1.1348,1.1348,1.1387,1.1387,1.1387,1.1387,1.1387,1.1465,1.1465,1.1465,1.1465,1.1504,1.1504,1.1504,1.1504,1.1504,1.1543,1.1543,1.1543,1.1582,1.1582,1.1582,1.1621,1.1621,1.167,1.1631,1.167,1.167,1.167,1.167,1.167,1.1709,1.1709,1.1709,1.1709,1.1748,1.1748,1.1787,1.1787,1.1826,1.1826,1.1826,1.1826,1.1875,1.1836,1.1875,1.1875,1.1875,1.1914,1.1914,1.1914,1.1914,1.1953,1.1953,1.2002,1.2002,1.2002,1.2041,1.2041,1.2041,1.2041,1.2041,1.209,1.2129,1.2129,1.2129,1.2129,1.2178,1.2178,1.2217,1.2217,1.2217,1.2217,1.2217,1.2217,1.2217,1.2266,1.2217,1.2305,1.2305,1.2305,1.2354,1.2402,1.2402,1.2441,1.2441,1.2441,1.2441,1.2441,1.2451,1.249,1.249,1.249,1.249,1.249,1.2539,1.2539,1.2588,1.2588,1.2588,1.2637,1.2637,1.2637,1.2637,1.2686,1.2686,1.2686,1.2686,1.2686,1.2725,1.2734,1.2773,1.2773,1.2773,1.2822,1.2822,1.2822,1.2822,1.2822,1.2822,1.2881,1.2881,1.293,1.293,1.293,1.2979,1.2979,1.2979,1.2979,1.2979,1.3027,1.3027,1.3027,1.3027,1.3027,1.3027,1.3076,1.3076,1.3076,1.3125,1.3125,1.3184,1.3184,1.3184,1.3184,1.3184,1.3232,1.3281,1.3281,1.3281,1.334,1.334,1.3389,1.3389,1.3389,1.3447,1.3447,1.3447,1.3447,1.3447,1.3496,1.3496,1.3496,1.3496,1.3496,1.3555,1.3604,1.3604,1.3604,1.3604,1.3604,1.3604,1.3613,1.3613,1.3662,1.3662,1.3662,1.3721,1.3779,1.3779,1.3779,1.3779,1.3779,1.3779,1.3779,1.3828,1.3838,1.3887,1.3887,1.3887,1.3945,1.3945,1.3945,1.3945,1.3945,1.3945,1.3945,1.3945,1.3945,1.3887,1.3887,0,0,0,0,0,1.0615,1.0615,1.0576,1.0576,1.0576,1.0576,1.0547,1.0547,1.0547,1.0508,1.0508,1.0508,1.0479,1.0518,1.0518,1.0479,1.0479,1.0479,1.0508,1.0518,1.0518,1.0479,1.0518,1.0518,1.0518,1.0479,1.0479,1.0479,1.0479,1.0479,1.0479,1.0479,1.0479,1.0449,1.0479,1.0479,1.0518,1.0479,1.0479,1.0479,1.0479,1.0479,1.0479,1.0479,1.0479,1.0479,1.0479,1.0479,1.0449,1.042,1.0449,1.042,1.042,1.0449,1.0449,1.0449,1.0479,1.0449,1.042,1.0449,1.042,1.042,1.042,1.042,1.042,1.042,1.042,1.0391,1.0391,1.0391,1.0391,1.0391,1.0391,1.0352,1.0352,1.0391,1.0391,1.0391,1.042,1.042,1.042,1.042,1.042,1.042,1.0391,1.0391,1.0391,1.0391,1.0391,1.0391,1.0391,1.0391,1.0391,1.0352,1.0352,1.0352,1.0352,1.0352,1.0352,1.0352,1.0352,1.0352,1.0352,1.0352,1.0322,1.0322,1.0322,1.0322,1.0352,1.0352,1.0322,1.0322,1.0352,1.0352,1.0322,1.0322,1.0322,1.0322,1.0322,1.0293,1.0293,1.0293,1.0293,1.0322,1.0293,1.0293,1.0293,1.0293,1.0293,1.0293,1.0293,1.0293,1.0293,1.0264,1.0264,1.0264,1.0264,1.0264,1.0264,1.0264,1.0264,1.0264,1.0264,1.0264,1.0264,1.0264,1.0293,1.0293,1.0264,1.0264,1.0264,1.0264,1.0264,1.0264,1.0264,1.0234,1.0234,1.0234,1.0234,1.0205,1.0234,0,0,0,0,0,0,0,0,0,0,0,0,0,0,0,0,0,0,0,0,0,0,0,0,0,0,0,0,0,0,0,0,0
1.0635,1.0635,1.0635,1.0664,1.0664,1.0703,1.0703,1.0732,1.0732,1.0732,1.0732,1.0732,1.0732,1.0771,1.0771,1.0801,1.0801,1.0801,1.0801,1.084,1.084,1.0869,1.0869,1.0869,1.0869,1.0908,1.0908,1.0908,1.0947,1.0947,1.0947,1.0977,1.0977,1.1016,1.1016,1.1016,1.1055,1.1055,1.1055,1.1055,1.1084,1.1084,1.1123,1.1123,1.1162,1.1162,1.1162,1.1162,1.1162,1.1201,1.1201,1.1201,1.1201,1.1201,1.124,1.124,1.127,1.127,1.1309,1.1309,1.1309,1.1309,1.1348,1.1348,1.1387,1.1387,1.1387,1.1426,1.1426,1.1426,1.1465,1.1465,1.1465,1.1465,1.1504,1.1504,1.1504,1.1504,1.1504,1.1543,1.1543,1.1543,1.1582,1.1582,1.1582,1.1631,1.167,1.167,1.167,1.167,1.167,1.1709,1.1709,1.1709,1.1709,1.1709,1.1709,1.1748,1.1748,1.1748,1.1787,1.1787,1.1836,1.1836,1.1836,1.1836,1.1836,1.1836,1.1875,1.1875,1.1914,1.1914,1.1914,1.1914,1.1963,1.1963,1.2002,1.2002,1.2002,1.2041,1.2041,1.2041,1.2041,1.209,1.2041,1.209,1.2129,1.2129,1.2178,1.2178,1.2178,1.2178,1.2217,1.2217,1.2217,1.2217,1.2217,1.2266,1.2266,1.2266,1.2266,1.2305,1.2314,1.2314,1.2402,1.2402,1.2402,1.2451,1.2451,1.2451,1.249,1.2451,1.249,1.249,1.2539,1.2539,1.2539,1.2539,1.2539,1.2588,1.2588,1.2588,1.2637,1.2637,1.2686,1.2686,1.2686,1.2686,1.2686,1.2734,1.2734,1.2734,1.2783,1.2783,1.2783,1.2832,1.2832,1.2832,1.2832,1.2832,1.2832,1.2832,1.2881,1.2881,1.2881,1.293,1.293,1.2979,1.2979,1.2979,1.2979,1.3027,1.3027,1.3027,1.3027,1.3027,1.3076,1.3027,1.3076,1.3076,1.3125,1.3076,1.3125,1.3125,1.3184,1.3184,1.3232,1.3232,1.3232,1.3232,1.3281,1.3281,1.3281,1.334,1.334,1.3389,1.3389,1.3389,1.3447,1.3447,1.3447,1.3447,1.3447,1.3496,1.3496,1.3496,1.3496,1.3555,1.3613,1.3613,1.3613,1.3613,1.3613,1.3613,1.3613,1.3613,1.3613,1.3662,1.3662,1.3662,1.3721,1.3779,1.3779,1.3779,1.3779,1.3779,1.3779,1.3838,1.3838,1.3838,1.3887,1.3887,1.3945,1.3945,1.3945,1.3945,1.3945,1.3945,1.3945,1.3945,1.3945,1.3945,1.3887,1.3887,0,0,0,0,0,1.0615,1.0615,1.0576,1.0576,1.0576,1.0576,1.0547,1.0547,1.0547,1.0518,1.0518,1.0518,1.0479,1.0518,1.0518,1.0479,1.0479,1.0479,1.0479,1.0518,1.0479,1.0479,1.0479,1.0479,1.0479,1.0479,1.0479,1.0479,1.0479,1.0479,1.0479,1.0479,1.0479,1.0449,1.0479,1.0479,1.0479,1.0479,1.0479,1.0479,1.0518,1.0479,1.0479,1.0479,1.0479,1.0479,1.0479,1.0479,1.0449,1.042,1.0449,1.042,1.042,1.0449,1.0449,1.0479,1.0449,1.0449,1.042,1.0449,1.042,1.042,1.042,1.042,1.042,1.042,1.042,1.0391,1.0391,1.0391,1.0391,1.0391,1.0391,1.0352,1.0352,1.0352,1.0391,1.0391,1.042,1.042,1.042,1.042,1.042,1.042,1.042,1.042,1.0391,1.0391,1.0391,1.0391,1.0391,1.0391,1.0391,1.0391,1.0352,1.0352,1.0352,1.0352,1.0352,1.0352,1.0322,1.0322,1.0352,1.0352,1.0352,1.0322,1.0322,1.0322,1.0361,1.0322,1.0322,1.0322,1.0322,1.0322,1.0322,1.0322,1.0322,1.0322,1.0322,1.0293,1.0293,1.0293,1.0293,1.0322,1.0293,1.0293,1.0293,1.0293,1.0293,1.0293,1.0293,1.0264,1.0264,1.0264,1.0234,1.0234,1.0234,1.0234,1.0234,1.0234,1.0234,1.0264,1.0264,1.0264,1.0264,1.0264,1.0293,1.0293,1.0264,1.0264,1.0264,1.0264,1.0264,1.0264,1.0234,1.0234,1.0234,1.0234,1.0234,1.0205,1.0205,0,0,0,0,0,0,0,0,0,0,0,0,0,0,0,0,0,0,0,0,0,0,0,0,0,0,0,0,0,0,0,0,0
1.0635,1.0635,1.0635,1.0664,1.0664,1.0703,1.0703,1.0732,1.0732,1.0732,1.0732,1.0732,1.0732,1.0771,1.0771,1.0801,1.0771,1.0801,1.084,1.084,1.0869,1.0869,1.0869,1.0869,1.0908,1.0908,1.0908,1.0947,1.0947,1.0947,1.0977,1.0977,1.1016,1.1016,1.1016,1.1055,1.1055,1.1055,1.1055,1.1055,1.1084,1.1084,1.1123,1.1123,1.1123,1.1162,1.1162,1.1162,1.1201,1.1201,1.1201,1.1201,1.1201,1.124,1.124,1.1279,1.1279,1.1309,1.1309,1.1309,1.1348,1.1348,1.1348,1.1387,1.1387,1.1387,1.1387,1.1426,1.1426,1.1426,1.1504,1.1504,1.1465,1.1465,1.1504,1.1504,1.1504,1.1504,1.1543,1.1543,1.1543,1.1543,1.1582,1.1582,1.1631,1.167,1.167,1.167,1.167,1.167,1.167,1.1709,1.1709,1.1709,1.1709,1.1709,1.1748,1.1748,1.1748,1.1748,1.1787,1.1836,1.1836,1.1836,1.1836,1.1836,1.1836,1.1836,1.1875,1.1875,1.1914,1.1914,1.1914,1.1963,1.1963,1.2002,1.2002,1.2002,1.2041,1.2041,1.2041,1.2041,1.2041,1.209,1.209,1.209,1.2129,1.2129,1.2178,1.2178,1.2178,1.2217,1.2217,1.2217,1.2217,1.2217,1.2266,1.2266,1.2266,1.2266,1.2266,1.2314,1.2354,1.2354,1.2402,1.2402,1.2402,1.2451,1.2451,1.2451,1.249,1.249,1.249,1.249,1.2539,1.2539,1.2539,1.2539,1.2539,1.2588,1.2588,1.2637,1.2637,1.2686,1.2686,1.2686,1.2686,1.2686,1.2734,1.2734,1.2734,1.2734,1.2783,1.2783,1.2783,1.2832,1.2832,1.2832,1.2832,1.2832,1.2832,1.2832,1.2881,1.2881,1.293,1.2979,1.2979,1.2979,1.2979,1.2979,1.2979,1.2979,1.2979,1.3027,1.3027,1.3027,1.3027,1.3027,1.3076,1.3076,1.3125,1.3125,1.3125,1.3184,1.3184,1.3184,1.3232,1.3232,1.3232,1.3232,1.3281,1.3281,1.334,1.334,1.334,1.3389,1.3389,1.3389,1.3447,1.3447,1.3447,1.3447,1.3496,1.3496,1.3496,1.3496,1.3555,1.3555,1.3613,1.3613,1.3613,1.3613,1.3613,1.3613,1.3613,1.3662,1.3662,1.3662,1.3721,1.3721,1.3721,1.3779,1.3779,1.3779,1.3779,1.3779,1.3779,1.3838,1.3838,1.3887,1.3887,1.3887,1.3945,1.3945,1.3945,1.3945,1.3945,1.3945,1.3945,1.3945,1.3945,1.3945,1.3945,1.3896,0,0,0,0,0,1.0576,1.0576,1.0576,1.0576,1.0576,1.0576,1.0547,1.0547,1.0547,1.0518,1.0518,1.0518,1.0479,1.0518,1.0518,1.0479,1.0479,1.0479,1.0518,1.0518,1.0479,1.0479,1.0518,1.0479,1.0479,1.0479,1.0479,1.0479,1.0479,1.0479,1.0479,1.0479,1.0449,1.0449,1.0479,1.0479,1.0479,1.0479,1.0479,1.0479,1.0518,1.0479,1.0479,1.0479,1.0479,1.0479,1.0479,1.0479,1.0479,1.0449,1.0449,1.042,1.0449,1.042,1.042,1.0449,1.0449,1.0449,1.042,1.0449,1.042,1.042,1.042,1.042,1.042,1.042,1.042,1.0391,1.0391,1.0391,1.0391,1.0391,1.0352,1.0352,1.0352,1.0352,1.0352,1.0391,1.042,1.042,1.042,1.042,1.042,1.042,1.042,1.042,1.042,1.0391,1.0391,1.0391,1.0391,1.0391,1.0391,1.0391,1.0391,1.0391,1.0352,1.0391,1.0352,1.0352,1.0322,1.0322,1.0391,1.0391,1.0361,1.0361,1.0322,1.0322,1.0361,1.0322,1.0322,1.0322,1.0322,1.0322,1.0322,1.0322,1.0322,1.0322,1.0322,1.0293,1.0322,1.0293,1.0293,1.0293,1.0293,1.0293,1.0293,1.0293,1.0293,1.0293,1.0293,1.0264,1.0264,1.0264,1.0264,1.0264,1.0234,1.0234,1.0234,1.0234,1.0264,1.0264,1.0264,1.0264,1.0264,1.0264,1.0293,1.0293,1.0264,1.0264,1.0264,1.0264,1.0264,1.0264,1.0264,1.0234,1.0234,1.0234,1.0205,1.0205,1.0205,0,0,0,0,0,0,0,0,0,0,0,0,0,0,0,0,0,0,0,0,0,0,0,0,0,0,0,0,0,0,0,0,0
1.0635,1.0635,1.0664,1.0664,1.0664,1.0703,1.0732,1.0732,1.0732,1.0732,1.0771,1.0771,1.0771,1.0771,1.0771,1.0801,1.0801,1.084,1.0869,1.0869,1.0869,1.0869,1.0869,1.0869,1.0908,1.0908,1.0908,1.0908,1.0947,1.0947,1.0977,1.1016,1.1016,1.1016,1.1016,1.1016,1.1055,1.1055,1.1055,1.1084,1.1084,1.1084,1.1123,1.1123,1.1162,1.1162,1.1162,1.1201,1.1201,1.1201,1.1201,1.1201,1.124,1.124,1.124,1.1279,1.1309,1.1309,1.1309,1.1348,1.1348,1.1348,1.1348,1.1387,1.1387,1.1387,1.1426,1.1426,1.1426,1.1465,1.1504,1.1504,1.1465,1.1504,1.1504,1.1504,1.1504,1.1504,1.1543,1.1543,1.1543,1.1592,1.1592,1.1631,1.1631,1.167,1.167,1.167,1.167,1.167,1.1709,1.1709,1.1709,1.1709,1.1748,1.1748,1.1748,1.1748,1.1748,1.1748,1.1787,1.1836,1.1836,1.1836,1.1836,1.1875,1.1875,1.1875,1.1875,1.1875,1.1914,1.1914,1.1914,1.1963,1.1963,1.2002,1.2002,1.2002,1.2041,1.2041,1.2041,1.2041,1.2041,1.209,1.209,1.209,1.2129,1.2129,1.2178,1.2178,1.2178,1.2178,1.2217,1.2217,1.2217,1.2217,1.2266,1.2266,1.2266,1.2266,1.2266,1.2354,1.2354,1.2354,1.2402,1.2402,1.2402,1.2402,1.2451,1.249,1.249,1.249,1.249,1.249,1.2539,1.2539,1.2539,1.2539,1.2539,1.2588,1.2588,1.2637,1.2637,1.2686,1.2686,1.2686,1.2686,1.2686,1.2686,1.2734,1.2734,1.2734,1.2783,1.2783,1.2783,1.2832,1.2832,1.2832,1.2832,1.2832,1.2832,1.2832,1.2881,1.2881,1.293,1.2979,1.2979,1.2979,1.2979,1.2979,1.2979,1.3027,1.3027,1.3027,1.3027,1.3027,1.3027,1.3027,1.3076,1.3076,1.3135,1.3135,1.3184,1.3184,1.3184,1.3184,1.3232,1.3232,1.3232,1.3232,1.3291,1.334,1.334,1.334,1.334,1.3389,1.3447,1.3447,1.3447,1.3447,1.3447,1.3496,1.3496,1.3496,1.3496,1.3555,1.3555,1.3555,1.3613,1.3613,1.3613,1.3613,1.3613,1.3613,1.3613,1.3662,1.3662,1.3721,1.3721,1.3721,1.3721,1.3779,1.3779,1.3779,1.3779,1.3779,1.3779,1.3838,1.3838,1.3896,1.3896,1.3896,1.3945,1.3945,1.3945,1.4004,1.4004,1.4004,1.3945,1.3945,1.3945,1.3955,1.3955,1.3896,0,0,0,0,0,1.0576,1.0576,1.0576,1.0576,1.0576,1.0576,1.0547,1.0547,1.0547,1.0518,1.0518,1.0518,1.0479,1.0518,1.0518,1.0479,1.0479,1.0479,1.0479,1.0518,1.0479,1.0479,1.0518,1.0479,1.0479,1.0479,1.0479,1.0479,1.0479,1.0479,1.0479,1.0479,1.0449,1.0479,1.0479,1.0479,1.0479,1.0479,1.0479,1.0479,1.0479,1.0479,1.0479,1.0479,1.0479,1.0479,1.0479,1.0479,1.0479,1.0449,1.0449,1.0449,1.0449,1.042,1.042,1.042,1.0449,1.042,1.042,1.0449,1.042,1.042,1.042,1.042,1.042,1.042,1.0391,1.0391,1.0391,1.0391,1.0391,1.0391,1.0352,1.0391,1.0352,1.0352,1.0352,1.0352,1.042,1.042,1.042,1.042,1.042,1.042,1.042,1.0391,1.0391,1.0391,1.0391,1.0391,1.0391,1.0391,1.0391,1.0391,1.0391,1.0391,1.0361,1.0361,1.0361,1.0361,1.0322,1.0322,1.0361,1.0391,1.0361,1.0361,1.0361,1.0361,1.0361,1.0361,1.0322,1.0293,1.0293,1.0322,1.0322,1.0322,1.0322,1.0322,1.0322,1.0293,1.0293,1.0293,1.0293,1.0293,1.0293,1.0293,1.0293,1.0293,1.0293,1.0293,1.0293,1.0264,1.0264,1.0264,1.0264,1.0264,1.0264,1.0234,1.0234,1.0234,1.0264,1.0264,1.0264,1.0234,1.0264,1.0293,1.0293,1.0293,1.0293,1.0293,1.0293,1.0264,1.0264,1.0264,1.0264,1.0264,1.0234,1.0234,1.0234,1.0205,1.0234,0,0,0,0,0,0,0,0,0,0,0,0,0,0,0,0,0,0,0,0,0,0,0,0,0,0,0,0,0,0,0,0,0
1.0635,1.0664,1.0664,1.0703,1.0703,1.0703,1.0732,1.0732,1.0732,1.0732,1.0771,1.0771,1.0771,1.0771,1.0771,1.0801,1.0801,1.084,1.0869,1.0869,1.0869,1.0869,1.0908,1.0908,1.0908,1.0908,1.0908,1.0947,1.0947,1.0947,1.0977,1.1016,1.1016,1.1016,1.1016,1.1016,1.1055,1.1055,1.1084,1.1084,1.1094,1.1123,1.1123,1.1162,1.1162,1.1162,1.1201,1.1201,1.1201,1.1201,1.1201,1.124,1.124,1.124,1.1279,1.1279,1.1309,1.1318,1.1318,1.1348,1.1348,1.1348,1.1348,1.1387,1.1387,1.1387,1.1426,1.1426,1.1465,1.1465,1.1504,1.1504,1.1504,1.1504,1.1504,1.1504,1.1504,1.1504,1.1543,1.1543,1.1543,1.1592,1.1592,1.1631,1.167,1.167,1.167,1.1709,1.1709,1.1709,1.1709,1.1709,1.1709,1.1748,1.1748,1.1748,1.1748,1.1787,1.1787,1.1787,1.1836,1.1836,1.1875,1.1875,1.1875,1.1875,1.1875,1.1875,1.1914,1.1914,1.1914,1.1914,1.1963,1.2002,1.2002,1.2002,1.2002,1.2002,1.2041,1.2041,1.2041,1.2041,1.209,1.209,1.209,1.2129,1.2129,1.2178,1.2178,1.2178,1.2178,1.2217,1.2217,1.2217,1.2217,1.2217,1.2266,1.2266,1.2266,1.2266,1.2314,1.2354,1.2354,1.2354,1.2402,1.2402,1.2402,1.2402,1.2451,1.2451,1.2539,1.249,1.2539,1.2539,1.2539,1.2539,1.2539,1.2539,1.2588,1.2588,1.2588,1.2637,1.2637,1.2686,1.2686,1.2686,1.2686,1.2686,1.2686,1.2734,1.2734,1.2783,1.2783,1.2783,1.2832,1.2832,1.2832,1.2832,1.2832,1.2832,1.2881,1.2881,1.2881,1.2881,1.293,1.2979,1.2979,1.2979,1.2979,1.2979,1.3027,1.3027,1.3027,1.3027,1.3027,1.3076,1.3076,1.3076,1.3076,1.3135,1.3135,1.3135,1.3135,1.3184,1.3184,1.3184,1.3232,1.3232,1.3232,1.3232,1.3291,1.334,1.334,1.334,1.3389,1.3389,1.3447,1.3447,1.3447,1.3447,1.3447,1.3496,1.3496,1.3496,1.3496,1.3555,1.3555,1.3555,1.3613,1.3613,1.3613,1.3613,1.3613,1.3613,1.3662,1.3662,1.3662,1.3721,1.3721,1.3721,1.3721,1.3779,1.3779,1.3779,1.3779,1.3779,1.3779,1.3838,1.3838,1.3896,1.3896,1.3945,1.3945,1.3945,1.3955,1.4004,1.4004,1.4004,1.3955,1.3955,1.3955,1.3955,1.3955,1.3896,0,0,0,1.0615,1.0615,1.0576,1.0576,1.0576,1.0576,1.0576,1.0576,1.0547,1.0547,1.0547,1.0518,1.0518,1.0518,1.0518,1.0518,1.0479,1.0479,1.0479,1.0479,1.0518,1.0518,1.0518,1.0518,1.0518,1.0518,1.0479,1.0479,1.0479,1.0479,1.0479,1.0479,1.0479,1.0479,1.0479,1.0479,1.0479,1.0479,1.0479,1.0479,1.0479,1.0479,1.0479,1.0479,1.0479,1.0479,1.0449,1.0479,1.0479,1.0479,1.0488,1.0449,1.0449,1.0449,1.0449,1.0449,1.042,1.042,1.0449,1.042,1.042,1.0449,1.042,1.042,1.042,1.042,1.042,1.042,1.0391,1.0391,1.0391,1.0391,1.0391,1.0391,1.0391,1.0391,1.0352,1.0391,1.0352,1.0391,1.042,1.042,1.042,1.042,1.042,1.042,1.042,1.0391,1.042,1.0391,1.0391,1.0391,1.0391,1.0391,1.0391,1.0391,1.0391,1.0361,1.0361,1.0361,1.0361,1.0361,1.0322,1.0361,1.0361,1.0361,1.0361,1.0361,1.0322,1.0322,1.0322,1.0322,1.0322,1.0322,1.0293,1.0322,1.0322,1.0322,1.0322,1.0322,1.0322,1.0293,1.0293,1.0293,1.0293,1.0322,1.0293,1.0293,1.0293,1.0293,1.0293,1.0293,1.0293,1.0293,1.0293,1.0264,1.0264,1.0264,1.0264,1.0264,1.0234,1.0234,1.0234,1.0234,1.0234,1.0234,1.0264,1.0293,1.0293,1.0293,1.0293,1.0293,1.0293,1.0264,1.0264,1.0264,1.0264,1.0264,1.0234,1.0234,1.0234,1.0205,1.0234,0,0,0,0,0,0,0,0,0,0,0,0,0,0,0,0,0,0,0,0,0,0,0,0,0,0,0,0,0,0,0,0,0
1.0635,1.0664,1.0703,1.0703,1.0703,1.0703,1.0732,1.0732,1.0732,1.0771,1.0771,1.0771,1.0771,1.0801,1.0801,1.084,1.084,1.0869,1.0869,1.0908,1.0908,1.0908,1.0908,1.0908,1.0908,1.0947,1.0947,1.0947,1.0947,1.0977,1.0977,1.1016,1.1016,1.1016,1.1055,1.1055,1.1055,1.1055,1.1094,1.1094,1.1123,1.1123,1.1123,1.1162,1.1162,1.1162,1.1201,1.1201,1.1201,1.1201,1.1201,1.124,1.124,1.124,1.1279,1.1279,1.1318,1.1318,1.1318,1.1348,1.1348,1.1348,1.1348,1.1387,1.1387,1.1387,1.1426,1.1465,1.1465,1.1465,1.1504,1.1504,1.1504,1.1543,1.1504,1.1504,1.1504,1.1504,1.1553,1.1553,1.1553,1.1592,1.1631,1.1631,1.167,1.167,1.167,1.167,1.167,1.1709,1.1709,1.1709,1.1709,1.1748,1.1748,1.1748,1.1748,1.1787,1.1787,1.1787,1.1836,1.1836,1.1875,1.1875,1.1875,1.1875,1.1875,1.1875,1.1875,1.1914,1.1914,1.1963,1.1963,1.2002,1.2002,1.2002,1.2002,1.2051,1.2041,1.2041,1.2051,1.209,1.209,1.209,1.2129,1.2129,1.2178,1.2178,1.2178,1.2178,1.2178,1.2217,1.2217,1.2227,1.2227,1.2266,1.2266,1.2266,1.2266,1.2314,1.2314,1.2354,1.2354,1.2402,1.2402,1.2402,1.2402,1.2402,1.2451,1.2451,1.2539,1.2539,1.2539,1.2539,1.2539,1.2588,1.2539,1.2539,1.2588,1.2588,1.2637,1.2637,1.2686,1.2686,1.2686,1.2686,1.2686,1.2734,1.2734,1.2734,1.2734,1.2783,1.2783,1.2783,1.2832,1.2832,1.2832,1.2832,1.2832,1.2832,1.2881,1.2881,1.2881,1.2881,1.2979,1.2979,1.2979,1.2979,1.3027,1.3027,1.3027,1.3027,1.3027,1.3027,1.3076,1.3076,1.3135,1.3135,1.3135,1.3184,1.3184,1.3184,1.3184,1.3184,1.3184,1.3184,1.3232,1.3232,1.3232,1.3232,1.3291,1.334,1.334,1.334,1.3389,1.3389,1.3447,1.3447,1.3447,1.3496,1.3496,1.3506,1.3506,1.3506,1.3506,1.3555,1.3555,1.3555,1.3613,1.3613,1.3613,1.3613,1.3662,1.3662,1.3662,1.3662,1.3721,1.3721,1.3721,1.3721,1.3721,1.3721,1.3779,1.3779,1.3779,1.3779,1.3838,1.3838,1.3896,1.3896,1.3955,1.3955,1.3955,1.3955,1.3955,1.4014,1.4014,1.4014,1.3955,1.3955,1.3955,1.3955,1.3955,1.3955,0,0,0,0,1.0576,1.0576,1.0576,1.0576,1.0576,1.0576,1.0576,1.0547,1.0547,1.0547,1.0547,1.0518,1.0518,1.0518,1.0518,1.0518,1.0479,1.0479,1.0479,1.0479,1.0479,1.0479,1.0479,1.0479,1.0479,1.0479,1.0479,1.0479,1.0479,1.0479,1.0479,1.0479,1.0479,1.0449,1.0488,1.0449,1.0488,1.0488,1.0488,1.0488,1.0488,1.0488,1.0449,1.0488,1.0449,1.0449,1.0449,1.0488,1.0488,1.0488,1.0449,1.0449,1.0449,1.042,1.042,1.042,1.042,1.0449,1.042,1.042,1.0449,1.042,1.042,1.042,1.042,1.042,1.042,1.0391,1.042,1.0391,1.042,1.042,1.0391,1.0391,1.0391,1.0391,1.0391,1.0391,1.0391,1.042,1.042,1.042,1.042,1.042,1.042,1.042,1.0391,1.042,1.0391,1.0391,1.0391,1.0391,1.0391,1.0391,1.0391,1.0391,1.0391,1.0361,1.0391,1.0391,1.0361,1.0361,1.0322,1.0322,1.0361,1.0361,1.0361,1.0322,1.0361,1.0322,1.0322,1.0322,1.0293,1.0293,1.0322,1.0322,1.0293,1.0293,1.0293,1.0322,1.0293,1.0332,1.0293,1.0293,1.0293,1.0293,1.0293,1.0293,1.0293,1.0293,1.0293,1.0293,1.0293,1.0293,1.0293,1.0264,1.0264,1.0264,1.0264,1.0234,1.0234,1.0234,1.0234,1.0234,1.0234,1.0234,1.0264,1.0293,1.0293,1.0264,1.0293,1.0264,1.0264,1.0264,1.0264,1.0234,1.0234,1.0234,1.0234,1.0205,1.0205,1.0234,0,0,0,0,0,0,0,0,0,0,0,0,0,0,0,0,0,0,0,0,0,0,0,0,0,0,0,0,0,0,0,0,0
1.0664,1.0664,1.0703,1.0703,1.0732,1.0703,1.0732,1.0732,1.0732,1.0771,1.0771,1.0771,1.0801,1.084,1.084,1.084,1.084,1.0869,1.0869,1.0908,1.0908,1.0908,1.0908,1.0908,1.0908,1.0947,1.0947,1.0947,1.0977,1.1016,1.1016,1.1016,1.1016,1.1016,1.1055,1.1055,1.1055,1.1094,1.1094,1.1123,1.1123,1.1123,1.1123,1.1162,1.1162,1.1201,1.1201,1.1201,1.1201,1.1201,1.124,1.124,1.124,1.1279,1.1279,1.1279,1.1318,1.1318,1.1357,1.1357,1.1357,1.1357,1.1387,1.1387,1.1387,1.1387,1.1426,1.1426,1.1465,1.1465,1.1504,1.1504,1.1504,1.1553,1.1504,1.1514,1.1514,1.1553,1.1553,1.1553,1.1553,1.1592,1.1631,1.167,1.167,1.167,1.167,1.1709,1.1709,1.1709,1.1709,1.1709,1.1748,1.1748,1.1748,1.1748,1.1748,1.1797,1.1797,1.1797,1.1836,1.1836,1.1875,1.1875,1.1875,1.1875,1.1875,1.1875,1.1914,1.1914,1.1963,1.1963,1.2002,1.2002,1.2002,1.2002,1.2002,1.2051,1.2051,1.2051,1.2051,1.209,1.209,1.209,1.209,1.2129,1.2178,1.2178,1.2178,1.2178,1.2178,1.2227,1.2227,1.2227,1.2227,1.2227,1.2266,1.2266,1.2266,1.2314,1.2314,1.2354,1.2402,1.2402,1.2402,1.2402,1.2451,1.2451,1.2451,1.25,1.2539,1.2539,1.2539,1.2539,1.2588,1.2588,1.2588,1.2588,1.2588,1.2588,1.2637,1.2637,1.2686,1.2686,1.2686,1.2734,1.2734,1.2734,1.2734,1.2783,1.2783,1.2783,1.2783,1.2783,1.2832,1.2832,1.2832,1.2832,1.2832,1.2881,1.2881,1.2881,1.2881,1.293,1.2979,1.2979,1.2979,1.3027,1.3027,1.3027,1.3027,1.3027,1.3027,1.3076,1.3076,1.3135,1.3135,1.3135,1.3184,1.3184,1.3184,1.3184,1.3184,1.3184,1.3184,1.3184,1.3232,1.3232,1.3291,1.3291,1.334,1.3389,1.3398,1.3398,1.3398,1.3447,1.3447,1.3447,1.3506,1.3506,1.3506,1.3506,1.3506,1.3555,1.3555,1.3555,1.3613,1.3613,1.3613,1.3613,1.3613,1.3613,1.3662,1.3662,1.3662,1.3721,1.3721,1.3721,1.3721,1.3721,1.3721,1.3779,1.3779,1.3779,1.3779,1.3838,1.3838,1.3838,1.3896,1.3896,1.3955,1.3955,1.3955,1.3955,1.4014,1.4014,1.4014,1.4014,1.3955,1.4014,1.3955,1.3955,1.3955,1.3955,0,0,0,1.0615,1.0615,1.0576,1.0576,1.0576,1.0576,1.0576,1.0576,1.0547,1.0547,1.0547,1.0547,1.0518,1.0518,1.0518,1.0518,1.0518,1.0518,1.0518,1.0518,1.0518,1.0518,1.0479,1.0479,1.0479,1.0479,1.0479,1.0479,1.0449,1.0488,1.0488,1.0488,1.0449,1.0449,1.0449,1.0488,1.0488,1.0488,1.0488,1.0488,1.0488,1.0488,1.0488,1.0449,1.0449,1.0449,1.0449,1.0449,1.0449,1.0488,1.0488,1.0449,1.0449,1.0449,1.0449,1.042,1.042,1.042,1.0449,1.042,1.042,1.0449,1.042,1.0449,1.0449,1.042,1.042,1.042,1.042,1.042,1.042,1.042,1.042,1.0391,1.0391,1.0391,1.0391,1.0391,1.0391,1.0391,1.042,1.042,1.042,1.042,1.042,1.042,1.042,1.0391,1.0391,1.0391,1.0391,1.0391,1.0391,1.0391,1.0391,1.0391,1.0391,1.0361,1.0361,1.0361,1.0361,1.0361,1.0361,1.0322,1.0322,1.0361,1.0361,1.0361,1.0332,1.0361,1.0293,1.0361,1.0322,1.0322,1.0293,1.0332,1.0332,1.0332,1.0332,1.0293,1.0293,1.0293,1.0332,1.0293,1.0293,1.0332,1.0293,1.0293,1.0293,1.0293,1.0293,1.0293,1.0293,1.0293,1.0293,1.0264,1.0264,1.0264,1.0264,1.0234,1.0234,1.0234,1.0234,1.0234,1.0234,1.0234,1.0264,1.0293,1.0293,1.0293,1.0264,1.0293,1.0264,1.0264,1.0264,1.0264,1.0264,1.0234,1.0234,1.0234,1.0234,1.0205,1.0234,0,0,0,0,0,0,0,0,0,0,0,0,0,0,0,0,0,0,0,0,0,0,0,0,0,0,0,0,0,0,0,0,0
1.0664,1.0664,1.0703,1.0732,1.0732,1.0732,1.0732,1.0732,1.0771,1.0771,1.0771,1.0801,1.084,1.084,1.084,1.084,1.084,1.0879,1.0879,1.0908,1.0908,1.0879,1.0908,1.0908,1.0947,1.0947,1.0947,1.0947,1.0977,1.1016,1.1016,1.1016,1.1016,1.1055,1.1055,1.1055,1.1055,1.1094,1.1094,1.1123,1.1123,1.1123,1.1162,1.1162,1.1162,1.1162,1.1162,1.1201,1.1201,1.1201,1.124,1.124,1.124,1.1279,1.1279,1.1318,1.1318,1.1318,1.1357,1.1357,1.1357,1.1357,1.1396,1.1396,1.1396,1.1396,1.1426,1.1465,1.1465,1.1475,1.1514,1.1514,1.1514,1.1553,1.1514,1.1514,1.1553,1.1553,1.1553,1.1553,1.1592,1.1631,1.1631,1.167,1.167,1.167,1.1709,1.1709,1.1709,1.1709,1.1709,1.1709,1.1748,1.1748,1.1797,1.1748,1.1797,1.1836,1.1836,1.1836,1.1836,1.1875,1.1875,1.1875,1.1875,1.1875,1.1914,1.1914,1.1914,1.1914,1.1963,1.1963,1.2002,1.2002,1.2002,1.2002,1.2051,1.2051,1.2051,1.2051,1.2051,1.209,1.209,1.2139,1.2139,1.2178,1.2178,1.2178,1.2178,1.2178,1.2178,1.2227,1.2227,1.2227,1.2227,1.2266,1.2266,1.2314,1.2314,1.2314,1.2354,1.2402,1.2402,1.2402,1.2402,1.2451,1.2451,1.2451,1.2451,1.2451,1.2539,1.2539,1.2539,1.2539,1.2588,1.2588,1.2588,1.2588,1.2588,1.2588,1.2637,1.2637,1.2686,1.2686,1.2734,1.2734,1.2734,1.2734,1.2783,1.2783,1.2783,1.2783,1.2783,1.2832,1.2832,1.2832,1.2832,1.2832,1.2832,1.2881,1.2881,1.2881,1.2881,1.293,1.2979,1.2979,1.3027,1.3027,1.3027,1.3027,1.3027,1.3027,1.3027,1.3086,1.3135,1.3135,1.3135,1.3184,1.3184,1.3184,1.3184,1.3184,1.3184,1.3184,1.3232,1.3232,1.3232,1.3232,1.3291,1.3291,1.334,1.3398,1.3398,1.3398,1.3398,1.3447,1.3447,1.3447,1.3506,1.3506,1.3506,1.3506,1.3506,1.3555,1.3555,1.3555,1.3613,1.3613,1.3613,1.3613,1.3672,1.3672,1.3672,1.3672,1.3672,1.3721,1.3721,1.3721,1.3721,1.3721,1.3779,1.3779,1.3779,1.3779,1.3779,1.3838,1.3838,1.3896,1.3896,1.3896,1.3955,1.3955,1.3955,1.3955,1.4014,1.4014,1.4014,1.4014,1.4014,1.4014,1.4014,1.3955,1.3955,1.3896,0,0,0,1.0615,1.0576,1.0576,1.0586,1.0586,1.0586,1.0586,1.0586,1.0547,1.0547,1.0547,1.0547,1.0518,1.0518,1.0518,1.0518,1.0518,1.0518,1.0518,1.0518,1.0518,1.0518,1.0518,1.0518,1.0518,1.0488,1.0488,1.0488,1.0488,1.0488,1.0488,1.0488,1.0488,1.0449,1.0449,1.0488,1.0488,1.0449,1.0488,1.0488,1.0488,1.0488,1.0449,1.0449,1.0449,1.0449,1.0449,1.0449,1.0488,1.0488,1.0488,1.0449,1.0449,1.0449,1.042,1.042,1.042,1.042,1.042,1.0449,1.042,1.0449,1.042,1.0449,1.0449,1.042,1.042,1.0449,1.042,1.042,1.042,1.042,1.042,1.042,1.0391,1.0391,1.0391,1.0391,1.0391,1.0361,1.042,1.042,1.042,1.042,1.042,1.042,1.042,1.042,1.042,1.0391,1.0391,1.0391,1.0391,1.0391,1.0391,1.0391,1.0391,1.0391,1.0361,1.0361,1.0361,1.0361,1.0361,1.0332,1.0361,1.0361,1.0361,1.0361,1.0332,1.0361,1.0361,1.0332,1.0332,1.0332,1.0332,1.0332,1.0332,1.0332,1.0332,1.0332,1.0332,1.0293,1.0293,1.0293,1.0293,1.0293,1.0293,1.0293,1.0293,1.0293,1.0293,1.0293,1.0293,1.0293,1.0293,1.0264,1.0264,1.0264,1.0264,1.0264,1.0234,1.0234,1.0234,1.0234,1.0205,1.0234,1.0234,1.0303,1.0303,1.0303,1.0264,1.0303,1.0303,1.0264,1.0264,1.0264,1.0264,1.0234,1.0234,1.0234,1.0234,1.0234,1.0234,0,0,0,0,0,0,0,0,0,0,0,0,0,0,0,0,0,0,0,0,0,0,0,0,0,0,0,0,0,0,0,0,0
1.0664,1.0703,1.0703,1.0732,1.0732,1.0732,1.0732,1.0732,1.0771,1.0771,1.084,1.084,1.084,1.084,1.084,1.084,1.084,1.0879,1.0879,1.0908,1.0879,1.0908,1.0908,1.0908,1.0908,1.0908,1.0947,1.0986,1.1016,1.1016,1.1016,1.1016,1.1016,1.1055,1.1055,1.1055,1.1094,1.1094,1.1123,1.1123,1.1123,1.1123,1.1162,1.1162,1.1162,1.1162,1.1201,1.1201,1.1201,1.124,1.124,1.1279,1.1279,1.1279,1.1279,1.1318,1.1318,1.1318,1.1357,1.1357,1.1357,1.1357,1.1396,1.1396,1.1396,1.1396,1.1436,1.1475,1.1475,1.1475,1.1553,1.1514,1.1514,1.1553,1.1553,1.1553,1.1553,1.1553,1.1553,1.1592,1.1592,1.1631,1.167,1.167,1.167,1.1709,1.1709,1.1709,1.1709,1.1709,1.1709,1.1709,1.1748,1.1748,1.1797,1.1748,1.1797,1.1797,1.1836,1.1836,1.1836,1.1875,1.1875,1.1875,1.1875,1.1875,1.1924,1.1924,1.1924,1.1963,1.1963,1.2002,1.2002,1.2002,1.2002,1.2002,1.2051,1.2051,1.2051,1.2051,1.2051,1.209,1.209,1.2139,1.2139,1.2139,1.2178,1.2178,1.2178,1.2178,1.2178,1.2227,1.2227,1.2227,1.2227,1.2266,1.2266,1.2314,1.2314,1.2354,1.2354,1.2402,1.2402,1.2451,1.2451,1.2451,1.2451,1.2451,1.2451,1.2451,1.2539,1.2539,1.2588,1.2588,1.2588,1.2588,1.2588,1.2588,1.2588,1.2588,1.2637,1.2637,1.2637,1.2686,1.2734,1.2734,1.2734,1.2734,1.2783,1.2783,1.2783,1.2783,1.2783,1.2832,1.2832,1.2832,1.2832,1.2832,1.2832,1.2881,1.2881,1.2881,1.293,1.293,1.2979,1.2979,1.3027,1.3027,1.3027,1.3027,1.3027,1.3027,1.3086,1.3086,1.3135,1.3135,1.3135,1.3184,1.3184,1.3184,1.3184,1.3184,1.3184,1.3232,1.3232,1.3232,1.3232,1.3232,1.3291,1.3291,1.334,1.3398,1.3398,1.3398,1.3447,1.3447,1.3447,1.3447,1.3506,1.3506,1.3506,1.3506,1.3506,1.3555,1.3555,1.3555,1.3613,1.3613,1.3613,1.3672,1.3672,1.3672,1.3672,1.3672,1.3672,1.3721,1.3721,1.3721,1.3721,1.3721,1.3779,1.3779,1.3779,1.3779,1.3838,1.3838,1.3838,1.3896,1.3896,1.3896,1.3955,1.3955,1.3955,1.4014,1.4014,1.4014,1.4014,1.4014,1.4014,1.4014,1.4014,1.3955,1.3955,1.3896,0,0,0,1.0615,1.0586,1.0586,1.0586,1.0586,1.0586,1.0586,1.0586,1.0547,1.0518,1.0547,1.0547,1.0518,1.0518,1.0518,1.0518,1.0518,1.0518,1.0518,1.0518,1.0518,1.0518,1.0518,1.0518,1.0518,1.0488,1.0488,1.0488,1.0488,1.0488,1.0488,1.0488,1.0488,1.0449,1.0449,1.0488,1.0488,1.0488,1.0488,1.0488,1.0488,1.0488,1.0449,1.0449,1.0488,1.0488,1.0449,1.0449,1.0488,1.0488,1.0488,1.0449,1.0449,1.0449,1.042,1.042,1.042,1.042,1.042,1.0449,1.0391,1.042,1.0391,1.042,1.0391,1.0391,1.042,1.042,1.042,1.042,1.042,1.042,1.042,1.042,1.0391,1.0391,1.0391,1.0391,1.0391,1.0391,1.042,1.042,1.042,1.042,1.042,1.042,1.042,1.042,1.042,1.0391,1.0391,1.0391,1.0391,1.0391,1.0391,1.0391,1.0391,1.0391,1.0391,1.0391,1.0361,1.0361,1.0361,1.0332,1.0361,1.0361,1.0361,1.0332,1.0332,1.0361,1.0332,1.0332,1.0332,1.0332,1.0332,1.0293,1.0332,1.0293,1.0293,1.0293,1.0293,1.0293,1.0293,1.0293,1.0293,1.0293,1.0293,1.0293,1.0293,1.0293,1.0293,1.0293,1.0293,1.0293,1.0264,1.0264,1.0264,1.0264,1.0264,1.0264,1.0234,1.0234,1.0234,1.0234,1.0234,1.0234,1.0234,1.0303,1.0303,1.0303,1.0264,1.0264,1.0264,1.0264,1.0264,1.0264,1.0234,1.0234,1.0234,1.0234,1.0234,1.0234,1.0234,0,0,0,0,0,0,0,0,0,0,0,0,0,0,0,0,0,0,0,0,0,0,0,0,0,0,0,0,0,0,0,0,0
1.0703,1.0703,1.0732,1.0732,1.0732,1.0732,1.0771,1.0771,1.0771,1.0801,1.084,1.084,1.084,1.084,1.084,1.084,1.0879,1.0879,1.0879,1.0908,1.0879,1.0879,1.0908,1.0908,1.0908,1.0908,1.0947,1.0986,1.1016,1.1016,1.1016,1.1016,1.1055,1.1055,1.1055,1.1055,1.1094,1.1133,1.1133,1.1162,1.1133,1.1162,1.1162,1.1162,1.1162,1.1162,1.1201,1.1201,1.1201,1.124,1.124,1.1279,1.1279,1.1279,1.1318,1.1318,1.1318,1.1318,1.1357,1.1357,1.1357,1.1396,1.1396,1.1396,1.1396,1.1396,1.1436,1.1475,1.1475,1.1475,1.1553,1.1514,1.1553,1.1553,1.1553,1.1553,1.1553,1.1553,1.1553,1.1553,1.1592,1.1631,1.167,1.1709,1.1709,1.1709,1.1709,1.1709,1.1709,1.1709,1.1709,1.1748,1.1748,1.1748,1.1797,1.1797,1.1836,1.1836,1.1836,1.1836,1.1875,1.1875,1.1875,1.1875,1.1875,1.1924,1.1924,1.1924,1.1963,1.1963,1.2002,1.2002,1.2002,1.2051,1.2051,1.2051,1.2051,1.2051,1.2051,1.2051,1.2051,1.209,1.2139,1.2139,1.2178,1.2178,1.2178,1.2178,1.2178,1.2178,1.2227,1.2227,1.2227,1.2227,1.2266,1.2266,1.2266,1.2314,1.2314,1.2363,1.2363,1.2402,1.2402,1.2451,1.2451,1.2451,1.2451,1.2451,1.2451,1.2451,1.2539,1.2539,1.2588,1.2588,1.2588,1.2588,1.2588,1.2588,1.2588,1.2588,1.2637,1.2637,1.2637,1.2686,1.2734,1.2734,1.2734,1.2783,1.2783,1.2783,1.2783,1.2783,1.2832,1.2832,1.2832,1.2832,1.2832,1.2832,1.2881,1.2881,1.2881,1.2881,1.293,1.293,1.2979,1.2979,1.3027,1.3027,1.3027,1.3027,1.3027,1.3086,1.3086,1.3135,1.3135,1.3135,1.3184,1.3184,1.3184,1.3184,1.3232,1.3184,1.3232,1.3232,1.3242,1.3242,1.3291,1.3291,1.334,1.3291,1.3398,1.3398,1.3447,1.3447,1.3447,1.3447,1.3447,1.3447,1.3506,1.3506,1.3506,1.3506,1.3506,1.3555,1.3555,1.3555,1.3613,1.3613,1.3672,1.3672,1.3672,1.3672,1.3672,1.3672,1.3672,1.3721,1.3721,1.3721,1.3779,1.3779,1.3779,1.3779,1.3838,1.3838,1.3838,1.3838,1.3838,1.3896,1.3896,1.3955,1.3955,1.3955,1.3955,1.4014,1.4014,1.4014,1.4014,1.4014,1.4014,1.4014,1.4014,1.3955,1.3896,1.3779,0,0,0,1.0615,1.0586,1.0586,1.0586,1.0586,1.0586,1.0586,1.0547,1.0547,1.0518,1.0547,1.0547,1.0518,1.0518,1.0518,1.0518,1.0518,1.0518,1.0518,1.0518,1.0518,1.0518,1.0518,1.0518,1.0518,1.0488,1.0488,1.0488,1.0488,1.0488,1.0488,1.0488,1.0488,1.0449,1.0449,1.0488,1.0449,1.0449,1.0449,1.0449,1.0488,1.0488,1.0449,1.0449,1.0449,1.0449,1.0449,1.0449,1.0449,1.0449,1.0488,1.0449,1.0449,1.0449,1.042,1.042,1.042,1.042,1.042,1.042,1.0391,1.042,1.042,1.042,1.042,1.042,1.0449,1.0449,1.042,1.042,1.042,1.042,1.042,1.042,1.042,1.0391,1.0391,1.0391,1.0391,1.0391,1.042,1.042,1.042,1.0459,1.042,1.042,1.042,1.042,1.042,1.0391,1.0391,1.0391,1.0391,1.0391,1.0391,1.0391,1.0391,1.0391,1.0391,1.0391,1.0391,1.0361,1.0332,1.0332,1.0361,1.0332,1.0361,1.0332,1.0332,1.0332,1.0332,1.0332,1.0332,1.0332,1.0332,1.0332,1.0332,1.0293,1.0293,1.0293,1.0293,1.0293,1.0293,1.0293,1.0293,1.0293,1.0293,1.0293,1.0293,1.0293,1.0293,1.0303,1.0303,1.0303,1.0303,1.0264,1.0264,1.0264,1.0264,1.0264,1.0234,1.0234,1.0234,1.0234,1.0234,1.0234,1.0234,1.0264,1.0264,1.0264,1.0264,1.0264,1.0264,1.0264,1.0264,1.0264,1.0264,1.0234,1.0234,1.0234,1.0234,1.0234,1.0234,0,0,0,0,0,0,0,0,0,0,0,0,0,0,0,0,0,0,0,0,0,0,0,0,0,0,0,0,0,0,0,0,0
1.0703,1.0703,1.0732,1.0732,1.0732,1.0732,1.0771,1.0771,1.0771,1.0801,1.084,1.084,1.084,1.084,1.084,1.084,1.0879,1.0879,1.0908,1.0908,1.0908,1.0908,1.0908,1.0908,1.0908,1.0986,1.0986,1.1016,1.1016,1.1016,1.1016,1.1016,1.1055,1.1055,1.1094,1.1094,1.1094,1.1133,1.1133,1.1162,1.1162,1.1162,1.1162,1.1162,1.1201,1.1201,1.1201,1.1201,1.1201,1.124,1.1279,1.1318,1.1279,1.1318,1.1318,1.1318,1.1318,1.1357,1.1357,1.1357,1.1357,1.1396,1.1396,1.1396,1.1396,1.1396,1.1436,1.1475,1.1475,1.1475,1.1514,1.1514,1.1553,1.1553,1.1553,1.1553,1.1553,1.1553,1.1592,1.1592,1.1592,1.167,1.167,1.167,1.1709,1.1709,1.1709,1.1709,1.1709,1.1709,1.1748,1.1748,1.1748,1.1797,1.1797,1.1797,1.1836,1.1836,1.1836,1.1875,1.1875,1.1875,1.1875,1.1875,1.1875,1.1924,1.1924,1.1924,1.1963,1.2002,1.2002,1.2002,1.2051,1.2051,1.2051,1.2051,1.2051,1.2051,1.2051,1.2051,1.209,1.209,1.2139,1.2139,1.2178,1.2178,1.2178,1.2178,1.2178,1.2178,1.2227,1.2227,1.2227,1.2266,1.2266,1.2266,1.2314,1.2314,1.2314,1.2363,1.2363,1.2402,1.2402,1.2451,1.2451,1.2451,1.25,1.25,1.2451,1.2451,1.2549,1.2588,1.2588,1.2588,1.2588,1.2588,1.2637,1.2588,1.2637,1.2637,1.2637,1.2637,1.2686,1.2686,1.2734,1.2734,1.2783,1.2783,1.2783,1.2783,1.2783,1.2783,1.2832,1.2832,1.2832,1.2832,1.2832,1.2881,1.2881,1.2881,1.293,1.293,1.293,1.293,1.2979,1.2979,1.3027,1.3027,1.3027,1.3027,1.3086,1.3086,1.3135,1.3135,1.3135,1.3184,1.3184,1.3184,1.3242,1.3242,1.3242,1.3184,1.3242,1.3242,1.3242,1.3242,1.3291,1.334,1.334,1.334,1.3398,1.3398,1.3447,1.3447,1.3447,1.3447,1.3447,1.3506,1.3506,1.3506,1.3506,1.3506,1.3555,1.3555,1.3555,1.3555,1.3613,1.3672,1.3672,1.3672,1.3672,1.3672,1.3672,1.3672,1.3672,1.3721,1.3721,1.3721,1.3779,1.3779,1.3779,1.3779,1.3838,1.3838,1.3838,1.3896,1.3896,1.3896,1.3955,1.3955,1.3955,1.3955,1.3955,1.4014,1.4014,1.4072,1.4014,1.4014,1.4014,1.4072,1.4014,1.3955,1.3955,1.3779,0,0,1.0615,1.0586,1.0586,1.0586,1.0586,1.0586,1.0586,1.0586,1.0547,1.0518,1.0518,1.0547,1.0547,1.0518,1.0518,1.0518,1.0518,1.0518,1.0518,1.0518,1.0518,1.0518,1.0518,1.0518,1.0518,1.0488,1.0488,1.0488,1.0488,1.0488,1.0488,1.0488,1.0488,1.0488,1.0449,1.0449,1.0488,1.0449,1.0449,1.0449,1.0449,1.0449,1.0449,1.0449,1.0449,1.0449,1.0488,1.0488,1.0449,1.0449,1.0488,1.0488,1.0449,1.0449,1.0459,1.0459,1.042,1.042,1.042,1.042,1.0459,1.042,1.042,1.042,1.0459,1.0391,1.042,1.0459,1.0459,1.042,1.042,1.042,1.042,1.042,1.042,1.0391,1.0391,1.0391,1.0391,1.0391,1.0391,1.042,1.042,1.042,1.042,1.042,1.042,1.042,1.042,1.042,1.0391,1.0391,1.0391,1.0391,1.0391,1.0391,1.0391,1.0391,1.0391,1.0391,1.0361,1.0361,1.0361,1.0332,1.0332,1.0332,1.0332,1.0332,1.0332,1.0332,1.0332,1.0332,1.0332,1.0332,1.0332,1.0332,1.0332,1.0332,1.0303,1.0303,1.0303,1.0303,1.0303,1.0303,1.0303,1.0264,1.0303,1.0303,1.0303,1.0303,1.0303,1.0303,1.0303,1.0303,1.0303,1.0303,1.0264,1.0264,1.0264,1.0264,1.0264,1.0234,1.0234,1.0234,1.0234,1.0234,1.0234,1.0234,1.0264,1.0264,1.0264,1.0264,1.0264,1.0264,1.0234,1.0234,1.0234,1.0234,1.0234,1.0234,1.0234,1.0234,1.0234,1.0234,0,0,0,0,0,0,0,0,0,0,0,0,0,0,0,0,0,0,0,0,0,0,0,0,0,0,0,0,0,0,0,0,0
1.0703,1.0732,1.0732,1.0732,1.0771,1.0732,1.0771,1.0771,1.0771,1.0771,1.084,1.084,1.084,1.084,1.0879,1.084,1.0879,1.0879,1.0908,1.0908,1.0908,1.0908,1.0908,1.0908,1.0908,1.0908,1.0947,1.1016,1.1016,1.1016,1.1016,1.1055,1.1055,1.1094,1.1094,1.1094,1.1133,1.1133,1.1133,1.1162,1.1162,1.1162,1.1162,1.1162,1.1162,1.1201,1.1201,1.1201,1.124,1.124,1.1318,1.1318,1.1279,1.1318,1.1318,1.1318,1.1318,1.1357,1.1357,1.1357,1.1357,1.1396,1.1396,1.1396,1.1396,1.1396,1.1436,1.1475,1.1475,1.1475,1.1514,1.1514,1.1553,1.1553,1.1553,1.1553,1.1553,1.1553,1.1592,1.1592,1.1631,1.167,1.167,1.167,1.1709,1.1709,1.1709,1.1709,1.1709,1.1758,1.1758,1.1758,1.1797,1.1797,1.1797,1.1797,1.1836,1.1836,1.1836,1.1836,1.1875,1.1875,1.1875,1.1875,1.1924,1.1924,1.1963,1.1963,1.2002,1.2002,1.2002,1.2002,1.2051,1.2051,1.2051,1.2051,1.2051,1.2051,1.2051,1.209,1.209,1.2139,1.2139,1.2139,1.2178,1.2178,1.2178,1.2178,1.2178,1.2227,1.2227,1.2227,1.2266,1.2266,1.2266,1.2266,1.2314,1.2314,1.2314,1.2363,1.2363,1.2402,1.2451,1.2451,1.2451,1.25,1.25,1.2549,1.25,1.25,1.2549,1.2588,1.2588,1.2588,1.2588,1.2637,1.2637,1.2637,1.2637,1.2637,1.2637,1.2637,1.2686,1.2686,1.2734,1.2734,1.2783,1.2783,1.2783,1.2783,1.2832,1.2832,1.2832,1.2832,1.2832,1.2881,1.2881,1.293,1.293,1.293,1.293,1.293,1.2979,1.2979,1.2979,1.2979,1.3037,1.3037,1.3037,1.3037,1.3086,1.3086,1.3135,1.3135,1.3184,1.3184,1.3184,1.3184,1.3242,1.3242,1.3242,1.3242,1.3242,1.3242,1.3242,1.3242,1.3291,1.334,1.334,1.334,1.3398,1.3398,1.3447,1.3447,1.3447,1.3447,1.3506,1.3506,1.3506,1.3506,1.3506,1.3506,1.3555,1.3555,1.3555,1.3555,1.3613,1.3672,1.3672,1.3672,1.3672,1.3672,1.373,1.3672,1.3721,1.3721,1.3721,1.3721,1.3779,1.3779,1.3779,1.3838,1.3838,1.3838,1.3896,1.3896,1.3896,1.3896,1.3955,1.3955,1.3955,1.3955,1.3955,1.4014,1.4014,1.4014,1.4014,1.4014,1.4014,1.4014,1.4014,1.3955,1.3955,0,0,0,1.0615,1.0586,1.0586,1.0586,1.0586,1.0586,1.0586,1.0547,1.0547,1.0518,1.0518,1.0547,1.0547,1.0518,1.0518,1.0518,1.0518,1.0518,1.0518,1.0518,1.0518,1.0518,1.0518,1.0518,1.0518,1.0488,1.0488,1.0488,1.0488,1.0488,1.0488,1.0488,1.0488,1.0488,1.0488,1.0449,1.0449,1.0449,1.0449,1.0449,1.0449,1.0449,1.0449,1.0449,1.042,1.0449,1.0449,1.0449,1.0459,1.0459,1.0488,1.0488,1.0488,1.0488,1.0459,1.0459,1.0459,1.042,1.042,1.042,1.042,1.042,1.042,1.042,1.0459,1.042,1.042,1.042,1.042,1.042,1.042,1.042,1.0391,1.0391,1.042,1.0391,1.0391,1.0391,1.0391,1.0391,1.0391,1.042,1.042,1.042,1.042,1.042,1.042,1.042,1.042,1.042,1.0391,1.0391,1.0391,1.0391,1.0391,1.0391,1.0391,1.0391,1.0391,1.0391,1.0361,1.0361,1.0361,1.0361,1.0361,1.0361,1.0361,1.0361,1.0332,1.0361,1.0332,1.0332,1.0332,1.0332,1.0332,1.0332,1.0303,1.0303,1.0303,1.0303,1.0303,1.0303,1.0303,1.0303,1.0303,1.0303,1.0303,1.0303,1.0303,1.0303,1.0303,1.0303,1.0303,1.0303,1.0303,1.0303,1.0264,1.0264,1.0264,1.0264,1.0264,1.0234,1.0264,1.0234,1.0234,1.0234,1.0234,1.0234,1.0303,1.0264,1.0264,1.0264,1.0273,1.0273,1.0234,1.0234,1.0234,1.0205,1.0234,1.0205,1.0205,1.0234,1.0234,1.0234,0,0,0,0,0,0,0,0,0,0,0,0,0,0,0,0,0,0,0,0,0,0,0,0,0,0,0,0,0,0,0,0,0
1.0732,1.0732,1.0732,1.0732,1.0771,1.0771,1.0771,1.0771,1.0771,1.084,1.084,1.084,1.0879,1.0879,1.0879,1.0879,1.0879,1.0908,1.0908,1.0908,1.0908,1.0908,1.0908,1.0908,1.0908,1.0986,1.1016,1.1016,1.1016,1.1016,1.1016,1.1055,1.1055,1.1094,1.1094,1.1133,1.1133,1.1162,1.1133,1.1162,1.1162,1.1162,1.1162,1.1162,1.1201,1.1201,1.1201,1.1201,1.124,1.124,1.1279,1.1279,1.1318,1.1318,1.1318,1.1318,1.1318,1.1357,1.1357,1.1357,1.1396,1.1396,1.1396,1.1396,1.1396,1.1396,1.1436,1.1475,1.1475,1.1475,1.1514,1.1553,1.1553,1.1553,1.1553,1.1553,1.1553,1.1553,1.1592,1.1631,1.1631,1.167,1.167,1.1709,1.1709,1.1709,1.1709,1.1709,1.1709,1.1758,1.1758,1.1758,1.1797,1.1836,1.1836,1.1797,1.1836,1.1836,1.1836,1.1836,1.1875,1.1875,1.1875,1.1875,1.1924,1.1924,1.1963,1.2002,1.2002,1.2002,1.2002,1.2051,1.2051,1.2051,1.2051,1.2051,1.2051,1.209,1.209,1.209,1.209,1.209,1.2139,1.2139,1.2178,1.2178,1.2178,1.2227,1.2227,1.2227,1.2227,1.2227,1.2227,1.2266,1.2266,1.2314,1.2314,1.2314,1.2314,1.2363,1.2363,1.2402,1.2451,1.2451,1.25,1.25,1.2549,1.2549,1.25,1.2549,1.2549,1.2588,1.2588,1.2588,1.2637,1.2637,1.2637,1.2637,1.2637,1.2637,1.2637,1.2637,1.2686,1.2734,1.2734,1.2783,1.2783,1.2783,1.2783,1.2832,1.2832,1.2832,1.2832,1.2832,1.2832,1.2881,1.2881,1.293,1.293,1.293,1.293,1.2979,1.2979,1.2979,1.3037,1.3037,1.3037,1.3037,1.3086,1.3086,1.3086,1.3086,1.3135,1.3135,1.3184,1.3184,1.3184,1.3184,1.3242,1.3242,1.3242,1.3242,1.3242,1.3291,1.3242,1.3291,1.3291,1.3291,1.334,1.334,1.3398,1.3447,1.3447,1.3447,1.3447,1.3447,1.3506,1.3506,1.3506,1.3506,1.3506,1.3506,1.3564,1.3564,1.3564,1.3613,1.3672,1.3672,1.3672,1.3672,1.373,1.373,1.373,1.373,1.373,1.373,1.373,1.3779,1.3779,1.3838,1.3838,1.3838,1.3896,1.3896,1.3896,1.3896,1.3896,1.3896,1.3955,1.3955,1.3955,1.3955,1.3955,1.4014,1.4014,1.4072,1.4072,1.4072,1.4072,1.4014,1.3955,1.3955,0,0,0,1.0654,1.0615,1.0615,1.0586,1.0586,1.0586,1.0586,1.0586,1.0547,1.0547,1.0518,1.0518,1.0547,1.0547,1.0518,1.0518,1.0518,1.0518,1.0518,1.0518,1.0518,1.0518,1.0518,1.0518,1.0518,1.0518,1.0488,1.0488,1.0488,1.0488,1.0488,1.0488,1.0488,1.0488,1.0488,1.0488,1.0449,1.0449,1.0449,1.0449,1.0449,1.0459,1.0459,1.0459,1.0459,1.042,1.0459,1.0459,1.0459,1.0459,1.0459,1.0488,1.0488,1.0488,1.0488,1.0459,1.0459,1.0459,1.0459,1.042,1.042,1.042,1.042,1.042,1.042,1.0391,1.0391,1.0391,1.042,1.042,1.0391,1.0391,1.0391,1.0391,1.0391,1.0391,1.0391,1.0391,1.0391,1.0391,1.0391,1.0391,1.042,1.042,1.042,1.042,1.042,1.042,1.042,1.042,1.042,1.0391,1.0391,1.0391,1.0391,1.0391,1.0391,1.0391,1.0391,1.0391,1.0391,1.0391,1.0391,1.0361,1.0361,1.0361,1.0361,1.0361,1.0332,1.0332,1.0332,1.0332,1.0332,1.0332,1.0332,1.0332,1.0332,1.0303,1.0303,1.0303,1.0303,1.0303,1.0303,1.0303,1.0303,1.0303,1.0303,1.0303,1.0303,1.0303,1.0303,1.0303,1.0303,1.0303,1.0303,1.0303,1.0303,1.0264,1.0264,1.0264,1.0264,1.0264,1.0234,1.0234,1.0234,1.0234,1.0234,1.0234,1.0234,1.0273,1.0273,1.0273,1.0273,1.0273,1.0273,1.0234,1.0234,1.0234,1.0234,1.0234,1.0234,1.0234,1.0234,1.0234,1.0234,0,0,0,0,0,0,0,0,0,0,0,0,0,0,0,0,0,0,0,0,0,0,0,0,0,0,0,0,0,0,0,0,0
1.0742,1.0742,1.0742,1.0742,1.0771,1.0771,1.0771,1.0771,1.0811,1.084,1.084,1.084,1.0879,1.0879,1.0879,1.0879,1.0879,1.0879,1.0908,1.0908,1.0908,1.0908,1.0908,1.0908,1.0908,1.0986,1.1016,1.1016,1.1016,1.1016,1.1016,1.1055,1.1055,1.1094,1.1094,1.1133,1.1162,1.1162,1.1162,1.1162,1.1162,1.1162,1.1172,1.1201,1.1201,1.1201,1.124,1.124,1.124,1.1279,1.1318,1.1318,1.1318,1.1318,1.1357,1.1318,1.1357,1.1357,1.1357,1.1357,1.1396,1.1396,1.1396,1.1396,1.1436,1.1436,1.1436,1.1475,1.1475,1.1475,1.1514,1.1553,1.1553,1.1553,1.1553,1.1553,1.1553,1.1592,1.1592,1.1631,1.1631,1.167,1.167,1.1709,1.1709,1.1709,1.1709,1.1709,1.1758,1.1758,1.1758,1.1797,1.1797,1.1836,1.1836,1.1836,1.1836,1.1836,1.1836,1.1875,1.1875,1.1875,1.1875,1.1924,1.1924,1.1963,1.1963,1.1963,1.2002,1.2002,1.2002,1.2002,1.2051,1.2051,1.2051,1.2051,1.2051,1.2051,1.209,1.209,1.209,1.2139,1.2139,1.2178,1.2178,1.2178,1.2227,1.2227,1.2227,1.2227,1.2227,1.2227,1.2275,1.2275,1.2275,1.2275,1.2314,1.2363,1.2363,1.2363,1.2363,1.2402,1.2451,1.2451,1.2451,1.25,1.2549,1.2549,1.2549,1.2549,1.2549,1.2598,1.2598,1.2637,1.2637,1.2637,1.2637,1.2637,1.2637,1.2686,1.2686,1.2686,1.2686,1.2686,1.2734,1.2783,1.2783,1.2783,1.2783,1.2832,1.2832,1.2832,1.2881,1.2832,1.2832,1.293,1.293,1.293,1.293,1.2979,1.2979,1.2979,1.2979,1.2979,1.3037,1.3037,1.3037,1.3037,1.3086,1.3086,1.3086,1.3135,1.3135,1.3184,1.3184,1.3184,1.3184,1.3184,1.3242,1.3242,1.3242,1.3242,1.3242,1.3242,1.3242,1.3242,1.3291,1.3291,1.334,1.334,1.3447,1.3447,1.3447,1.3447,1.3447,1.3506,1.3506,1.3506,1.3506,1.3506,1.3506,1.3564,1.3564,1.3564,1.3564,1.3613,1.3672,1.3672,1.3672,1.3672,1.373,1.373,1.373,1.373,1.373,1.3779,1.3779,1.3838,1.3838,1.3838,1.3896,1.3896,1.3896,1.3896,1.3896,1.3896,1.3896,1.3955,1.3955,1.3955,1.3955,1.3955,1.4014,1.4014,1.4014,1.4072,1.4014,1.4014,1.4014,1.4014,1.3955,1.3955,0,0,0,1.0654,1.0615,1.0615,1.0615,1.0586,1.0586,1.0586,1.0586,1.0547,1.0518,1.0518,1.0518,1.0547,1.0518,1.0518,1.0518,1.0518,1.0518,1.0518,1.0518,1.0518,1.0518,1.0518,1.0518,1.0518,1.0518,1.0488,1.0488,1.0488,1.0488,1.0488,1.0488,1.0488,1.0488,1.0488,1.0488,1.0488,1.0488,1.0459,1.0459,1.0459,1.0459,1.0459,1.0459,1.0459,1.0459,1.0459,1.0488,1.0488,1.0488,1.0459,1.0488,1.0488,1.0488,1.0488,1.0459,1.0459,1.0459,1.0459,1.0459,1.042,1.042,1.0391,1.0391,1.042,1.0391,1.0391,1.0391,1.0391,1.0391,1.0391,1.0391,1.0391,1.0391,1.0391,1.0391,1.0391,1.0391,1.0391,1.0391,1.0391,1.0391,1.042,1.042,1.042,1.042,1.042,1.042,1.0391,1.042,1.042,1.0391,1.0391,1.0391,1.0391,1.0391,1.0391,1.0391,1.0391,1.0391,1.0391,1.0361,1.0361,1.0332,1.0332,1.0332,1.0361,1.0361,1.0332,1.0332,1.0332,1.0332,1.0332,1.0332,1.0332,1.0332,1.0332,1.0303,1.0303,1.0303,1.0303,1.0303,1.0303,1.0264,1.0303,1.0264,1.0264,1.0264,1.0264,1.0303,1.0303,1.0303,1.0303,1.0303,1.0303,1.0303,1.0303,1.0273,1.0273,1.0273,1.0273,1.0273,1.0273,1.0273,1.0273,1.0234,1.0234,1.0234,1.0234,1.0303,1.0273,1.0273,1.0273,1.0273,1.0273,1.0234,1.0234,1.0205,1.0205,1.0234,1.0234,1.0234,1.0234,1.0234,1.0205,0,0,0,0,0,0,0,0,0,0,0,0,0,0,0,0,0,0,0,0,0,0,0,0,0,0,0,0,0,0,0,0,0
1.0742,1.0742,1.0742,1.0771,1.0771,1.0771,1.0771,1.0811,1.0811,1.084,1.084,1.084,1.0879,1.0879,1.0879,1.0879,1.0908,1.0908,1.0908,1.0947,1.0908,1.0908,1.0986,1.1016,1.0986,1.1016,1.1016,1.1016,1.1016,1.1025,1.1055,1.1055,1.1094,1.1094,1.1094,1.1133,1.1133,1.1172,1.1172,1.1172,1.1172,1.1172,1.1172,1.1201,1.1201,1.1201,1.124,1.124,1.124,1.1279,1.1318,1.1318,1.1318,1.1318,1.1357,1.1318,1.1357,1.1357,1.1357,1.1396,1.1396,1.1436,1.1436,1.1436,1.1436,1.1436,1.1475,1.1475,1.1475,1.1514,1.1553,1.1553,1.1553,1.1553,1.1553,1.1553,1.1592,1.1592,1.1631,1.167,1.167,1.167,1.167,1.1709,1.1709,1.1709,1.1719,1.1709,1.1758,1.1758,1.1797,1.1797,1.1836,1.1836,1.1836,1.1836,1.1836,1.1836,1.1836,1.1875,1.1875,1.1875,1.1875,1.1924,1.1924,1.1963,1.1963,1.2012,1.2012,1.2012,1.2012,1.2012,1.2051,1.2051,1.2051,1.209,1.209,1.209,1.209,1.209,1.209,1.2139,1.2139,1.2178,1.2178,1.2178,1.2227,1.2227,1.2227,1.2227,1.2275,1.2275,1.2275,1.2314,1.2275,1.2314,1.2314,1.2363,1.2363,1.2363,1.2363,1.2451,1.2451,1.2451,1.25,1.25,1.2549,1.2549,1.2549,1.2549,1.2549,1.2598,1.2598,1.2598,1.2637,1.2637,1.2686,1.2686,1.2686,1.2686,1.2734,1.2686,1.2686,1.2734,1.2734,1.2783,1.2783,1.2783,1.2832,1.2832,1.2832,1.2832,1.2881,1.2832,1.2881,1.293,1.293,1.2979,1.2979,1.2979,1.2979,1.2979,1.2979,1.3037,1.3037,1.3037,1.3037,1.3037,1.3086,1.3086,1.3086,1.3135,1.3135,1.3184,1.3184,1.3184,1.3184,1.3184,1.3242,1.3242,1.3242,1.3242,1.3242,1.3242,1.3242,1.3291,1.3291,1.3291,1.335,1.3398,1.3447,1.3447,1.3447,1.3447,1.3447,1.3506,1.3506,1.3506,1.3506,1.3506,1.3506,1.3564,1.3564,1.3564,1.3613,1.3613,1.3672,1.3672,1.3672,1.3672,1.373,1.373,1.373,1.373,1.3779,1.3779,1.3779,1.3838,1.3838,1.3838,1.3896,1.3896,1.3896,1.3896,1.3896,1.3896,1.3955,1.3955,1.3955,1.3955,1.3955,1.3955,1.4014,1.4014,1.4014,1.4072,1.4072,1.4072,1.4072,1.4014,1.3955,0,0,0,0,1.0615,1.0615,1.0615,1.0615,1.0586,1.0586,1.0586,1.0547,1.0547,1.0547,1.0518,1.0518,1.0557,1.0518,1.0518,1.0518,1.0518,1.0518,1.0518,1.0518,1.0518,1.0518,1.0518,1.0518,1.0518,1.0518,1.0488,1.0488,1.0488,1.0488,1.0488,1.0488,1.0488,1.0518,1.0518,1.0488,1.0488,1.0488,1.0459,1.0459,1.0459,1.0459,1.0459,1.0459,1.0459,1.0459,1.0459,1.0459,1.0488,1.0459,1.0459,1.0488,1.0488,1.0488,1.0488,1.0459,1.0459,1.0459,1.0459,1.0459,1.042,1.042,1.0391,1.042,1.042,1.0391,1.0391,1.0391,1.0391,1.0391,1.0391,1.0391,1.0391,1.0391,1.0391,1.0391,1.0391,1.0391,1.0391,1.0391,1.0361,1.0391,1.0391,1.043,1.043,1.043,1.043,1.043,1.0391,1.043,1.043,1.0391,1.0391,1.0391,1.0391,1.0391,1.0391,1.0391,1.0391,1.0391,1.0391,1.0361,1.0361,1.0361,1.0361,1.0361,1.0361,1.0361,1.0332,1.0332,1.0332,1.0332,1.0332,1.0332,1.0332,1.0332,1.0332,1.0303,1.0303,1.0303,1.0303,1.0303,1.0303,1.0264,1.0303,1.0303,1.0273,1.0273,1.0273,1.0273,1.0273,1.0303,1.0273,1.0303,1.0303,1.0303,1.0303,1.0273,1.0273,1.0273,1.0273,1.0273,1.0273,1.0273,1.0273,1.0234,1.0234,1.0234,1.0234,1.0303,1.0273,1.0273,1.0273,1.0273,1.0273,1.0234,1.0234,1.0205,1.0205,1.0205,1.0205,1.0205,1.0205,1.0205,1.0205,0,0,0,0,0,0,0,0,0,0,0,0,0,0,0,0,0,0,0,0,0,0,0,0,0,0,0,0,0,0,0,0,0
1.0742,1.0742,1.0742,1.0771,1.0771,1.0771,1.0771,1.0811,1.0811,1.084,1.084,1.084,1.0879,1.0879,1.0879,1.0879,1.0918,1.0918,1.0918,1.0947,1.0918,1.0918,1.1025,1.1025,1.1025,1.1025,1.1025,1.1025,1.1025,1.1055,1.1055,1.1055,1.1094,1.1094,1.1133,1.1133,1.1133,1.1172,1.1172,1.1172,1.1172,1.1172,1.1172,1.1201,1.1201,1.1201,1.124,1.124,1.1279,1.1279,1.1318,1.1318,1.1318,1.1318,1.1357,1.1318,1.1357,1.1357,1.1396,1.1396,1.1436,1.1436,1.1436,1.1436,1.1475,1.1475,1.1475,1.1475,1.1475,1.1514,1.1553,1.1553,1.1553,1.1553,1.1553,1.1592,1.1592,1.1592,1.1631,1.167,1.167,1.167,1.167,1.1719,1.1719,1.1719,1.1719,1.1719,1.1758,1.1758,1.1797,1.1797,1.1836,1.1836,1.1836,1.1836,1.1836,1.1836,1.1836,1.1836,1.1885,1.1885,1.1885,1.1924,1.1924,1.1963,1.1963,1.2012,1.2012,1.2012,1.2012,1.2012,1.2051,1.2051,1.2051,1.209,1.209,1.209,1.209,1.2139,1.209,1.2139,1.2139,1.2178,1.2178,1.2178,1.2227,1.2227,1.2275,1.2227,1.2275,1.2275,1.2275,1.2314,1.2314,1.2314,1.2363,1.2363,1.2363,1.2363,1.2363,1.2451,1.2451,1.2451,1.2451,1.25,1.2549,1.2549,1.2549,1.2549,1.2598,1.2598,1.2598,1.2637,1.2637,1.2637,1.2686,1.2686,1.2686,1.2734,1.2734,1.2734,1.2686,1.2734,1.2783,1.2783,1.2783,1.2783,1.2832,1.2832,1.2832,1.2881,1.2881,1.2881,1.2881,1.293,1.293,1.2988,1.2988,1.2988,1.3037,1.3037,1.3037,1.3037,1.3037,1.3037,1.3037,1.3037,1.3086,1.3086,1.3135,1.3135,1.3135,1.3184,1.3184,1.3184,1.3184,1.3184,1.3242,1.3242,1.3242,1.3242,1.3242,1.3242,1.3291,1.3291,1.335,1.335,1.3398,1.3398,1.3457,1.3457,1.3457,1.3457,1.3506,1.3506,1.3506,1.3506,1.3506,1.3506,1.3564,1.3564,1.3564,1.3564,1.3613,1.3613,1.3672,1.3672,1.373,1.373,1.373,1.373,1.3779,1.3789,1.3789,1.3789,1.3838,1.3838,1.3838,1.3896,1.3896,1.3896,1.3896,1.3896,1.3896,1.3955,1.3955,1.3955,1.3955,1.3955,1.4014,1.4014,1.4014,1.4014,1.4014,1.4072,1.4014,1.4072,1.4014,1.4014,1.3955,0,0,0,1.0615,1.0615,1.0615,1.0615,1.0586,1.0586,1.0586,1.0586,1.0586,1.0557,1.0557,1.0518,1.0518,1.0518,1.0518,1.0518,1.0518,1.0518,1.0518,1.0518,1.0518,1.0518,1.0518,1.0518,1.0518,1.0518,1.0518,1.0488,1.0488,1.0488,1.0488,1.0488,1.0488,1.0488,1.0488,1.0488,1.0488,1.0488,1.0488,1.0459,1.0459,1.0459,1.0459,1.0459,1.0459,1.0459,1.0459,1.0459,1.0459,1.0459,1.0459,1.0459,1.0459,1.0488,1.0488,1.0488,1.0459,1.042,1.0459,1.042,1.042,1.042,1.042,1.042,1.042,1.042,1.0391,1.0391,1.0391,1.0391,1.0391,1.0391,1.0391,1.0391,1.0391,1.0391,1.0361,1.0361,1.0361,1.0361,1.0361,1.0361,1.0391,1.0391,1.043,1.043,1.043,1.043,1.0391,1.0391,1.043,1.0391,1.0391,1.0391,1.0391,1.0391,1.0391,1.0361,1.0361,1.0361,1.0361,1.0391,1.0361,1.0361,1.0332,1.0361,1.0361,1.0361,1.0361,1.0332,1.0332,1.0332,1.0332,1.0332,1.0332,1.0332,1.0332,1.0332,1.0303,1.0303,1.0303,1.0303,1.0303,1.0303,1.0303,1.0303,1.0303,1.0303,1.0273,1.0273,1.0303,1.0303,1.0303,1.0303,1.0303,1.0303,1.0303,1.0303,1.0273,1.0273,1.0273,1.0273,1.0273,1.0273,1.0273,1.0273,1.0273,1.0273,1.0234,1.0273,1.0273,1.0273,1.0273,1.0273,1.0273,1.0273,1.0234,1.0244,1.0205,1.0205,1.0244,1.0205,1.0205,1.0205,1.0205,1.0205,0,0,0,0,0,0,0,0,0,0,0,0,0,0,0,0,0,0,0,0,0,0,0,0,0,0,0,0,0,0,0,0,0
1.0742,1.0742,1.0771,1.0771,1.0771,1.0771,1.0771,1.0811,1.0811,1.084,1.084,1.084,1.0879,1.0879,1.0879,1.0879,1.0918,1.0918,1.0947,1.0947,1.0918,1.0986,1.1025,1.1025,1.1025,1.1025,1.1025,1.1025,1.1055,1.1055,1.1055,1.1055,1.1094,1.1094,1.1133,1.1133,1.1172,1.1172,1.1172,1.1172,1.1172,1.1172,1.1172,1.1201,1.1201,1.124,1.124,1.124,1.1279,1.1318,1.1318,1.1357,1.1357,1.1357,1.1357,1.1357,1.1357,1.1357,1.1396,1.1436,1.1436,1.1436,1.1436,1.1475,1.1475,1.1475,1.1475,1.1475,1.1475,1.1514,1.1553,1.1553,1.1553,1.1592,1.1553,1.1592,1.1592,1.1631,1.167,1.167,1.167,1.167,1.1719,1.1719,1.1719,1.1719,1.1719,1.1719,1.1758,1.1758,1.1797,1.1836,1.1836,1.1836,1.1836,1.1836,1.1836,1.1885,1.1836,1.1885,1.1885,1.1885,1.1924,1.1924,1.1963,1.2012,1.2012,1.2012,1.2012,1.2012,1.2012,1.2012,1.2012,1.2051,1.2051,1.21,1.21,1.21,1.2139,1.2139,1.21,1.2139,1.2188,1.2188,1.2227,1.2227,1.2227,1.2275,1.2275,1.2275,1.2275,1.2275,1.2275,1.2314,1.2314,1.2314,1.2363,1.2363,1.2363,1.2363,1.2363,1.2451,1.2451,1.2451,1.25,1.25,1.2549,1.2549,1.2549,1.2549,1.2598,1.2598,1.2598,1.2598,1.2646,1.2646,1.2686,1.2686,1.2686,1.2734,1.2734,1.2734,1.2734,1.2783,1.2783,1.2783,1.2783,1.2783,1.2832,1.2832,1.2832,1.2881,1.2881,1.2881,1.293,1.2988,1.2988,1.2988,1.2988,1.3037,1.3037,1.3037,1.3037,1.3037,1.3037,1.3037,1.3037,1.3037,1.3086,1.3086,1.3135,1.3135,1.3135,1.3184,1.3193,1.3193,1.3193,1.3193,1.3242,1.3242,1.3242,1.3242,1.3242,1.3291,1.3291,1.3291,1.335,1.335,1.3398,1.3398,1.3457,1.3457,1.3457,1.3457,1.3506,1.3506,1.3506,1.3506,1.3506,1.3564,1.3564,1.3564,1.3613,1.3613,1.3613,1.3613,1.3672,1.3672,1.3672,1.373,1.373,1.373,1.373,1.3789,1.3789,1.3789,1.3838,1.3838,1.3896,1.3896,1.3896,1.3896,1.3896,1.3896,1.3896,1.3955,1.3955,1.3955,1.3955,1.3955,1.4014,1.4014,1.4014,1.4072,1.4072,1.4131,1.4072,1.4072,1.4072,1.4072,0,0,0,0,1.0586,1.0615,1.0615,1.0586,1.0586,1.0586,1.0586,1.0586,1.0586,1.0557,1.0557,1.0518,1.0518,1.0518,1.0518,1.0518,1.0518,1.0518,1.0518,1.0518,1.0518,1.0518,1.0518,1.0518,1.0518,1.0518,1.0518,1.0488,1.0488,1.0488,1.0488,1.0488,1.0488,1.0488,1.0488,1.0488,1.0488,1.0488,1.0488,1.0459,1.0459,1.0459,1.0459,1.0459,1.0459,1.0488,1.0488,1.0459,1.0459,1.0459,1.0459,1.0459,1.0459,1.0459,1.0459,1.0488,1.0459,1.0459,1.0459,1.0459,1.0459,1.0459,1.042,1.042,1.042,1.043,1.0391,1.0391,1.0391,1.0391,1.0391,1.0391,1.0391,1.0391,1.0391,1.0391,1.0391,1.0361,1.0361,1.0361,1.0361,1.0361,1.0391,1.0391,1.043,1.043,1.043,1.043,1.0391,1.0391,1.043,1.0391,1.0391,1.0391,1.0391,1.0391,1.0391,1.0361,1.0361,1.0361,1.0361,1.0391,1.0361,1.0361,1.0332,1.0361,1.0361,1.0361,1.0361,1.0332,1.0332,1.0361,1.0332,1.0332,1.0332,1.0332,1.0332,1.0303,1.0303,1.0303,1.0303,1.0303,1.0303,1.0303,1.0303,1.0303,1.0303,1.0303,1.0303,1.0303,1.0303,1.0303,1.0303,1.0303,1.0303,1.0303,1.0303,1.0303,1.0273,1.0273,1.0273,1.0273,1.0273,1.0273,1.0273,1.0273,1.0244,1.0244,1.0244,1.0244,1.0273,1.0273,1.0273,1.0273,1.0244,1.0244,1.0244,1.0244,1.0205,1.0205,1.0244,1.0205,1.0205,1.0205,1.0205,1.0205,0,0,0,0,0,0,0,0,0,0,0,0,0,0,0,0,0,0,0,0,0,0,0,0,0,0,0,0,0,0,0,0,0
1.0742,1.0742,1.0771,1.0771,1.0771,1.0771,1.0811,1.0811,1.084,1.084,1.084,1.0879,1.0879,1.0918,1.0918,1.0918,1.0918,1.0918,1.0947,1.0918,1.0918,1.1025,1.1025,1.1025,1.1025,1.1025,1.1055,1.1055,1.1055,1.1055,1.1055,1.1055,1.1094,1.1133,1.1133,1.1133,1.1172,1.1172,1.1172,1.1172,1.1172,1.1172,1.1201,1.1211,1.1211,1.124,1.124,1.1279,1.1318,1.1318,1.1318,1.1357,1.1357,1.1357,1.1357,1.1357,1.1357,1.1396,1.1436,1.1436,1.1475,1.1475,1.1475,1.1475,1.1475,1.1475,1.1475,1.1514,1.1514,1.1514,1.1553,1.1553,1.1592,1.1592,1.1592,1.1592,1.1631,1.1631,1.167,1.167,1.167,1.167,1.1719,1.1719,1.1719,1.1719,1.1719,1.1719,1.1758,1.1797,1.1797,1.1836,1.1836,1.1836,1.1836,1.1885,1.1885,1.1885,1.1885,1.1885,1.1885,1.1924,1.1924,1.1963,1.1963,1.2012,1.2012,1.2012,1.2012,1.2012,1.2012,1.2012,1.2051,1.2051,1.2051,1.21,1.21,1.21,1.2139,1.2139,1.2139,1.2139,1.2188,1.2188,1.2227,1.2227,1.2227,1.2275,1.2275,1.2275,1.2275,1.2314,1.2275,1.2314,1.2314,1.2314,1.2363,1.2363,1.2363,1.2363,1.2412,1.2451,1.2451,1.25,1.25,1.2549,1.2549,1.2549,1.2549,1.2598,1.2598,1.2598,1.2598,1.2598,1.2646,1.2646,1.2686,1.2686,1.2686,1.2734,1.2734,1.2734,1.2734,1.2783,1.2783,1.2783,1.2832,1.2832,1.2832,1.2832,1.2832,1.2881,1.2881,1.2881,1.2939,1.2988,1.2988,1.2988,1.3037,1.3037,1.3037,1.3037,1.3037,1.3037,1.3037,1.3037,1.3037,1.3037,1.3037,1.3086,1.3135,1.3135,1.3135,1.3193,1.3193,1.3242,1.3242,1.3242,1.3242,1.3242,1.3242,1.3242,1.3242,1.3291,1.3291,1.3291,1.335,1.335,1.3398,1.3398,1.3457,1.3457,1.3457,1.3457,1.3506,1.3506,1.3506,1.3506,1.3564,1.3564,1.3564,1.3613,1.3613,1.3613,1.3613,1.3672,1.3672,1.3672,1.373,1.373,1.373,1.373,1.3789,1.3789,1.3789,1.3789,1.3838,1.3838,1.3896,1.3896,1.3896,1.3896,1.3896,1.3955,1.3896,1.3955,1.3955,1.3955,1.3955,1.4014,1.4014,1.4014,1.4014,1.4072,1.4072,1.4131,1.4072,1.4072,1.4072,1.4014,0,0,0,0,1.0615,1.0615,1.0615,1.0586,1.0586,1.0586,1.0586,1.0586,1.0586,1.0557,1.0557,1.0518,1.0518,1.0518,1.0518,1.0518,1.0518,1.0518,1.0518,1.0518,1.0518,1.0518,1.0518,1.0518,1.0518,1.0488,1.0488,1.0488,1.0488,1.0488,1.0488,1.0488,1.0488,1.0488,1.0488,1.0488,1.0488,1.0488,1.0488,1.0459,1.0459,1.0459,1.0459,1.0459,1.0459,1.0459,1.0459,1.0459,1.0459,1.0459,1.0488,1.0459,1.0459,1.0459,1.0459,1.0459,1.0459,1.0459,1.0459,1.0459,1.0459,1.0459,1.043,1.043,1.043,1.0459,1.043,1.0391,1.0391,1.0391,1.0391,1.0391,1.0361,1.0361,1.0361,1.0391,1.0361,1.0361,1.0361,1.0361,1.0361,1.0391,1.043,1.043,1.043,1.043,1.043,1.043,1.0391,1.0391,1.0391,1.0391,1.0391,1.0391,1.0391,1.0391,1.0391,1.0361,1.0361,1.0361,1.0361,1.0361,1.0332,1.0332,1.0332,1.0361,1.0361,1.0361,1.0332,1.0332,1.0332,1.0332,1.0332,1.0303,1.0303,1.0303,1.0332,1.0332,1.0303,1.0303,1.0303,1.0303,1.0303,1.0303,1.0303,1.0303,1.0303,1.0303,1.0273,1.0273,1.0273,1.0303,1.0273,1.0273,1.0303,1.0273,1.0273,1.0273,1.0273,1.0273,1.0273,1.0273,1.0273,1.0273,1.0273,1.0273,1.0244,1.0244,1.0244,1.0244,1.0273,1.0273,1.0273,1.0273,1.0244,1.0273,1.0244,1.0244,1.0205,1.0205,1.0205,1.0205,1.0205,1.0205,1.0205,1.0205,0,0,0,0,0,0,0,0,0,0,0,0,0,0,0,0,0,0,0,0,0,0,0,0,0,0,0,0,0,0,0,0,0
1.0742,1.0742,1.0771,1.0771,1.0771,1.0771,1.0811,1.084,1.084,1.0879,1.0879,1.0879,1.0879,1.0918,1.0918,1.0918,1.0918,1.0918,1.0947,1.0986,1.1025,1.1025,1.1025,1.1025,1.1025,1.1055,1.1055,1.1055,1.1055,1.1055,1.1055,1.1055,1.1094,1.1094,1.1172,1.1172,1.1172,1.1172,1.1172,1.1172,1.1172,1.1172,1.1172,1.1211,1.1211,1.124,1.124,1.1318,1.1318,1.1318,1.1357,1.1357,1.1357,1.1357,1.1357,1.1357,1.1357,1.1396,1.1436,1.1475,1.1475,1.1475,1.1475,1.1475,1.1475,1.1475,1.1475,1.1514,1.1514,1.1514,1.1553,1.1592,1.1592,1.1631,1.1592,1.1631,1.1631,1.1631,1.167,1.167,1.1719,1.1719,1.1719,1.1719,1.1719,1.1719,1.1719,1.1719,1.1758,1.1797,1.1797,1.1836,1.1836,1.1836,1.1885,1.1885,1.1885,1.1885,1.1885,1.1885,1.1924,1.1924,1.1924,1.1963,1.1963,1.2012,1.2012,1.2012,1.2012,1.2012,1.2012,1.2012,1.2051,1.2051,1.2051,1.21,1.21,1.21,1.2139,1.2139,1.2139,1.2188,1.2188,1.2227,1.2227,1.2227,1.2227,1.2275,1.2275,1.2275,1.2275,1.2314,1.2275,1.2314,1.2314,1.2314,1.2363,1.2363,1.2363,1.2412,1.2412,1.2451,1.2451,1.25,1.25,1.2549,1.2549,1.2598,1.2598,1.2598,1.2598,1.2598,1.2598,1.2598,1.2646,1.2646,1.2695,1.2695,1.2695,1.2734,1.2734,1.2734,1.2734,1.2783,1.2783,1.2783,1.2832,1.2832,1.2832,1.2832,1.2891,1.2891,1.2891,1.2939,1.2939,1.2988,1.2988,1.2988,1.2988,1.3037,1.3037,1.3037,1.3037,1.3037,1.3037,1.3037,1.3037,1.3086,1.3086,1.3086,1.3135,1.3193,1.3135,1.3193,1.3242,1.3242,1.3242,1.3242,1.3242,1.3242,1.3242,1.3242,1.3291,1.3291,1.3291,1.3291,1.335,1.335,1.3398,1.3398,1.3457,1.3457,1.3457,1.3506,1.3506,1.3506,1.3506,1.3506,1.3506,1.3564,1.3613,1.3613,1.3613,1.3613,1.3672,1.3672,1.3672,1.3672,1.373,1.373,1.3789,1.3789,1.3789,1.3789,1.3789,1.3838,1.3838,1.3848,1.3896,1.3896,1.3896,1.3896,1.3955,1.3955,1.3955,1.3955,1.3955,1.3955,1.4014,1.4014,1.4014,1.4014,1.4072,1.4131,1.4072,1.4131,1.4131,1.4072,1.4072,1.4072,0,0,0,0,1.0615,1.0615,1.0615,1.0586,1.0586,1.0586,1.0586,1.0586,1.0586,1.0586,1.0557,1.0518,1.0518,1.0518,1.0518,1.0518,1.0518,1.0518,1.0518,1.0518,1.0518,1.0518,1.0518,1.0518,1.0518,1.0518,1.0518,1.0488,1.0518,1.0518,1.0518,1.0518,1.0488,1.0518,1.0488,1.0488,1.0488,1.0488,1.0488,1.0488,1.0459,1.0459,1.0459,1.0459,1.0459,1.0459,1.0459,1.0488,1.0459,1.0488,1.0488,1.0459,1.0459,1.0459,1.0459,1.0459,1.0459,1.0459,1.0459,1.0459,1.0459,1.0459,1.043,1.043,1.043,1.0459,1.0391,1.0391,1.0391,1.0391,1.0391,1.0391,1.0361,1.0391,1.0391,1.0391,1.0391,1.0361,1.0361,1.0361,1.0361,1.0391,1.043,1.043,1.043,1.043,1.043,1.043,1.0391,1.0391,1.0391,1.0391,1.0391,1.0391,1.0391,1.0391,1.0391,1.0361,1.0361,1.0332,1.0332,1.0361,1.0332,1.0332,1.0332,1.0332,1.0361,1.0332,1.0332,1.0303,1.0332,1.0332,1.0332,1.0303,1.0303,1.0303,1.0303,1.0303,1.0303,1.0303,1.0303,1.0303,1.0303,1.0303,1.0303,1.0303,1.0303,1.0303,1.0273,1.0273,1.0273,1.0273,1.0273,1.0273,1.0273,1.0273,1.0273,1.0273,1.0273,1.0273,1.0273,1.0273,1.0273,1.0273,1.0273,1.0273,1.0244,1.0244,1.0244,1.0244,1.0273,1.0273,1.0273,1.0273,1.0273,1.0273,1.0273,1.0273,1.0244,1.0205,1.0244,1.0205,1.0205,1.0205,1.0215,1.0215,0,0,0,0,0,0,0,0,0,0,0,0,0,0,0,0,0,0,0,0,0,0,0,0,0,0,0,0,0,0,0,0,0
1.0771,1.0771,1.0771,1.0771,1.0771,1.0771,1.084,1.084,1.084,1.0879,1.0879,1.0879,1.0879,1.0918,1.0918,1.0918,1.0918,1.0918,1.0947,1.1025,1.1025,1.1025,1.1055,1.1055,1.1055,1.1055,1.1055,1.1055,1.1055,1.1055,1.1055,1.1055,1.1094,1.1133,1.1172,1.1172,1.1172,1.1172,1.1172,1.1172,1.1172,1.1172,1.1211,1.1211,1.124,1.124,1.1279,1.1318,1.1318,1.1357,1.1357,1.1357,1.1357,1.1357,1.1357,1.1357,1.1357,1.1436,1.1436,1.1475,1.1475,1.1475,1.1475,1.1475,1.1475,1.1475,1.1514,1.1514,1.1514,1.1514,1.1553,1.1592,1.1592,1.1631,1.1592,1.1631,1.1631,1.168,1.168,1.1719,1.1719,1.1719,1.1719,1.1719,1.1719,1.1719,1.1719,1.1758,1.1758,1.1797,1.1797,1.1836,1.1836,1.1885,1.1885,1.1885,1.1885,1.1885,1.1885,1.1885,1.1924,1.1924,1.1924,1.1963,1.1963,1.2012,1.2012,1.2012,1.2051,1.2012,1.2051,1.2051,1.2051,1.2051,1.2051,1.21,1.21,1.21,1.2139,1.2188,1.2139,1.2188,1.2227,1.2227,1.2227,1.2227,1.2275,1.2275,1.2275,1.2275,1.2275,1.2314,1.2275,1.2314,1.2314,1.2363,1.2363,1.2412,1.2363,1.2412,1.2412,1.2451,1.25,1.25,1.2549,1.2549,1.2549,1.2598,1.2598,1.2598,1.2598,1.2598,1.2598,1.2646,1.2646,1.2646,1.2646,1.2695,1.2744,1.2744,1.2744,1.2744,1.2744,1.2783,1.2793,1.2793,1.2842,1.2842,1.2842,1.2842,1.2891,1.2891,1.2891,1.2939,1.2939,1.2939,1.2988,1.2988,1.2988,1.3037,1.3037,1.3037,1.3037,1.3037,1.3037,1.3037,1.3037,1.3086,1.3037,1.3086,1.3135,1.3193,1.3193,1.3242,1.3242,1.3242,1.3242,1.3242,1.3242,1.3242,1.3242,1.3242,1.3291,1.3291,1.3291,1.335,1.335,1.335,1.3398,1.3398,1.3457,1.3457,1.3506,1.3506,1.3506,1.3506,1.3506,1.3564,1.3564,1.3623,1.3623,1.3623,1.3623,1.3672,1.3672,1.3672,1.373,1.373,1.373,1.373,1.3789,1.3789,1.3789,1.3848,1.3848,1.3848,1.3848,1.3848,1.3896,1.3896,1.3896,1.3896,1.3955,1.3955,1.3955,1.3955,1.3955,1.3955,1.4014,1.4014,1.4014,1.4072,1.4072,1.4131,1.4072,1.4131,1.4072,1.4072,1.4072,1.4072,0,0,0,1.0615,1.0615,1.0615,1.0586,1.0586,1.0586,1.0586,1.0586,1.0586,1.0557,1.0586,1.0557,1.0518,1.0518,1.0518,1.0518,1.0518,1.0518,1.0518,1.0518,1.0518,1.0518,1.0518,1.0518,1.0518,1.0518,1.0488,1.0488,1.0488,1.0488,1.0488,1.0488,1.0488,1.0488,1.0488,1.0488,1.0488,1.0488,1.0488,1.0459,1.0459,1.0459,1.0459,1.0459,1.0459,1.0459,1.0459,1.0488,1.0488,1.0488,1.0488,1.0488,1.0459,1.0459,1.0459,1.0459,1.0459,1.0459,1.0459,1.0459,1.0459,1.0459,1.043,1.043,1.043,1.043,1.043,1.043,1.0391,1.0391,1.0391,1.0391,1.0391,1.0361,1.0391,1.0391,1.0361,1.0361,1.0361,1.0361,1.0361,1.0361,1.0361,1.043,1.0391,1.0391,1.0391,1.0391,1.0391,1.0391,1.0391,1.0391,1.04,1.04,1.04,1.04,1.04,1.04,1.0361,1.0361,1.0332,1.0332,1.0361,1.0332,1.0332,1.0332,1.0332,1.0361,1.0361,1.0332,1.0332,1.0303,1.0303,1.0303,1.0303,1.0303,1.0303,1.0303,1.0303,1.0303,1.0332,1.0303,1.0303,1.0303,1.0303,1.0303,1.0303,1.0303,1.0303,1.0273,1.0273,1.0273,1.0273,1.0273,1.0273,1.0273,1.0273,1.0273,1.0273,1.0273,1.0273,1.0273,1.0273,1.0273,1.0273,1.0244,1.0244,1.0244,1.0244,1.0205,1.0244,1.0273,1.0273,1.0273,1.0273,1.0273,1.0273,1.0273,1.0273,1.0244,1.0244,1.0244,1.0244,1.0215,1.0215,1.0215,1.0215,0,0,0,0,0,0,0,0,0,0,0,0,0,0,0,0,0,0,0,0,0,0,0,0,0,0,0,0,0,0,0,0,0
1.0771,1.0771,1.0811,1.0811,1.0811,1.0771,1.085,1.085,1.0879,1.0879,1.0879,1.0918,1.0918,1.0918,1.0918,1.0947,1.0918,1.0918,1.0986,1.1025,1.1025,1.1025,1.1055,1.1055,1.1055,1.1064,1.1064,1.1064,1.1064,1.1064,1.1094,1.1094,1.1133,1.1133,1.1133,1.1172,1.1172,1.1172,1.1172,1.1172,1.1172,1.1211,1.1211,1.124,1.124,1.1279,1.1279,1.1318,1.1318,1.1357,1.1357,1.1357,1.1357,1.1357,1.1357,1.1357,1.1396,1.1475,1.1436,1.1475,1.1475,1.1475,1.1475,1.1514,1.1514,1.1514,1.1514,1.1514,1.1514,1.1514,1.1592,1.1592,1.1592,1.1631,1.1631,1.1631,1.1631,1.168,1.168,1.168,1.1719,1.1719,1.1719,1.1719,1.1719,1.1719,1.1758,1.1758,1.1797,1.1797,1.1797,1.1836,1.1836,1.1885,1.1885,1.1885,1.1885,1.1885,1.1885,1.1885,1.1924,1.1924,1.1963,1.1963,1.2012,1.2012,1.2012,1.2012,1.2051,1.2051,1.2051,1.2051,1.2051,1.2051,1.21,1.21,1.2139,1.2139,1.2188,1.2188,1.2188,1.2188,1.2227,1.2227,1.2227,1.2227,1.2275,1.2275,1.2314,1.2275,1.2314,1.2314,1.2314,1.2314,1.2314,1.2363,1.2363,1.2412,1.2412,1.2412,1.2412,1.2461,1.25,1.25,1.2549,1.2549,1.2549,1.2598,1.2598,1.2598,1.2598,1.2598,1.2598,1.2646,1.2646,1.2646,1.2695,1.2695,1.2744,1.2744,1.2744,1.2744,1.2744,1.2793,1.2793,1.2793,1.2842,1.2842,1.2842,1.2891,1.2891,1.2891,1.2891,1.2939,1.2939,1.2939,1.2988,1.2988,1.2988,1.3037,1.3037,1.3037,1.3037,1.3037,1.3037,1.3037,1.3037,1.3086,1.3037,1.3086,1.3135,1.3193,1.3193,1.3242,1.3242,1.3242,1.3242,1.3242,1.3242,1.3242,1.3291,1.3291,1.335,1.335,1.335,1.335,1.3398,1.3398,1.3398,1.3398,1.3457,1.3457,1.3506,1.3506,1.3506,1.3506,1.3506,1.3564,1.3564,1.3623,1.3623,1.3623,1.3672,1.3672,1.3672,1.3672,1.373,1.373,1.373,1.3789,1.3789,1.3848,1.3848,1.3848,1.3848,1.3896,1.3896,1.3896,1.3896,1.3896,1.3896,1.3896,1.3896,1.3955,1.3955,1.3955,1.3955,1.4014,1.4014,1.4014,1.4014,1.4072,1.4072,1.4131,1.4131,1.4131,1.4131,1.4131,1.4072,1.4141,0,0,0,0,1.0615,1.0615,1.0625,1.0586,1.0586,1.0586,1.0586,1.0586,1.0557,1.0557,1.0557,1.0518,1.0518,1.0518,1.0518,1.0518,1.0518,1.0518,1.0518,1.0518,1.0518,1.0518,1.0518,1.0518,1.0518,1.0518,1.0488,1.0488,1.0488,1.0488,1.0488,1.0488,1.0488,1.0488,1.0488,1.0488,1.0488,1.0488,1.0459,1.0459,1.0459,1.0459,1.0459,1.0459,1.0459,1.0459,1.0488,1.0488,1.0488,1.0488,1.0488,1.0488,1.0459,1.0459,1.0459,1.0459,1.0459,1.0459,1.0459,1.0459,1.0459,1.0459,1.043,1.043,1.043,1.043,1.043,1.0391,1.0391,1.0391,1.0391,1.0391,1.0391,1.0391,1.0391,1.0391,1.0391,1.0361,1.0361,1.0361,1.0361,1.0361,1.043,1.04,1.04,1.04,1.04,1.04,1.04,1.04,1.04,1.04,1.04,1.04,1.04,1.04,1.04,1.0361,1.0361,1.0332,1.0332,1.0361,1.0332,1.0332,1.0332,1.0361,1.0361,1.0361,1.0361,1.0332,1.0332,1.0303,1.0303,1.0303,1.0303,1.0303,1.0303,1.0332,1.0332,1.0303,1.0303,1.0303,1.0303,1.0303,1.0303,1.0303,1.0303,1.0303,1.0273,1.0273,1.0273,1.0273,1.0273,1.0273,1.0273,1.0273,1.0273,1.0273,1.0273,1.0273,1.0273,1.0273,1.0273,1.0273,1.0244,1.0273,1.0244,1.0244,1.0215,1.0244,1.0273,1.0273,1.0244,1.0244,1.0244,1.0244,1.0244,1.0244,1.0244,1.0244,1.0244,1.0215,1.0215,1.0215,1.0215,1.0215,0,0,0,0,0,0,0,0,0,0,0,0,0,0,0,0,0,0,0,0,0,0,0,0,0,0,0,0,0,0,0,0,0
