0,0,0,0,0,0,0,0,2.916,2.916,0,2.8906,2.916,2.916,2.9414,2.916,2.916,2.916,2.916,2.916,2.916,2.916,2.9414,2.916,2.9414,2.9414,2.9414,2.9414,2.9688,0,0,2.916,0,0,0,0,0,0,0,0,0,0,0,0,0,0,0,0,0,0,0,0,0,0,0,0,0,0,0,0,0,0,0,0,0,0,0,0,0,0,0,0,0,0,0,0,0,0,0,0,0,0,0,0,0,0,0,0,0,0,0,0,0,0,0,0,0,0,0,0,0,0,0,0,0,0,0,0,1.0449,1.0322,1.0391,1.0391,1.042,1.042,1.0449,1.0449,1.0449,1.0449,1.0449,1.0449,1.042,1.0449,1.042,1.042,1.0352,1.0352,1.0322,1.0322,1.0293,1.0293,1.0322,1.0361,1.0361,1.042,1.042,1.0449,1.0488,1.0518,1.0557,1.0557,1.0557,1.0586,1.0586,1.0625,1.0625,1.0625,1.0654,1.0654,1.0654,1.0654,1.0693,1.0693,1.0693,1.0693,1.0693,1.0723,1.0723,1.0723,1.0723,1.0723,1.0723,1.0762,1.0791,1.0791,1.083,1.083,1.083,1.083,1.083,1.083,1.083,1.0898,1.0859,1.0938,1.0967,1.0967,1.0967,1.0967,1.0967,1.0938,1.0898,1.0898,1.0859,1.0859,1.0859,1.0859,1.0938,1.1006,1.0967,1.0938,1.0938,1.0967,1.0938,1.0898,1.0898,1.0898,1.0938,1.0938,1.0938,1.0938,1.0938,1.0977,1.0938,1.0938,1.0938,1.0938,1.0938,1.0938,1.0938,1.0938,1.0938,1.0938,1.0977,1.0977,1.1006,1.0977,1.1006,1.1006,1.1006,1.1006,1.1006,1.1045,1.1045,1.1045,1.1006,1.1006,1.1006,1.0977,1.0938,1.0977,1.0977,1.0977,1.0977,1.0977,1.0977,1.1006,1.1006,1.1006,1.1006,1.1006,1.1045,1.1045,1.1016,1.0977,1.1016,0,0,0,0,0,0,0,0,0,0,0,0,0,0,0,0,0,0,0,0,0,0,0,0,0,0,0,0,0,0,0,0,0,0,0,0,0,0,0,0,0,0,0,0,0,0,0,0,0,0,0,0,0,0,0,0,0,0,0,0,0,0,0,0,0,0,0,0,0,0,0,0,0,0,0,0,0,0,0,0,0,0,0,0,0,0,0,0,0,0,0,0,0,0,0,0,0,0,0,0,0,0,0,0,0,0,0,0,0,0,0,0,0,0,0,0,0,0,0,0,0,0,0,0,0,0,0,0,0,0,0,0,0,0,0,0,0,0,0,0,0,0,0,0,0,0,0,0,0,0,0,0,0,0,0,0,0,0,0,0,0,0,0,0,0,0,0,0,0,0,0,0,0,0,0,0,0,0,0,0,0,0,0,0,0,0,0,0,0,0,0,0,0,0,0,0,0,0,0,0,0,0,0,0,0,0,0,0,0,0,0,0,0,0,0,0,0,0,0,0,0,0,0,0,0,0,0,0,0,0,0,0,0,0,0,0,0,0,0,0,0,0,0,0,0,0,0,0,0,0,0,0,0,0,0,0,0,0,0,0,0,0,0,0,0
0,0,0,0,0,0,0,0,2.916,2.916,2.916,2.916,2.916,2.916,2.9414,2.9414,2.9414,2.9414,2.916,2.916,2.916,2.916,2.9414,2.9414,2.9414,2.916,2.9414,2.9414,2.9688,2.916,2.916,2.916,2.916,2.916,2.8906,2.916,0,0,2.916,0,0,0,0,0,0,0,0,0,0,0,0,0,0,0,0,0,0,0,0,0,0,0,0,0,0,0,0,0,0,0,0,0,0,0,0,0,0,0,0,0,0,0,0,0,0,0,0,0,0,0,0,0,0,0,0,0,0,0,0,0,0,0,0,0,0,0,0,0,1.0449,1.0352,1.0449,1.042,1.042,1.042,1.0449,1.0488,1.0449,1.0488,1.0488,1.0488,1.0449,1.0449,1.0449,1.042,1.0391,1.0361,1.0322,1.0322,1.0293,1.0322,1.0322,1.0361,1.0391,1.042,1.0459,1.0459,1.0557,1.0557,1.0557,1.0557,1.0586,1.0586,1.0625,1.0654,1.0654,1.0654,1.0654,1.0654,1.0654,1.0654,1.0693,1.0693,1.0693,1.0723,1.0723,1.0723,1.0723,1.0723,1.0723,1.0723,1.0723,1.0762,1.0762,1.0791,1.083,1.083,1.083,1.083,1.083,1.083,1.0859,1.0898,1.0938,1.1006,1.1006,1.1006,1.1006,1.0967,1.0967,1.0938,1.0938,1.0898,1.0869,1.0869,1.0869,1.0869,1.0898,1.0898,1.0977,1.0977,1.0938,1.0977,1.0938,1.0898,1.0898,1.0898,1.0938,1.0938,1.0977,1.0977,1.0977,1.0977,1.0977,1.0977,1.0938,1.0977,1.0977,1.0938,1.0938,1.0938,1.0938,1.0938,1.0977,1.0977,1.1006,1.0977,1.0977,1.1006,1.1006,1.1006,1.1006,1.1045,1.1045,1.1045,1.1006,1.1006,1.1006,1.0977,1.0977,1.0977,1.0977,1.0977,1.0977,1.0977,1.1016,1.1016,1.1016,1.1016,1.1016,1.1016,1.1045,1.1045,1.1045,1.1016,1.1016,1.1016,1.1045,1.1045,1.1045,1.1045,1.1045,1.1045,1.1084,1.1084,1.1084,1.1084,1.1084,1.1084,1.1084,1.1084,1.1084,1.1123,1.1162,1.1162,1.1162,1.1123,1.1123,1.1123,1.1123,1.1123,1.1084,1.1084,1.1123,1.1123,1.1123,1.1123,1.1123,1.1123,1.1123,1.1084,1.1084,1.1084,1.1123,1.1123,1.1123,1.1123,1.1162,1.1162,1.1201,1.1201,1.1201,1.1201,1.1201,1.1201,1.1162,1.1201,1.1201,1.1201,1.1201,1.1201,1.1201,1.1201,1.1162,0,0,0,0,0,0,0,0,0,0,0,0,0,0,0,0,0,0,0,0,0,0,0,0,0,0,0,0,0,0,0,0,0,0,0,0,0,0,0,0,0,0,0,0,0,0,0,0,0,0,0,0,0,0,0,0,0,0,0,0,0,0,0,0,0,0,0,0,0,0,0,0,0,0,0,0,0,0,0,0,0,0,0,0,0,0,0,0,0,0,0,0,0,0,0,0,0,0,0,0,0,0,0,0,0,0,0,0,0,0,0,0,0,0,0,0,0,0,0,0,0,0,0,0,0,0,0,0,0,0,0,0,0,0,0,0,0,0,0,0,0,0,0,0,0,0,0,0,0,0,0,0,0,0,0,0,0,0,0,0,0,0,0,0,0,0,0,0,0,0,0,0,0,0,0,0,0,0,0,0,0,0,0,0,0,0,0,0,0,0,0,0,0,0,0,0,0,0,0,0,0,0,0,0,0,0,0
0,0,0,0,0,0,0,3.1074,2.9414,2.9414,2.9414,2.9414,2.9414,2.9414,2.9688,2.9414,2.9688,2.9414,2.9414,2.9414,2.916,2.916,2.916,2.9414,2.9414,2.9414,2.9414,2.9414,2.9414,2.9414,2.9434,2.916,2.9434,2.9434,2.916,2.9688,2.9688,2.9434,0,0,0,0,0,0,0,0,0,0,0,0,0,0,0,0,0,0,0,0,0,0,0,0,0,0,0,0,0,0,0,0,0,0,0,0,0,0,0,0,0,0,0,0,0,0,0,0,0,0,0,0,0,0,0,0,0,0,0,0,0,0,0,0,0,0,0,0,0,0,1.0391,1.042,1.042,1.042,1.0449,1.0449,1.0449,1.0488,1.0488,1.0518,1.0518,1.0518,1.0488,1.0488,1.0449,1.0449,1.0449,1.0391,1.0361,1.0361,1.0322,1.0322,1.0361,1.0361,1.0391,1.0459,1.0459,1.0518,1.0557,1.0586,1.0586,1.0586,1.0586,1.0625,1.0654,1.0654,1.0654,1.0654,1.0654,1.0654,1.0654,1.0693,1.0723,1.0723,1.0723,1.0723,1.0723,1.0762,1.0762,1.0762,1.0762,1.0762,1.0762,1.0791,1.0791,1.0791,1.083,1.083,1.083,1.083,1.083,1.0869,1.0898,1.0938,1.0938,1.0977,1.1006,1.0977,1.1006,1.0977,1.0977,1.0977,1.0938,1.0898,1.0898,1.0869,1.0869,1.0869,1.0898,1.0898,1.0977,1.0977,1.0898,1.0938,1.0938,1.0898,1.0938,1.0898,1.0938,1.0977,1.0977,1.1006,1.0977,1.1006,1.1006,1.1006,1.1006,1.0977,1.0977,1.0938,1.0938,1.0938,1.0938,1.0938,1.0938,1.0977,1.0977,1.0977,1.0977,1.1006,1.1006,1.1006,1.1045,1.1045,1.1045,1.1045,1.1045,1.1006,1.1045,1.1016,1.1016,1.1016,1.0977,1.0977,1.1016,1.1016,1.1016,1.1016,1.1016,1.1016,1.1016,1.1045,1.1045,1.1045,1.1045,1.1045,1.1045,1.1045,1.1045,1.1045,1.1045,1.1045,1.1045,1.1045,1.1045,1.1045,1.1084,1.1084,1.1084,1.1045,1.1084,1.1084,1.1084,1.1123,1.1162,1.1162,1.1162,1.1123,1.1123,1.1123,1.1123,1.1123,1.1084,1.1123,1.1123,1.1123,1.1123,1.1162,1.1162,1.1162,1.1162,1.1123,1.1123,1.1123,1.1123,1.1123,1.1123,1.1123,1.1162,1.1201,1.1201,1.1201,1.1201,1.1201,1.1201,1.1201,1.1162,1.1201,1.1162,1.1162,1.1162,1.1162,1.1162,1.1201,1.1162,1.1162,1.1123,1.1201,1.1162,1.1162,1.1162,1.1201,1.1201,1.1162,1.1201,1.1201,1.1201,1.1201,1.1201,1.1201,1.1162,1.1201,1.1162,1.1201,1.1162,1.1201,1.1201,1.1201,1.1201,1.1201,1.1201,1.1201,1.1201,1.1201,1.1201,1.1201,1.1201,1.1201,1.1201,1.1201,1.124,1.124,1.124,1.124,1.124,1.124,1.124,1.124,1.124,1.124,1.1201,1.124,1.124,0,0,0,0,0,0,0,0,0,0,0,0,0,0,0,0,0,0,0,0,0,0,0,0,0,0,0,0,0,0,0,0,0,0,0,0,0,0,0,0,0,0,0,0,0,0,0,0,0,0,0,0,0,0,0,0,0,0,0,0,0,0,0,0,0,0,0,0,0,0,0,0,0,0,0,0,0,0,0,0,0,0,0,0,0,0,0,0,0,0,0,0,0,0,0,0,0,0,0,0,0,0,0,0,0,0,0,0,0,0,0,0,0,0,0,0,0,0,0,0,0,0,0,0,0,0,0,0,0,0,0,0,0,0,0,0,0,0,0,0,0,0,0,0,0,0,0,0,0,0,0,0,0,0,0,0,0,0,0
0,0,0,0,0,0,0,0,2.9414,2.9414,2.9688,2.9414,2.9414,2.9688,2.9688,2.9414,2.9688,2.9414,2.9414,2.9414,2.916,2.9414,2.9688,2.9434,2.9434,2.9434,2.9434,2.9434,2.9688,2.9434,2.9434,2.9434,2.9434,2.9688,2.9688,2.9434,2.9688,2.9434,2.9434,0,0,0,0,0,0,0,0,0,0,0,0,0,0,0,0,0,0,0,0,0,0,0,0,0,0,0,0,0,0,0,0,0,0,0,0,0,0,0,0,0,0,0,0,0,0,0,0,0,0,0,0,0,0,0,0,0,0,0,0,0,0,0,0,0,0,0,0,0,1.042,1.042,1.042,1.042,1.0449,1.0449,1.0488,1.0518,1.0518,1.0518,1.0518,1.0518,1.0488,1.0488,1.0488,1.0459,1.0459,1.042,1.0391,1.0391,1.0322,1.0322,1.0361,1.0391,1.042,1.0518,1.0518,1.0557,1.0586,1.0586,1.0586,1.0586,1.0625,1.0625,1.0654,1.0654,1.0654,1.0654,1.0693,1.0693,1.0693,1.0693,1.0723,1.0723,1.0723,1.0723,1.0762,1.0762,1.0791,1.0762,1.0791,1.0791,1.0791,1.0791,1.083,1.083,1.083,1.083,1.083,1.083,1.0869,1.0869,1.0869,1.0938,1.0977,1.0977,1.1006,1.0977,1.0977,1.0977,1.0977,1.0977,1.0938,1.0898,1.0898,1.0898,1.0869,1.0869,1.0898,1.0938,1.0898,1.0977,1.0898,0,1.0938,1.0938,1.0938,1.0938,1.0938,1.0977,1.0977,1.0977,1.0977,1.0977,1.1006,1.0977,1.0977,1.0977,1.0977,1.0938,1.0977,1.0977,1.0977,1.0938,1.0938,1.0977,1.0977,1.0977,1.0977,1.1006,1.1006,1.1006,1.1016,1.1016,1.1016,1.1045,1.1045,1.1016,1.1045,1.1016,1.1016,1.1016,1.1016,1.1016,1.1016,1.1045,1.1045,1.1016,1.1016,1.1016,1.1045,1.1045,1.1084,1.1045,1.1045,1.1045,1.1045,1.1045,1.1045,1.1045,1.1045,1.1045,1.1045,1.1045,1.1045,1.1084,1.1045,1.1045,1.1084,1.1045,1.1045,1.1084,1.1084,1.1084,1.1162,1.1162,1.1123,1.1123,1.1123,1.1123,1.1123,1.1123,1.1123,1.1123,1.1162,1.1162,1.1162,1.1162,1.1162,1.1162,1.1162,1.1123,1.1123,1.1123,1.1123,1.1123,1.1162,1.1162,1.1201,1.1201,1.1201,1.1201,1.1201,1.1201,1.1201,1.1201,1.1162,1.1162,1.1162,1.1201,1.1201,1.1201,1.1201,1.1162,1.1162,1.1162,1.1123,1.1162,1.1162,1.1162,1.1201,1.1201,1.1162,1.1162,1.1162,1.1162,1.1201,1.1201,1.1201,1.1201,1.1201,1.1201,1.1201,1.1201,1.1201,1.1162,1.1201,1.1201,1.1201,1.1201,1.1201,1.1201,1.1201,1.1201,1.1201,1.1201,1.1201,1.1201,1.124,1.1201,1.124,1.124,1.124,1.124,1.124,1.124,1.124,1.124,1.124,1.124,1.1201,1.124,1.124,1.1201,1.1201,1.124,1.124,1.124,1.124,1.124,1.124,1.124,1.1201,1.1201,1.1201,1.1201,1.124,1.124,1.124,1.1279,1.124,1.124,1.124,1.124,1.124,1.124,1.124,1.1279,1.1279,1.1279,1.1279,1.1279,1.1279,1.124,1.124,1.1279,1.1279,1.1279,1.1279,1.1318,1.1318,1.1318,1.1318,1.1318,1.1357,1.1357,0,0,0,0,0,0,0,0,0,0,0,0,0,0,0,0,0,0,0,0,0,0,0,0,0,0,0,0,0,0,0,0,0,0,0,0,0,0,0,0,0,0,0,0,0,0,0,0,0,0,0,0,0,0,0,0,0,0,0,0,0,0,0,0,0,0,0,0,0,0,0,0,0,0,0,0,0,0,0,0,0,0,0,0,0,0,0,0,0,0,0,0,0,0,0,0,0,0,0,0,0,0,0,0,0,0,0,0,0,0,0,0,0,0,0,0
0,0,0,0,0,0,0,3.0508,3.0508,2.9961,3.0215,2.9961,2.9961,2.9961,2.9961,2.9434,2.9434,2.9434,2.9434,2.9434,2.9434,2.9434,2.9434,2.9434,2.9434,2.9434,2.9434,2.9434,2.9434,2.9434,2.9434,2.916,2.9434,2.9961,2.9688,2.9434,2.9434,2.9434,2.918,2.918,0,0,0,0,0,0,0,0,0,0,0,0,0,0,0,0,0,0,0,0,0,0,0,0,0,0,0,0,0,0,0,0,0,0,0,0,0,0,0,0,0,0,0,0,0,0,0,0,0,0,0,0,0,0,0,0,0,0,0,0,0,0,0,0,0,0,0,0,0,1.042,1.0459,1.0459,1.0518,1.0518,1.0518,1.0518,1.0518,1.0518,1.0518,1.0518,1.0488,1.0488,1.0459,1.0459,1.0459,1.042,1.0391,1.0391,1.0361,1.0361,1.0391,1.0459,1.0488,1.0518,1.0557,1.0557,1.0557,1.0557,1.0586,1.0625,1.0625,1.0625,1.0654,1.0654,1.0693,1.0693,1.0693,1.0693,1.0693,1.0693,1.0723,1.0723,1.0723,1.0723,1.0723,1.0762,1.0762,1.0762,1.0762,1.0791,1.0791,1.0791,1.083,1.083,1.083,1.083,1.083,1.083,1.0869,1.0869,1.0977,1.0977,1.1006,1.1006,1.1006,1.0977,1.0977,1.0977,1.0977,1.0977,1.0938,1.0898,1.0898,1.0898,1.0898,1.0869,1.0938,1.0938,1.0898,1.0938,1.0938,1.0938,1.0938,1.0938,1.0977,1.0977,1.0977,1.0977,1.0977,1.1006,1.1006,1.1006,1.1006,1.1006,1.1006,1.1006,1.1006,1.0977,1.1006,1.1006,1.0977,1.0977,1.0938,1.0977,1.0977,1.0977,1.0977,1.1016,1.1016,1.1016,1.1016,1.1016,1.1045,1.1045,1.1045,1.1016,1.1045,1.1016,1.1045,1.1016,1.1016,1.1045,1.1045,1.1045,1.1045,1.1045,1.1045,1.1045,1.1045,1.1084,1.1084,1.1084,1.1084,1.1084,1.1045,1.1045,1.1045,1.1045,1.1045,1.1045,1.1045,1.1045,1.1084,1.1084,1.1084,1.1084,1.1084,1.1084,1.1055,1.1055,1.1084,1.1084,1.1162,1.1123,1.1123,1.1123,1.1123,1.1123,1.1123,1.1123,1.1123,1.1123,1.1162,1.1162,1.1162,1.1201,1.1201,1.1162,1.1162,1.1123,1.1162,1.1123,1.1123,1.1162,1.1162,1.1162,1.1201,1.1201,1.1162,1.1201,1.1201,1.1201,1.1201,1.1162,1.1162,1.1162,1.1162,1.1162,1.1162,1.1201,1.1201,1.1162,1.1162,1.1162,1.1162,1.1162,1.1162,1.1162,1.1201,1.1201,1.1201,1.1201,1.1201,1.1201,1.1201,1.1201,1.1201,1.1201,1.1201,1.1201,1.1201,1.1201,1.1201,1.1201,1.1201,1.1201,1.1201,1.1201,1.1201,1.1201,1.1201,1.1201,1.1201,1.1201,1.1201,1.1201,1.124,1.1201,1.124,1.124,1.1279,1.124,1.124,1.124,1.124,1.124,1.124,1.124,1.1201,1.124,1.124,1.124,1.124,1.124,1.124,1.124,1.124,1.124,1.124,1.124,1.124,1.124,1.1201,1.1201,1.124,1.124,1.124,1.124,1.124,1.124,1.124,1.124,1.124,1.124,1.124,1.124,1.1279,1.1279,1.1279,1.1279,1.1279,1.1279,1.1279,1.1279,1.1279,1.1279,1.1279,1.1318,1.1318,1.1357,1.1318,1.1318,1.1357,1.1357,1.1318,1.1318,1.1357,1.1357,1.1318,1.1318,1.1318,1.1357,1.1318,1.1357,1.1357,1.1357,1.1357,1.1357,1.1357,1.1357,1.1357,1.1357,1.1396,1.1396,1.1436,1.1436,1.1436,1.1475,1.1475,1.1475,1.1475,1.1475,1.1475,1.1475,1.1475,1.1475,1.1475,1.1475,1.1475,1.1475,1.1514,1.1514,1.1514,1.1514,1.1514,1.1514,1.1514,1.1553,1.1553,1.1553,1.1553,0,0,0,0,0,0,0,0,0,0,0,0,0,0,0,0,0,0,0,0,0,0,0,0,0,0,0,0,0,0,0,0,0,0,0,0,0,0,0,0,0,0,0,0,0,0,0,0,0,0,0,0,0,0,0,0,0,0,0,0,0,0,0,0,0,0,0,0,0
0,0,0,0,0,0,0,0,0,0,2.9961,2.9961,2.9434,2.9961,2.9434,2.9434,2.9434,2.9434,2.9434,2.9434,2.9434,2.9434,2.9688,2.9434,2.9434,2.916,2.916,2.9434,2.9434,2.9434,2.918,2.9688,2.9688,2.9688,2.9688,2.9434,2.8926,2.8926,2.8926,2.918,2.8926,0,0,0,0,0,0,0,0,0,0,0,0,0,0,0,0,0,0,0,0,0,0,0,0,0,0,0,0,0,0,0,0,0,0,0,0,0,0,0,0,0,0,0,0,0,0,0,0,0,0,0,0,0,0,0,0,0,0,0,0,0,0,0,0,0,0,0,0,1.0459,1.0459,1.0557,1.0557,1.0557,1.0557,1.0557,1.0557,1.0557,1.0518,1.0518,1.0488,1.0488,1.0459,1.0459,1.0459,1.042,1.042,1.042,1.0391,1.042,1.0459,1.0459,1.0488,1.0518,1.0557,1.0557,1.0557,1.0557,1.0557,1.0586,1.0625,1.0654,1.0654,1.0693,1.0693,1.0693,1.0693,1.0723,1.0723,1.0723,1.0723,1.0723,1.0723,1.0723,1.0723,1.0762,1.0762,1.0762,1.0762,1.0791,1.0762,1.0791,1.083,1.083,1.083,1.0869,1.0869,1.0869,1.0869,1.0869,1.0977,1.0977,1.1006,1.1006,1.1006,1.1006,1.0977,1.0977,1.0977,1.0977,1.0938,1.0898,1.0898,1.0898,1.0898,1.0898,1.0938,1.0938,1.0938,1.0977,1.0977,1.0977,1.0977,1.0977,1.0977,1.0977,1.1006,1.1006,1.1016,1.1006,1.1006,1.1006,1.1006,1.1006,1.1006,1.1016,1.1016,1.0977,1.1016,1.0977,1.0977,1.0938,1.0938,1.0977,1.0977,1.0977,1.0977,1.1016,1.1016,1.1016,1.1016,1.1016,1.1045,1.1045,1.1045,1.1045,1.1045,1.1045,1.1045,1.1045,1.1045,1.1045,1.1045,1.1045,1.1045,1.1045,1.1045,1.1045,1.1084,1.1084,1.1084,1.1084,1.1084,1.1084,1.1045,1.1045,1.1045,1.1045,1.1055,1.1055,1.1055,1.1055,1.1055,1.1084,1.1084,1.1084,1.1084,1.1084,1.1055,1.1055,1.1084,1.1084,1.1162,1.1123,1.1123,1.1162,1.1162,1.1123,1.1123,1.1123,1.1123,1.1162,1.1201,1.1162,1.1201,1.1201,1.1201,1.1201,1.1201,1.1162,1.1162,1.1201,1.1201,1.1162,1.1162,1.1201,1.1201,1.1162,1.1162,1.1201,1.1201,1.1201,1.1201,1.1201,1.1201,1.1201,1.1201,1.1162,1.1162,1.1201,1.1201,1.1162,1.1201,1.1162,1.1162,1.1162,1.1162,1.1201,1.1201,1.1201,1.1201,1.1201,1.1201,1.1201,1.1201,1.1201,1.1201,1.1201,1.1201,1.1201,1.1201,1.1201,1.1201,1.1201,1.1201,1.1201,1.1201,1.1201,1.1201,1.1201,1.1201,1.1201,1.1201,1.1201,1.1201,1.124,1.124,1.1201,1.1279,1.124,1.124,1.124,1.124,1.124,1.124,1.124,1.124,1.124,1.124,1.124,1.124,1.124,1.124,1.124,1.124,1.124,1.124,1.124,1.124,1.124,1.124,1.124,1.124,1.1201,1.124,1.124,1.124,1.1279,1.1279,1.124,1.124,1.124,1.124,1.124,1.1279,1.124,1.1279,1.1279,1.1279,1.1279,1.1279,1.1279,1.1279,1.1279,1.1279,1.1318,1.1318,1.1318,1.1357,1.1357,1.1357,1.1318,1.1357,1.1357,1.1318,1.1357,1.1357,1.1318,1.1357,1.1357,1.1357,1.1357,1.1318,1.1357,1.1357,1.1357,1.1357,1.1357,1.1357,1.1357,1.1357,1.1357,1.1396,1.1396,1.1436,1.1436,1.1436,1.1475,1.1475,1.1475,1.1475,1.1475,1.1475,1.1475,1.1475,1.1475,1.1475,1.1475,1.1475,1.1475,1.1514,1.1514,1.1514,1.1514,1.1514,1.1514,1.1553,1.1553,1.1553,1.1553,1.1553,1.1553,1.1553,1.1553,1.1553,1.1553,1.1553,1.1553,1.1553,1.1553,1.1553,1.1553,1.1553,1.1553,1.1553,1.1514,1.1514,1.1514,1.1475,1.1475,1.1475,1.1475,1.1475,1.1436,1.1436,1.1436,1.1436,1.1396,1.1396,1.1396,1.1357,1.1357,1.1328,1.1328,1.1289,1.125,1.125,1.125,1.1211,0,0,0,0,0,0,0,0,0,0,0,0,0,0,0,0,0,0,0,0,0,0,0,0,0,0,0,0,0,0,0
0,0,0,0,0,0,0,0,0,0,3.0234,2.9961,2.9961,2.9961,2.9688,2.9434,2.9434,2.9434,2.9434,2.9434,2.9434,2.9688,2.9688,2.9434,2.9688,2.918,2.918,2.918,2.918,2.918,2.8926,2.9434,2.9434,2.9434,2.918,2.918,2.918,2.918,2.918,2.8926,2.8926,2.9688,0,0,0,0,0,0,0,0,0,0,0,0,0,0,0,0,0,0,0,0,0,0,0,0,0,0,0,0,0,0,0,0,0,0,0,0,0,0,0,0,0,0,0,0,0,0,0,0,0,0,0,0,0,0,0,0,0,0,0,0,0,0,0,0,0,0,0,1.0459,1.0518,1.0518,1.0557,1.0557,1.0557,1.0557,1.0557,1.0557,1.0557,1.0518,1.0518,1.0488,1.0488,1.0488,1.042,1.042,1.042,1.042,1.0391,1.0391,1.0459,1.0459,1.0488,1.0518,1.0557,1.0557,1.0557,1.0557,1.0557,1.0586,1.0586,1.0654,1.0654,1.0693,1.0693,1.0693,1.0693,1.0723,1.0723,1.0723,1.0723,1.0762,1.0762,1.0762,1.0762,1.0762,1.0762,1.0791,1.0791,1.083,1.0791,1.0791,1.083,1.083,1.083,1.0869,1.0869,1.0869,1.0869,1.1152,1.1045,1.1045,1.1045,1.1045,1.1006,1.1006,1.1006,1.0977,1.0977,1.0977,1.0938,1.0938,1.0938,1.0938,1.0898,1.0898,1.0977,1.0938,1.0977,1.0977,1.0977,1.0977,1.0977,1.0977,1.0977,1.0977,1.0977,1.0977,1.0977,1.1016,1.1016,1.1016,1.1016,1.1016,1.1016,1.1016,1.1016,1.1016,1.1016,1.1016,1.1016,1.1016,1.0977,1.1016,1.1016,1.0977,1.0977,1.1016,1.1016,1.1045,1.1045,1.1045,1.1045,1.1045,1.1045,1.1045,1.1045,1.1045,1.1045,1.1045,1.1045,1.1084,1.1084,1.1045,1.1045,1.1045,1.1045,1.1084,1.1084,1.1123,1.1123,1.1084,1.1084,1.1084,1.1084,1.1055,1.1055,1.1055,1.1055,1.1055,1.1055,1.1055,1.1055,1.1084,1.1055,1.1084,1.1084,1.1055,1.1055,1.1055,1.1084,1.1084,1.1162,1.1162,1.1162,1.1123,1.1162,1.1123,1.1201,1.1162,1.1162,1.1162,1.1201,1.1201,1.1201,1.1201,1.1201,1.1201,1.1201,1.1201,1.1201,1.1201,1.1162,1.1162,1.1201,1.1201,1.1201,1.1201,1.1201,1.1201,1.1201,1.1162,1.1201,1.1201,1.1162,1.1162,1.1162,1.1162,1.1201,1.1201,1.1201,1.1201,1.1201,1.1201,1.1201,1.1201,1.1162,1.1201,1.1201,1.1201,1.1201,1.1201,1.1201,1.1201,1.1201,1.1201,1.1201,1.1201,1.1201,1.1201,1.1201,1.1201,1.1201,1.1201,1.1201,1.1201,1.1201,1.1201,1.1201,1.1201,1.1201,1.1201,1.1201,1.1201,1.1201,1.124,1.124,1.124,1.1279,1.124,1.124,1.124,1.124,1.124,1.124,1.124,1.124,1.124,1.124,1.124,1.124,1.124,1.124,1.124,1.124,1.124,1.124,1.124,1.124,1.1279,1.124,1.124,1.124,1.124,1.124,1.124,1.124,1.124,1.124,1.124,1.124,1.124,1.124,1.1279,1.1279,1.1279,1.1279,1.1279,1.1279,1.1318,1.1279,1.1279,1.1279,1.1279,1.1279,1.1318,1.1318,1.1357,1.1357,1.1357,1.1357,1.1318,1.1357,1.1318,1.1318,1.1357,1.1357,1.1318,1.1357,1.1357,1.1357,1.1357,1.1357,1.1357,1.1357,1.1357,1.1357,1.1357,1.1357,1.1357,1.1357,1.1396,1.1396,1.1396,1.1436,1.1436,1.1436,1.1475,1.1475,1.1475,1.1475,1.1475,1.1475,1.1475,1.1475,1.1475,1.1475,1.1475,1.1475,1.1514,1.1514,1.1514,1.1514,1.1514,1.1514,1.1514,1.1553,1.1553,1.1553,1.1553,1.1553,1.1553,1.1553,1.1553,1.1553,1.1602,1.1602,1.1602,1.1553,1.1553,1.1602,1.1553,1.1553,1.1553,1.1553,1.1553,1.1553,1.1553,1.1514,1.1514,1.1475,1.1475,1.1475,1.1436,1.1436,1.1436,1.1436,1.1396,1.1396,1.1396,1.1357,1.1367,1.1328,1.1328,1.1328,1.1289,1.1289,1.125,1.125,0,0,0,0,0,0,0,0,0,0,0,0,0,0,0,0,0,0,0,0,0,0,0,0,0,0,0,0,0,0,0
0,0,0,0,0,0,0,0,0,0,0,3.0234,2.9961,3.0234,2.9688,2.9688,2.9688,2.9688,2.9434,2.9434,2.9434,2.9434,2.9688,2.9434,2.9688,2.9434,2.9434,2.9434,2.918,2.918,2.8672,2.9688,2.9688,2.9434,2.918,2.918,2.918,2.918,2.8926,2.8926,2.8926,2.8926,2.9688,0,0,0,0,0,0,0,2.8926,0,0,0,0,0,0,0,0,0,0,0,0,0,0,0,0,0,0,0,0,0,0,0,0,0,0,0,0,0,0,0,0,0,0,0,0,0,0,0,0,0,0,0,0,0,0,0,0,0,0,0,0,0,0,0,0,0,0,1.0557,1.0518,1.0518,1.0557,1.0557,1.0557,1.0586,1.0586,1.0586,1.0586,1.0557,1.0518,1.0557,1.0518,1.0518,1.0488,1.0459,1.042,1.042,1.042,1.042,1.042,1.0459,1.0527,1.0527,1.0527,1.0557,1.0557,1.0557,1.0557,1.0586,1.0586,1.0654,1.0693,1.0693,1.0693,1.0693,1.0693,1.0693,1.0723,1.0723,1.0723,1.0762,1.0762,1.0791,1.0791,1.0791,1.0791,1.0791,1.0801,1.083,1.083,1.083,1.083,1.083,1.083,1.0869,1.0869,1.0869,1.0869,1.0869,1.1045,1.1045,1.1045,1.1045,1.1006,1.1006,1.1006,1.1006,1.0977,1.0977,1.0977,1.0938,1.0938,1.0938,1.0938,1.0898,1.0977,1.0938,1.0977,1.0977,1.0977,1.0977,1.0977,1.0977,1.1016,1.1016,1.1016,1.1016,1.1016,1.1016,1.1016,1.1016,1.1016,1.1016,1.1016,1.1016,1.1016,1.1016,1.1016,1.1045,1.1016,1.1016,1.1016,1.1016,1.1016,1.1016,1.1016,1.1045,1.1016,1.1045,1.1045,1.1045,1.1045,1.1045,1.1045,1.1045,1.1045,1.1045,1.1045,1.1045,1.1084,1.1084,1.1084,1.1084,1.1055,1.1055,1.1055,1.1084,1.1084,1.1084,1.1084,1.1084,1.1084,1.1084,1.1084,1.1055,1.1055,1.1055,1.1055,1.1055,1.1055,1.1055,1.1055,1.1084,1.1055,1.1055,1.1055,1.1055,1.1055,1.1055,1.1084,1.1084,1.1162,1.1123,1.1123,1.1123,1.1162,1.1123,1.1162,1.1201,1.1201,1.1201,1.124,1.1201,1.1201,1.1201,1.1201,1.1201,1.1201,1.1201,1.1201,1.1201,1.1201,1.1201,1.1201,1.1201,1.1201,1.1201,1.1201,1.1201,1.1201,1.1201,1.1162,1.1162,1.1162,1.1162,1.1162,1.1162,1.1201,1.1201,1.1201,1.1201,1.124,1.1201,1.1201,1.1201,1.1201,1.1201,1.1201,1.1201,1.1201,1.1201,1.1201,1.1201,1.1201,1.1201,1.1201,1.1201,1.1201,1.1201,1.124,1.1201,1.1201,1.1201,1.124,1.124,1.124,1.124,1.124,1.124,1.1201,1.124,1.124,1.124,1.124,1.124,1.124,1.124,1.124,1.124,1.124,1.124,1.124,1.124,1.124,1.124,1.124,1.124,1.124,1.124,1.1279,1.124,1.1279,1.124,1.124,1.124,1.124,1.124,1.124,1.1279,1.124,1.124,1.124,1.124,1.124,1.124,1.124,1.1279,1.1279,1.124,1.124,1.1279,1.1279,1.1279,1.1279,1.1279,1.1318,1.1279,1.1318,1.1318,1.1318,1.1279,1.1279,1.1279,1.1318,1.1357,1.1357,1.1357,1.1357,1.1357,1.1357,1.1318,1.1357,1.1357,1.1318,1.1318,1.1357,1.1318,1.1318,1.1357,1.1357,1.1357,1.1357,1.1318,1.1318,1.1357,1.1357,1.1357,1.1357,1.1357,1.1396,1.1396,1.1396,1.1396,1.1436,1.1436,1.1475,1.1475,1.1475,1.1475,1.1475,1.1475,1.1475,1.1475,1.1475,1.1475,1.1475,1.1475,1.1475,1.1514,1.1514,1.1514,1.1514,1.1514,1.1514,1.1514,1.1553,1.1553,1.1553,1.1553,1.1553,1.1602,1.1602,1.1602,1.1562,1.1602,1.1602,1.1602,1.1562,1.1602,1.1602,1.1562,1.1562,1.1562,1.1562,1.1562,1.1514,1.1514,1.1514,1.1514,1.1475,1.1475,1.1475,1.1475,1.1475,1.1436,1.1436,1.1436,1.1436,1.1396,1.1406,1.1406,1.1367,1.1328,1.1328,1.1289,1.1289,1.1289,1.125,0,0,0,0,0,0,0,0,0,0,0,0,0,0,0,0,0,0,0,0,0,0,0,0,0,0,0,0,0,0,0
0,0,0,0,0,0,0,0,0,0,0,0,3.0234,2.9961,2.9961,2.9688,2.9961,2.9688,2.9434,2.9434,2.9434,2.9688,2.9688,2.9434,2.9434,2.918,2.9434,2.9434,2.9434,2.9434,2.8438,2.9688,2.9434,2.9434,2.9434,2.918,2.918,2.918,2.918,2.8926,2.8926,2.918,2.9434,0,0,0,0,0,0,2.918,2.8672,0,2.9434,0,0,0,0,0,0,0,0,0,0,0,0,0,0,0,0,0,0,0,0,0,0,0,0,0,0,0,0,0,0,0,0,0,0,0,0,0,0,0,0,0,0,0,0,0,0,0,0,0,0,0,0,0,0,0,0,1.0557,1.0557,1.0557,1.0586,1.0586,1.0557,1.0557,1.0586,1.0586,1.0557,1.0557,1.0557,1.0557,1.0527,1.0527,1.0459,1.0459,1.042,1.042,1.042,1.042,1.042,1.0459,1.0527,1.0527,1.0527,1.0527,1.0557,1.0586,1.0557,1.0586,1.0586,1.0654,1.0693,1.0693,1.0693,1.0723,1.0693,1.0723,1.0762,1.0723,0,1.0801,1.0801,1.083,1.083,1.083,1.083,1.083,1.083,1.083,1.083,1.083,1.083,1.083,1.083,1.083,1.0869,1.0869,1.083,1.083,1.1123,1.1123,1.1084,1.1084,1.1084,1.1045,1.1016,1.1016,1.0977,1.0977,1.0977,1.0938,1.0938,1.0938,1.0938,1.0938,1.0977,1.0938,1.0977,1.0977,1.1016,1.1016,1.1016,1.1016,1.1016,1.1016,1.1016,1.1016,1.1016,1.1016,1.1016,1.1016,1.1016,1.1016,1.1016,1.1016,1.1016,1.1016,1.1045,1.1045,1.1045,1.1045,1.1045,1.1045,1.1045,1.1045,1.1016,1.1045,1.1045,1.1045,1.1045,1.1045,1.1045,1.1045,1.1045,1.1045,1.1045,1.1055,1.1055,1.1084,1.1084,1.1084,1.1123,1.1084,1.1084,1.1055,1.1084,1.1084,1.1084,1.1084,1.1084,1.1084,1.1084,1.1084,1.1084,1.1055,1.1055,1.1055,1.1055,1.1055,1.1055,1.1055,1.1055,1.1055,1.1055,1.1055,1.1055,1.1055,1.1055,1.1055,1.1084,1.1084,1.1123,1.1123,1.1162,1.1123,1.1162,1.1162,1.1201,1.1201,1.1201,1.1201,1.1201,1.1201,1.1201,1.1201,1.1201,1.1201,1.124,1.1201,1.1201,1.1201,1.1201,1.1201,1.1201,1.1201,1.1201,1.1201,1.1201,1.1201,1.1201,1.1201,1.1201,1.1162,1.1162,1.1162,1.1201,1.1201,1.1201,1.1201,1.1201,1.124,1.124,1.124,1.124,1.124,1.124,1.1201,1.1201,1.124,1.1201,1.1201,1.1201,1.1162,1.1201,1.1201,1.1201,1.1201,1.124,1.124,1.124,1.124,1.124,1.124,1.124,1.124,1.124,1.124,1.124,1.124,1.1201,1.1201,1.124,1.124,1.124,1.124,1.1201,1.1201,1.124,1.124,1.124,1.124,1.124,1.124,1.1279,1.124,1.124,1.124,1.124,1.1279,1.1279,1.124,1.1279,1.124,1.124,1.124,1.124,1.124,1.124,1.124,1.124,1.124,1.124,1.124,1.1279,1.1279,1.124,1.124,1.124,1.124,1.124,1.124,1.1279,1.1279,1.1279,1.1279,1.1279,1.1279,1.1279,1.1279,1.1318,1.1279,1.1279,1.1318,1.1318,1.1357,1.1357,1.1357,1.1357,1.1357,1.1318,1.1318,1.1357,1.1357,1.1357,1.1357,1.1318,1.1318,1.1318,1.1318,1.1357,1.1357,1.1357,1.1357,1.1357,1.1357,1.1396,1.1396,1.1396,1.1396,1.1396,1.1396,1.1396,1.1436,1.1475,1.1436,1.1475,1.1475,1.1475,1.1475,1.1475,1.1475,1.1475,1.1475,1.1475,1.1514,1.1475,1.1475,1.1514,1.1514,1.1514,1.1514,1.1514,1.1514,1.1514,1.1514,1.1553,1.1562,1.1562,1.1602,1.1602,1.1602,1.1602,1.1602,1.1562,1.1602,1.1602,1.1602,1.1562,1.1602,1.1602,1.1602,1.1562,1.1562,1.1562,1.1562,1.1562,1.1562,1.1523,1.1523,1.1523,1.1484,1.1484,1.1484,1.1484,1.1445,1.1445,1.1445,1.1445,1.1406,1.1406,1.1406,1.1406,1.1328,1.1367,1.1328,1.1289,1.1289,1.1289,0,0,0,0,0,0,0,0,0,0,0,0,0,0,0,0,0,0,0,0,0,0,0,0,0,0,0,0,0,0,0
0,0,0,0,0,0,0,0,0,0,0,0,3.0234,3.0234,3.0234,2.9688,2.9961,2.9688,2.9434,2.9434,2.9434,2.9434,2.9688,2.9434,2.9434,2.9434,2.9434,2.9434,2.918,2.918,2.9434,2.9434,2.9434,0,2.8926,2.8926,2.8926,2.8926,2.8926,2.8926,2.8926,2.918,2.918,0,0,0,0,0,0,2.918,2.8672,0,2.9434,2.9707,0,0,0,0,0,0,0,0,0,0,0,0,0,0,0,0,0,0,0,0,0,0,0,0,0,0,0,0,0,0,0,0,0,0,0,0,0,0,0,0,0,0,0,0,0,0,0,0,0,0,0,0,0,0,0,0,1.0557,1.0557,1.0557,1.0557,1.0557,1.0557,1.0586,1.0586,1.0557,1.0557,1.0557,1.0557,1.0527,1.0527,1.0459,1.043,1.043,1.043,1.043,1.043,1.0459,1.0488,1.0488,1.0488,1.0527,1.0557,1.0557,1.0557,1.0557,1.0586,1.0654,1.0654,1.0693,1.0693,1.0723,1.0723,1.0723,1.0723,1.0723,1.0723,0,1.0801,1.0801,1.083,1.083,1.083,1.083,1.083,1.0869,1.0869,1.083,1.083,1.0869,1.083,1.083,1.083,1.083,1.083,1.083,1.083,1.1045,1.1123,1.1123,1.1084,1.1084,1.1045,1.1016,1.1016,1.1016,1.0977,1.0977,1.0938,1.0938,1.0938,1.0938,1.0938,1.0977,1.0977,1.0977,1.1016,1.1016,1.1016,1.1016,1.1016,1.1016,1.1016,1.1016,1.1016,1.1016,1.1016,1.1045,1.1016,1.1045,1.1016,1.1016,1.1045,1.1016,1.1016,1.1045,1.1045,1.1045,1.1055,1.1055,1.1055,1.1055,1.1055,1.1055,1.1055,1.1055,1.1055,1.1055,1.1055,1.1055,1.1055,1.1055,1.1055,1.1055,1.1055,1.1055,1.1084,1.1084,1.1084,1.1123,1.1123,1.1084,1.1084,1.1084,1.1084,1.1123,1.1123,1.1084,1.1084,1.1084,1.1084,1.1084,1.1055,1.1055,1.1055,1.1055,1.1055,1.1055,1.1055,1.1055,1.1055,1.1055,1.1055,1.1055,1.1055,1.1055,1.1055,1.1094,1.1094,1.1123,1.1123,1.1162,1.1123,1.1162,1.1162,1.1201,1.1201,1.1162,1.1162,1.1201,1.1201,1.1201,1.1201,1.1201,1.1201,1.1201,1.1201,1.1201,1.1201,1.1201,1.124,1.1201,1.1201,1.1201,1.1201,1.1201,1.1201,1.1201,1.124,1.1201,1.1162,1.1201,1.1201,1.1201,1.1201,1.1201,1.124,1.124,1.124,1.124,1.124,1.124,1.124,1.124,1.124,1.1201,1.1201,1.1201,1.1201,1.1201,1.1201,1.1201,1.1201,1.1201,1.1201,1.1201,1.124,1.124,1.124,1.124,1.124,1.1279,1.1279,1.124,1.124,1.124,1.124,1.124,1.1201,1.124,1.124,1.124,1.124,1.124,1.124,1.1279,1.124,1.124,1.124,1.124,1.1279,1.1279,1.1279,1.124,1.1279,1.124,1.1279,1.1279,1.1279,1.1279,1.1279,1.1279,1.124,1.124,1.124,1.124,1.1279,1.124,1.124,1.124,1.1279,1.1279,1.1279,1.1279,1.1279,1.1279,1.1279,1.1279,1.1279,1.1279,1.1279,1.1279,1.1279,1.1279,1.1279,1.1279,1.1279,1.1318,1.1279,1.1318,1.1357,1.1357,1.1357,1.1357,1.1357,1.1357,1.1318,1.1318,1.1318,1.1357,1.1357,1.1357,1.1357,1.1357,1.1318,1.1318,1.1357,1.1357,1.1396,1.1396,1.1357,1.1357,1.1396,1.1396,1.1436,1.1436,1.1396,1.1396,1.1436,1.1396,1.1396,1.1436,1.1436,1.1436,1.1475,1.1475,1.1475,1.1475,1.1475,1.1475,1.1475,1.1514,1.1514,1.1514,1.1514,1.1514,1.1514,1.1514,1.1514,1.1514,1.1514,1.1562,1.1562,1.1562,1.1602,1.1562,1.1602,1.1602,1.1602,1.1602,1.1602,1.1602,1.1602,1.1602,1.1602,1.1562,1.1602,1.1602,1.1602,1.1562,1.1562,1.1562,1.1562,1.1562,1.1523,1.1523,1.1523,1.1523,1.1523,1.1523,1.1484,1.1484,1.1484,1.1445,1.1445,1.1445,1.1406,1.1406,1.1406,1.1406,1.1367,1.1367,1.1328,1.1328,1.1289,1.1289,0,0,0,0,0,0,0,0,0,0,0,0,0,0,0,0,0,0,0,0,0,0,0,0,0,0,0,0,0,0,0
0,0,0,0,0,0,0,0,0,0,0,0,3.0234,3.0234,2.9434,2.9434,2.9961,2.9688,2.9434,2.918,2.918,2.9688,2.9434,2.9434,2.9434,2.918,2.9434,2.9434,2.9434,2.9434,2.918,2.918,0,0,0,0,2.918,2.8926,2.8926,2.8926,2.8926,2.918,2.918,2.9434,2.9434,0,0,0,2.9434,2.9434,2.8672,0,2.918,0,0,0,0,0,0,0,0,0,0,0,0,0,0,0,0,0,0,0,0,0,0,0,0,0,0,0,0,0,0,0,0,0,0,0,0,0,0,0,0,0,0,0,0,0,0,0,0,0,0,0,0,0,0,0,0,1.0557,1.0557,1.0557,1.0557,1.0557,1.0557,1.0557,1.0586,1.0586,1.0557,1.0557,1.0557,1.0557,1.0557,1.0557,1.0459,1.0459,1.043,1.0391,1.043,1.043,1.0459,1.0459,1.0459,1.0488,1.0488,1.0557,1.0557,1.0596,1.0596,1.0596,1.0654,1.0693,1.0693,1.0723,1.0723,1.0762,1.0762,1.0723,1.0762,1.0723,1.0762,1.0801,1.0801,1.083,1.083,1.083,1.083,1.0869,1.0869,1.0869,1.0869,1.0869,1.0869,1.0869,1.083,1.083,1.0869,1.0869,1.083,1.083,1.1191,1.1162,1.1123,1.1123,1.1123,1.1084,1.1045,1.1016,1.1016,1.1016,1.0977,1.0977,1.0977,1.0977,1.0977,1.0977,1.1016,1.0977,1.1016,1.1016,1.1016,1.1016,1.1016,1.1016,1.1016,1.1016,1.1016,1.1016,1.1016,1.1016,1.1016,1.1016,1.1016,1.1016,1.1016,1.1055,1.1016,1.1016,1.1055,1.1055,1.1055,1.1055,1.1055,1.1055,1.1055,1.1055,1.1055,1.1084,1.1055,1.1055,1.1084,1.1084,1.1084,1.1055,1.1055,1.1055,1.1055,1.1055,1.1055,1.1055,1.1084,1.1084,1.1123,1.1084,1.1084,1.1055,1.1084,1.1084,1.1084,1.1084,1.1084,1.1084,1.1084,1.1084,1.1084,1.1084,1.1055,1.1084,1.1055,1.1055,1.1055,1.1055,1.1055,1.1055,1.1055,1.1055,1.1055,1.1094,1.1055,1.1055,1.1094,1.1094,1.1123,1.1123,1.1162,1.1162,1.1201,1.1201,1.124,1.1201,1.1201,1.1201,1.1201,1.1201,1.1201,1.1201,1.1201,1.1201,1.1201,1.1201,1.124,1.124,1.1201,1.1201,1.124,1.1201,1.124,1.1201,1.1201,1.1201,1.1201,1.124,1.124,1.1201,1.1201,1.1201,1.1201,1.1201,1.124,1.124,1.124,1.124,1.124,1.124,1.124,1.1279,1.124,1.124,1.124,1.124,1.124,1.124,1.1201,1.1201,1.1201,1.1201,1.1201,1.1201,1.1201,1.124,1.124,1.124,1.124,1.1279,1.1279,1.1279,1.1279,1.1279,1.1279,1.124,1.124,1.124,1.1201,1.124,1.124,1.124,1.124,1.124,1.1279,1.1279,1.1279,1.124,1.124,1.124,1.1279,1.1279,1.1279,1.1279,1.124,1.1279,1.1279,1.1279,1.1279,1.1279,1.1279,1.1279,1.124,1.124,1.124,1.1279,1.124,1.124,1.1279,1.1279,1.124,1.124,1.124,1.1279,1.1279,1.1279,1.1279,1.1279,1.1279,1.1279,1.1279,1.1279,1.1279,1.1279,1.1279,1.1279,1.1318,1.1357,1.1357,1.1357,1.1357,1.1357,1.1357,1.1357,1.1318,1.1318,1.1318,1.1318,1.1357,1.1357,1.1357,1.1396,1.1396,1.1357,1.1357,1.1357,1.1357,1.1396,1.1396,1.1357,1.1357,1.1396,1.1396,1.1436,1.1436,1.1396,1.1396,1.1436,1.1436,1.1436,1.1475,1.1475,1.1436,1.1436,1.1475,1.1475,1.1475,1.1475,1.1475,1.1475,1.1514,1.1514,1.1514,1.1514,1.1514,1.1514,1.1514,1.1514,1.1514,1.1523,1.1562,1.1562,1.1562,1.1562,1.1562,1.1602,1.1602,1.1602,1.1602,1.1562,1.1602,1.1602,1.1602,1.1602,1.1602,1.1602,1.1602,1.1602,1.1562,1.1562,1.1562,1.1562,1.1562,1.1562,1.1523,1.1562,1.1562,1.1523,1.1523,1.1484,1.1484,1.1484,1.1484,1.1445,1.1445,1.1406,1.1406,1.1406,1.1406,1.1367,1.1367,1.1367,1.1328,1.1328,1.1328,0,0,0,0,0,0,0,0,0,0,0,0,0,0,0,0,0,0,0,0,0,0,0,0,0,0,0,0,0,0,0
0,0,0,0,0,0,0,0,0,0,2.9961,2.9688,3.0234,3.0234,2.9434,2.9434,2.9961,2.9961,2.9688,2.918,2.918,2.9434,2.9434,2.9434,2.9434,2.918,2.918,2.9434,2.918,2.918,2.8926,2.8926,0,0,0,0,0,2.918,2.918,2.8926,2.8926,2.918,2.918,2.9707,2.9707,2.9707,2.9434,2.9707,2.9434,2.9434,2.9707,2.9434,2.9707,0,0,0,0,0,0,0,0,0,0,0,0,0,0,0,0,0,0,0,0,0,0,0,0,0,0,0,0,0,0,0,0,0,0,0,0,0,0,0,0,0,0,0,0,0,0,0,0,0,0,0,0,0,0,0,0,1.0557,1.0527,1.0557,1.0557,1.0557,1.0557,1.0586,1.0586,1.0586,1.0586,1.0557,1.0557,1.0557,1.0557,1.0557,1.0459,1.0459,1.043,1.0391,1.043,1.043,1.043,1.0459,1.0459,1.0488,1.0527,1.0527,1.0557,1.0596,1.0596,1.0664,1.0664,1.0693,1.0693,1.0732,1.0732,1.0732,1.0762,1.0762,1.0762,1.0732,1.0762,1.0762,1.0801,1.083,1.083,1.083,1.0869,1.0869,1.0869,1.0869,1.0869,1.0869,1.0869,1.0869,1.083,1.083,1.0869,1.083,1.083,1.083,1.1162,1.1162,1.1162,1.1123,1.1123,1.1084,1.1045,1.1045,1.1016,1.1016,1.0977,1.0977,1.0977,1.0977,1.0977,1.0977,1.1016,1.1016,1.1016,1.1016,1.1016,1.1016,1.1016,1.1016,1.1016,1.1016,1.1016,1.1016,1.1016,1.1016,1.1055,1.1016,1.1055,1.1055,1.1055,1.1055,1.1055,1.1055,1.1055,1.1055,1.1055,1.1055,1.1055,1.1055,1.1055,1.1055,1.1055,1.1084,1.1084,1.1055,1.1084,1.1084,1.1084,1.1055,1.1055,1.1055,1.1055,1.1055,1.1055,1.1084,1.1084,1.1084,1.1123,1.1123,1.1084,1.1055,1.1084,1.1084,1.1084,1.1084,1.1084,1.1084,1.1084,1.1084,1.1094,1.1094,1.1123,1.1094,1.1094,1.1055,1.1094,1.1094,1.1055,1.1055,1.1094,1.1094,1.1094,1.1094,1.1094,1.1094,1.1094,1.1094,1.1162,1.1162,1.1201,1.1162,1.1201,1.1201,1.124,1.1201,1.1201,1.1201,1.1201,1.1201,1.1201,1.1201,1.1201,1.1201,1.1201,1.124,1.124,1.124,1.1201,1.1201,1.124,1.1201,1.124,1.1201,1.1201,1.1201,1.1201,1.1201,1.124,1.124,1.1201,1.1201,1.1201,1.1201,1.124,1.124,1.124,1.124,1.1279,1.1279,1.1279,1.1279,1.1279,1.1279,1.124,1.124,1.124,1.124,1.124,1.1201,1.1201,1.1201,1.1201,1.1201,1.124,1.124,1.124,1.124,1.1279,1.1279,1.1318,1.1279,1.1279,1.1279,1.1279,1.124,1.124,1.124,1.1201,1.124,1.124,1.124,1.124,1.124,1.1279,1.1279,1.1279,1.1279,1.1279,1.1279,1.1279,1.1279,1.1279,1.1279,1.1279,1.1279,1.1279,1.1279,1.1279,1.1279,1.1279,1.1279,1.1279,1.1279,1.1279,1.1279,1.1279,1.1279,1.1279,1.1279,1.1279,1.1279,1.1279,1.1279,1.1279,1.1279,1.1279,1.1279,1.1279,1.1318,1.1318,1.1318,1.1318,1.1318,1.1318,1.1318,1.1357,1.1357,1.1357,1.1357,1.1396,1.1396,1.1396,1.1357,1.1318,1.1318,1.1318,1.1318,1.1357,1.1357,1.1357,1.1357,1.1357,1.1357,1.1357,1.1357,1.1396,1.1396,1.1396,1.1396,1.1396,1.1396,1.1436,1.1436,1.1436,1.1436,1.1436,1.1436,1.1436,1.1436,1.1475,1.1475,1.1475,1.1475,1.1475,1.1475,1.1475,1.1475,1.1475,1.1514,1.1514,1.1514,1.1523,1.1523,1.1523,1.1523,1.1562,1.1562,1.1523,1.1523,1.1562,1.1562,1.1562,1.1562,1.1562,1.1562,1.1562,1.1602,1.1562,1.1562,1.1562,1.1602,1.1602,1.1602,1.1602,1.1602,1.1602,1.1602,1.1602,1.1562,1.1602,1.1562,1.1562,1.1562,1.1562,1.1562,1.1562,1.1523,1.1523,1.1484,1.1484,1.1484,1.1484,1.1445,1.1445,1.1445,1.1406,1.1445,1.1406,1.1367,1.1367,1.1367,1.1328,1.1328,1.1289,0,0,0,0,0,0,0,0,0,0,0,0,0,0,0,0,0,0,0,0,0,0,0,0,0,0,0,0,0,0,0
0,0,0,0,0,0,0,0,0,0,2.9961,2.9688,3.0234,2.9688,2.9434,2.918,2.9434,2.9434,2.918,2.918,2.918,2.9434,2.9434,2.9434,2.9434,2.9434,2.9434,2.9434,2.918,2.918,2.8926,2.8926,0,0,0,0,0,2.918,2.918,2.918,2.918,2.918,2.9434,2.9434,2.9434,2.9434,2.918,2.918,2.918,2.918,2.8926,0,2.9434,0,0,0,0,0,0,0,0,0,0,0,0,0,0,0,0,0,0,0,0,0,0,0,0,0,0,0,0,0,0,0,0,0,0,0,0,0,0,0,0,0,0,0,0,0,0,0,0,0,0,0,0,0,0,0,0,1.0527,1.0557,1.0527,1.0527,1.0557,1.0557,1.0586,1.0596,1.0596,1.0596,1.0596,1.0596,1.0557,1.0557,1.0557,1.0459,1.043,1.043,1.0391,1.043,1.0459,1.043,1.0459,1.0459,1.0488,1.0527,1.0557,1.0596,1.0625,1.0625,1.0664,1.0693,1.0693,1.0693,1.0732,1.0732,1.0762,1.0762,1.0762,1.0762,1.0762,1.0762,1.0801,1.083,1.083,1.0869,1.0869,1.0869,1.0869,1.0908,1.0869,1.0869,1.0869,1.0869,1.0869,1.0869,1.0869,1.0869,1.0869,1.0801,1.0801,0,1.123,1.1162,1.1162,1.1123,1.1084,1.1084,1.1045,1.1045,1.1016,1.0977,1.0977,1.0977,1.0977,1.0977,1.0977,1.1016,1.1016,1.1016,1.1016,1.1016,1.1055,1.1016,1.1016,1.1016,1.1016,1.1016,1.1016,1.1016,1.1016,1.1055,1.1055,1.1055,1.1055,1.1055,1.1055,1.1055,1.1055,1.1055,1.1055,1.1055,1.1084,1.1084,1.1055,1.1084,1.1084,1.1084,1.1084,1.1084,1.1055,1.1084,1.1084,1.1084,1.1084,1.1084,1.1055,1.1055,1.1084,1.1084,1.1055,1.1094,1.1094,1.1094,1.1094,1.1123,1.1094,1.1094,1.1094,1.1094,1.1094,1.1094,1.1094,1.1123,1.1123,1.1123,1.1123,1.1123,1.1123,1.1094,1.1094,1.1094,1.1094,1.1055,1.1055,1.1055,1.1055,1.1094,1.1094,1.1094,1.1094,1.1094,1.1094,1.1123,1.1162,1.1201,1.1162,1.1201,1.124,1.124,1.1201,1.1201,1.1201,1.1201,1.1201,1.1201,1.1201,1.1201,1.1201,1.124,1.124,1.124,1.124,1.124,1.1201,1.124,1.1201,1.1201,1.1201,1.1201,1.124,1.124,1.124,1.1201,1.1201,1.1201,1.1201,1.1201,1.1201,1.1201,1.124,1.124,1.1279,1.124,1.1279,1.1279,1.1279,1.1279,1.1279,1.124,1.124,1.1279,1.124,1.124,1.124,1.1201,1.1201,1.1201,1.124,1.124,1.124,1.124,1.1279,1.1279,1.1279,1.1279,1.1279,1.1279,1.124,1.124,1.124,1.124,1.124,1.124,1.124,1.124,1.124,1.124,1.124,1.1279,1.1279,1.1279,1.1279,1.124,1.1279,1.1279,1.1279,1.1279,1.1279,1.1279,1.1279,1.1279,1.1279,1.1279,1.1279,1.1279,1.1279,1.1279,1.1279,1.1279,1.1279,1.1279,1.1279,1.1279,1.1279,1.1279,1.1279,1.1279,1.1279,1.1279,1.1279,1.1318,1.1318,1.1318,1.1318,1.1318,1.1318,1.1357,1.1318,1.1318,1.1318,1.1357,1.1357,1.1357,1.1357,1.1357,1.1357,1.1357,1.1357,1.1357,1.1357,1.1357,1.1357,1.1357,1.1357,1.1357,1.1357,1.1357,1.1357,1.1357,1.1396,1.1396,1.1396,1.1396,1.1396,1.1396,1.1436,1.1436,1.1436,1.1436,1.1436,1.1436,1.1436,1.1436,1.1436,1.1475,1.1475,1.1475,1.1475,1.1484,1.1484,1.1484,1.1523,1.1523,1.1475,1.1523,1.1523,1.1523,1.1523,1.1523,1.1523,1.1562,1.1562,1.1562,1.1562,1.1562,1.1562,1.1562,1.1562,1.1523,1.1562,1.1562,1.1562,1.1562,1.1562,1.1562,1.1602,1.1602,1.1602,1.1602,1.1602,1.1602,1.1602,1.1602,1.1602,1.1602,1.1602,1.1602,1.1562,1.1562,1.1562,1.1562,1.1523,1.1523,1.1484,1.1484,1.1484,1.1484,1.1484,1.1445,1.1445,1.1406,1.1406,1.1406,1.1367,1.1367,1.1367,1.1328,1.1328,1.1328,0,0,0,0,0,0,0,0,0,0,0,0,0,0,0,0,0,0,0,0,0,0,0,0,0,0,0,0,0,0,0
0,0,0,0,0,0,0,0,3.0234,2.9961,2.9961,2.9961,2.9961,2.9688,2.9434,2.918,2.9434,3.0234,2.918,2.918,2.918,2.9961,2.9961,2.9707,2.9707,2.9434,2.9434,2.9434,2.9434,2.918,2.8926,0,0,0,0,0,0,2.918,2.918,2.8926,2.8926,2.918,2.9434,2.9434,2.9434,2.9434,2.918,2.9434,2.9434,2.9434,2.9434,2.9434,0,0,0,0,0,0,0,0,0,0,0,0,0,0,0,0,0,0,0,0,0,0,0,0,0,0,0,0,0,0,0,0,0,0,0,0,0,0,0,0,0,0,0,0,0,0,0,0,0,0,0,0,0,0,0,0,0,1.0557,1.0527,1.0527,1.0527,1.0527,1.0557,1.0596,1.0596,1.0596,1.0596,1.0596,1.0596,1.0557,1.0557,1.0557,1.0459,1.0459,1.0391,1.0391,1.0459,1.0459,1.0459,1.0459,1.0488,1.0488,1.0527,1.0557,1.0625,1.0693,1.0693,1.0693,1.0732,1.0732,1.0732,1.0732,1.0762,1.0762,1.0762,1.0762,1.0762,1.0762,1.0801,1.0801,1.083,1.083,1.0869,1.0869,1.0869,1.0908,1.0908,1.0869,1.0869,1.0869,1.0869,1.0869,1.0869,1.0869,1.0869,1.0869,1.083,1.083,1.1123,1.1162,1.1162,1.1162,1.1123,1.1084,1.1084,1.1045,1.1045,1.1016,1.1016,1.0977,1.0977,1.0977,1.0977,1.0977,1.1016,1.1016,1.1016,1.1055,1.1055,1.1055,1.1016,1.1016,1.1016,1.1016,1.1016,1.1016,1.1016,1.1016,1.1055,1.1055,1.1055,1.1055,1.1055,1.1055,1.1055,1.1055,1.1055,1.1055,1.1055,1.1084,1.1084,1.1084,1.1084,1.1084,1.1084,1.1084,1.1084,1.1055,1.1084,1.1055,1.1094,1.1094,1.1094,1.1055,1.1055,1.1094,1.1094,1.1094,1.1094,1.1094,1.1123,1.1123,1.1123,1.1094,1.1094,1.1094,1.1094,1.1094,1.1094,1.1094,1.1123,1.1123,1.1123,1.1123,1.1123,1.1123,1.1094,1.1094,1.1094,1.1094,1.1094,1.1055,1.1094,1.1094,1.1123,1.1123,1.1123,1.1123,1.1123,1.1123,1.1162,1.1201,1.1201,1.1201,1.1201,1.124,1.124,1.1201,1.1201,1.1201,1.1201,1.1201,1.1201,1.1201,1.1201,1.1201,1.124,1.124,1.124,1.124,1.124,1.124,1.124,1.124,1.124,1.124,1.124,1.124,1.124,1.124,1.124,1.124,1.1201,1.124,1.124,1.1201,1.124,1.124,1.124,1.1279,1.124,1.1279,1.1279,1.1279,1.1279,1.124,1.124,1.1279,1.1279,1.124,1.124,1.124,1.124,1.124,1.124,1.124,1.124,1.1279,1.1279,1.1279,1.1279,1.1279,1.1279,1.1279,1.1279,1.124,1.1279,1.124,1.124,1.124,1.124,1.1211,1.124,1.124,1.124,1.124,1.1279,1.1279,1.1279,1.1279,1.1279,1.1279,1.1279,1.1279,1.1279,1.1279,1.1279,1.1279,1.1279,1.1279,1.1279,1.1279,1.1279,1.1279,1.1279,1.1279,1.1279,1.1279,1.1279,1.1279,1.1279,1.1279,1.1279,1.1279,1.1279,1.1279,1.1279,1.1318,1.1318,1.1318,1.1318,1.1318,1.1318,1.1357,1.1357,1.1318,1.1318,1.1357,1.1357,1.1396,1.1357,1.1396,1.1357,1.1396,1.1396,1.1357,1.1357,1.1357,1.1357,1.1357,1.1357,1.1396,1.1357,1.1396,1.1396,1.1396,1.1396,1.1396,1.1396,1.1396,1.1436,1.1396,1.1396,1.1436,1.1436,1.1436,1.1436,1.1436,1.1436,1.1436,1.1436,1.1445,1.1484,1.1484,1.1484,1.1484,1.1484,1.1484,1.1484,1.1484,1.1523,1.1523,1.1523,1.1523,1.1523,1.1523,1.1523,1.1523,1.1523,1.1523,1.1523,1.1523,1.1562,1.1562,1.1523,1.1562,1.1523,1.1562,1.1562,1.1562,1.1562,1.1562,1.1602,1.1602,1.1602,1.1602,1.1602,1.1602,1.1602,1.1602,1.1602,1.1602,1.1602,1.1602,1.1602,1.1562,1.1562,1.1562,1.1562,1.1523,1.1523,1.1523,1.1484,1.1484,1.1484,1.1484,1.1445,1.1445,1.1445,1.1406,1.1406,1.1367,1.1367,1.1367,1.1367,1.1367,1.1328,0,0,0,0,0,0,0,0,0,0,0,0,0,0,0,0,0,0,0,0,0,0,0,0,0,0,0,0,0,0,0
0,0,0,0,0,0,0,0,0,2.9961,2.9961,2.9961,2.9961,2.9434,2.9434,2.9434,2.9434,2.918,2.9434,2.9434,2.9434,2.9961,2.9961,2.9707,2.9707,2.9434,2.9434,2.9707,2.9707,2.9707,2.9434,0,0,0,2.918,2.918,2.8926,2.918,2.918,2.918,2.918,2.918,2.9434,2.9434,2.9434,2.9434,0,0,2.9707,2.9707,2.9707,2.9434,0,0,0,0,0,0,0,0,0,0,0,0,0,0,0,0,0,0,0,0,0,0,0,0,0,0,0,0,0,0,0,0,0,0,0,0,0,0,0,0,0,0,0,0,0,0,0,0,0,0,0,0,0,0,0,0,1.0557,1.0557,1.0557,1.0557,1.0527,1.0557,1.0596,1.0596,1.0596,1.0596,1.0596,1.0596,1.0596,1.0557,1.0557,1.0557,1.0459,1.043,1.043,1.043,1.0459,1.0459,1.0459,1.0459,1.0527,1.0527,1.0557,1.0557,1.0693,1.0693,1.0693,1.0693,1.0732,1.0732,1.0732,1.0732,1.0762,1.0762,1.0762,1.0762,1.0762,1.0762,1.0801,1.083,1.083,1.083,1.0869,1.0869,1.0869,1.0908,1.0908,1.0869,1.0869,1.0869,1.0869,1.0869,1.0869,1.0869,1.0869,1.0869,1.0869,1.0908,1.1084,1.1162,1.1162,1.1162,1.1123,1.1084,1.1084,1.1084,1.1055,1.1016,1.1016,1.1016,1.0977,1.0977,1.0977,1.0977,1.1016,1.1016,1.1055,1.1055,1.1016,1.1055,1.1016,1.1016,1.1016,1.1016,1.1016,1.1016,1.1016,1.1055,1.1055,1.1055,1.1055,1.1055,1.1055,1.1055,1.1055,1.1055,1.1055,1.1055,1.1055,1.1084,1.1084,1.1084,1.1123,1.1094,1.1123,1.1123,1.1094,1.1055,1.1094,1.1055,1.1094,1.1094,1.1094,1.1094,1.1094,1.1123,1.1094,1.1094,1.1094,1.1094,1.1123,1.1123,1.1123,1.1123,1.1094,1.1094,1.1094,1.1123,1.1094,1.1094,1.1123,1.1123,1.1123,1.1162,1.1162,1.1123,1.1123,1.1123,1.1123,1.1123,1.1094,1.1094,1.1094,1.1123,1.1123,1.1133,1.1133,1.1133,1.1133,1.1162,1.1201,1.1201,1.1201,1.1201,1.1201,1.124,1.124,1.1201,1.1201,1.1201,1.1201,1.1201,1.1201,1.1201,1.1201,1.1201,1.124,1.124,1.124,1.124,1.124,1.124,1.124,1.124,1.124,1.1201,1.124,1.124,1.124,1.124,1.124,1.124,1.124,1.124,1.124,1.124,1.124,1.124,1.124,1.1318,1.1318,1.1279,1.1279,1.1279,1.1279,1.1279,1.1279,1.1279,1.1279,1.124,1.1279,1.124,1.124,1.124,1.124,1.124,1.124,1.124,1.1279,1.1279,1.1279,1.1279,1.1318,1.1279,1.1279,1.1279,1.1279,1.124,1.124,1.124,1.124,1.1211,1.124,1.124,1.124,1.124,1.1279,1.1279,1.1318,1.1279,1.1279,1.1279,1.1279,1.1279,1.1279,1.1279,1.1318,1.1318,1.1318,1.1318,1.1318,1.1318,1.1279,1.1318,1.1318,1.1279,1.1279,1.1279,1.1279,1.1279,1.1279,1.1279,1.1279,1.1279,1.1279,1.1279,1.1289,1.1318,1.1357,1.1318,1.1318,1.1318,1.1318,1.1318,1.1357,1.1318,1.1318,1.1357,1.1357,1.1396,1.1396,1.1396,1.1396,1.1357,1.1357,1.1357,1.1357,1.1357,1.1357,1.1357,1.1396,1.1396,1.1357,1.1396,1.1396,1.1396,1.1396,1.1396,1.1396,1.1396,1.1436,1.1396,1.1396,1.1436,1.1445,1.1445,1.1445,1.1445,1.1445,1.1445,1.1445,1.1445,1.1484,1.1484,1.1484,1.1484,1.1484,1.1484,1.1484,1.1484,1.1523,1.1523,1.1484,1.1523,1.1523,1.1523,1.1562,1.1523,1.1523,1.1523,1.1523,1.1523,1.1523,1.1523,1.1523,1.1562,1.1523,1.1562,1.1562,1.1562,1.1562,1.1562,1.1562,1.1602,1.1602,1.1602,1.1602,1.1602,1.1602,1.1602,1.1602,1.1602,1.1602,1.1602,1.1602,1.1602,1.1562,1.1562,1.1562,1.1523,1.1523,1.1523,1.1523,1.1484,1.1484,1.1484,1.1445,1.1445,1.1445,1.1406,1.1406,1.1367,1.1367,1.1367,1.1367,1.1367,1.1328,0,0,0,0,0,0,0,0,0,0,0,0,0,0,0,0,0,0,0,0,0,0,0,0,0,0,0,0,0,0,0
0,0,0,0,0,0,0,0,3.0234,2.9961,2.9707,2.9961,2.9961,2.9707,2.9434,2.9434,2.9434,2.9707,2.9434,2.9434,2.9961,2.9961,3.0234,2.9961,2.9961,2.9707,2.9434,2.9707,2.9961,2.9707,2.9707,0,0,0,0,0,2.9434,2.9434,2.918,2.918,2.918,0,0,0,0,0,0,0,0,0,0,2.9434,0,0,0,0,0,0,0,0,0,0,0,0,0,0,0,0,0,0,0,0,0,0,0,0,0,0,0,0,0,0,0,0,0,0,0,0,0,0,0,0,0,0,0,0,0,0,0,0,0,0,0,0,0,0,0,0,0,1.0596,1.0596,1.0596,1.0557,1.0596,1.0596,1.0625,1.0596,1.0596,1.0596,1.0596,1.0596,1.0557,1.0557,1.0557,1.0459,1.043,1.043,1.043,1.0459,1.0459,1.0459,1.0498,1.0527,1.0527,1.0557,1.0693,1.0693,1.0693,1.0693,1.0693,1.0732,1.0732,1.0732,1.0762,1.0762,1.0762,1.0762,1.0762,1.0762,1.0801,1.0801,1.083,1.083,1.083,1.0869,1.0869,1.0908,1.0908,1.0908,1.0869,1.0869,1.0908,1.0869,1.0908,1.0869,1.0869,1.0869,1.0869,1.0869,1.0869,1.0908,1.1162,1.1162,1.1162,1.1123,1.1084,1.1123,1.1084,1.1084,1.1055,1.1016,1.1016,1.1016,1.1016,1.1016,1.1016,1.1055,1.1016,1.1016,1.1016,1.1016,1.1055,1.1016,1.1016,1.1016,1.1016,1.1016,1.1016,1.1016,1.1055,1.1055,1.1055,1.1055,1.1055,1.1055,1.1055,1.1055,1.1055,1.1055,1.1055,1.1094,1.1094,1.1094,1.1094,1.1123,1.1123,1.1123,1.1123,1.1123,1.1094,1.1123,1.1094,1.1123,1.1123,1.1123,1.1094,1.1123,1.1123,1.1123,1.1094,1.1094,1.1123,1.1123,1.1123,1.1123,1.1123,1.1123,1.1123,1.1123,1.1123,1.1123,1.1123,1.1133,1.1133,1.1133,1.1162,1.1162,1.1162,1.1133,1.1133,1.1133,1.1133,1.1133,1.1094,1.1133,1.1133,1.1162,1.1162,1.1162,1.1162,1.1162,1.1162,1.1201,1.1201,1.124,1.1201,1.124,1.124,1.124,1.1201,1.1201,1.1201,1.1201,1.1201,1.1201,1.1201,1.1201,1.1201,1.124,1.124,1.124,1.124,1.124,1.124,1.124,1.124,1.124,1.124,1.124,1.124,1.124,1.124,1.124,1.124,1.124,1.124,1.124,1.124,1.124,1.124,1.124,1.1279,1.1318,1.1318,1.1279,1.1279,1.1279,1.1279,1.1279,1.1279,1.1279,1.1279,1.1279,1.124,1.1279,1.124,1.124,1.124,1.124,1.124,1.124,1.1279,1.1279,1.1279,1.1279,1.1279,1.1279,1.1279,1.1279,1.1279,1.1279,1.1279,1.124,1.124,1.124,1.125,1.125,1.125,1.1318,1.1318,1.1318,1.1279,1.1279,1.1279,1.1279,1.1279,1.1279,1.1357,1.1357,1.1318,1.1357,1.1357,1.1318,1.1318,1.1318,1.1318,1.1318,1.1318,1.1279,1.1279,1.1279,1.1289,1.1289,1.1318,1.1318,1.1318,1.1318,1.1318,1.1318,1.1318,1.1357,1.1318,1.1318,1.1318,1.1318,1.1328,1.1357,1.1328,1.1357,1.1357,1.1357,1.1357,1.1396,1.1396,1.1357,1.1367,1.1367,1.1367,1.1367,1.1367,1.1396,1.1367,1.1396,1.1396,1.1367,1.1396,1.1396,1.1406,1.1406,1.1406,1.1445,1.1445,1.1445,1.1406,1.1406,1.1445,1.1445,1.1445,1.1445,1.1445,1.1445,1.1445,1.1445,1.1445,1.1484,1.1484,1.1484,1.1484,1.1484,1.1523,1.1484,1.1523,1.1523,1.1523,1.1484,1.1523,1.1523,1.1523,1.1562,1.1523,1.1523,1.1523,1.1523,1.1523,1.1523,1.1562,1.1523,1.1562,1.1562,1.1562,1.1562,1.1562,1.1562,1.1562,1.1562,1.1602,1.1602,1.1602,1.1602,1.1602,1.1602,1.1602,1.1602,1.1602,1.1602,1.1602,1.1602,1.1602,1.1562,1.1562,1.1562,1.1523,1.1523,1.1523,1.1523,1.1484,1.1484,1.1484,1.1445,1.1445,1.1445,1.1406,1.1406,1.1406,1.1406,1.1406,1.1367,1.1367,1.1328,0,0,0,0,0,0,0,0,0,0,0,0,0,0,0,0,0,0,0,0,0,0,0,0,0,0,0,0,0,0,0
0,0,0,0,0,0,3.1074,3.0801,2.9707,2.9961,2.9707,2.9961,2.9961,2.9707,2.9707,2.9707,2.9707,2.9961,2.9707,2.9707,2.9961,3.0234,3.0234,2.9961,2.9961,2.9707,2.9707,2.9707,2.9707,2.9707,2.9434,0,0,0,0,0,0,0,2.918,2.918,2.918,0,0,0,0,0,0,0,0,0,0,0,0,0,0,0,0,0,0,0,0,0,0,0,0,0,0,0,0,0,0,0,0,0,0,0,0,0,0,0,0,0,0,0,0,0,0,0,0,0,0,0,0,0,0,0,0,0,0,0,0,0,0,0,0,0,0,0,0,0,1.0596,1.0596,1.0557,1.0596,1.0625,1.0625,1.0596,1.0596,1.0596,1.0596,1.0596,1.0596,1.0596,1.0557,1.0459,1.043,1.043,1.043,1.0459,1.0459,1.0459,1.0527,1.0557,1.0557,1.0557,1.0693,1.0693,1.0693,1.0693,1.0693,1.0732,1.0732,1.0732,1.0762,1.0762,1.0762,1.0762,1.0801,1.0762,1.0801,1.0801,1.0801,1.084,1.0869,1.0869,1.0869,1.0908,1.0908,1.0938,1.0908,1.0908,1.0908,1.0908,1.0908,1.0908,1.0908,1.0908,1.0869,1.0869,1.0908,1.1123,1.1162,1.1162,1.1162,1.1123,1.1084,1.1084,1.1055,1.1055,1.1055,1.1016,1.1016,1.1016,1.1016,1.1016,1.1016,1.1055,1.1055,1.1055,1.1055,1.1016,1.1055,1.1055,1.1055,1.1055,1.1055,1.1016,1.1055,1.1055,1.1055,1.1055,1.1055,1.1055,1.1055,1.1055,1.1055,1.1055,1.1055,1.1055,1.1055,1.1094,1.1094,1.1094,1.1094,1.1094,1.1094,1.1123,1.1123,1.1094,1.1094,1.1094,1.1094,1.1123,1.1123,1.1123,1.1094,1.1094,1.1123,1.1094,1.1094,1.1094,1.1123,1.1123,1.1123,1.1123,1.1133,1.1133,1.1133,1.1133,1.1133,1.1133,1.1133,1.1133,1.1133,1.1133,1.1162,1.1162,1.1162,1.1162,1.1162,1.1133,1.1133,1.1133,1.1133,1.1162,1.1133,1.1162,1.1162,1.1162,1.1162,1.1162,1.1162,1.1201,1.124,1.124,1.124,1.124,1.124,1.124,1.124,1.1201,1.1201,1.1201,1.1201,1.1201,1.124,1.1201,1.1201,1.124,1.124,1.124,1.124,1.124,1.124,1.124,1.124,1.124,1.124,1.124,1.1279,1.124,1.124,1.124,1.124,1.124,1.124,1.124,1.124,1.124,1.124,1.124,1.1279,1.1318,1.1318,1.1279,1.1279,1.1279,1.1279,1.1279,1.1318,1.1279,1.1279,1.1279,1.1279,1.1279,1.1279,1.1279,1.124,1.124,1.124,1.1279,1.1279,1.1279,1.1279,1.1318,1.1318,1.1279,1.1279,1.1318,1.1318,1.1279,1.1279,1.1279,1.125,1.125,1.125,1.125,1.125,1.1318,1.1279,1.1318,1.1279,1.1279,1.1279,1.1279,1.1279,1.1279,1.1357,1.1357,1.1357,1.1357,1.1357,1.1357,1.1357,1.1357,1.1318,1.1318,1.1318,1.1289,1.1289,1.1289,1.1289,1.1318,1.1318,1.1318,1.1318,1.1318,1.1328,1.1328,1.1328,1.1328,1.1328,1.1328,1.1328,1.1328,1.1328,1.1357,1.1357,1.1367,1.1367,1.1367,1.1367,1.1367,1.1406,1.1367,1.1367,1.1367,1.1367,1.1367,1.1367,1.1406,1.1406,1.1406,1.1406,1.1406,1.1406,1.1406,1.1406,1.1406,1.1406,1.1406,1.1406,1.1445,1.1406,1.1445,1.1406,1.1445,1.1445,1.1445,1.1445,1.1484,1.1445,1.1445,1.1445,1.1484,1.1484,1.1484,1.1484,1.1484,1.1523,1.1523,1.1523,1.1523,1.1523,1.1484,1.1523,1.1562,1.1562,1.1562,1.1523,1.1562,1.1562,1.1562,1.1523,1.1562,1.1562,1.1523,1.1562,1.1523,1.1562,1.1602,1.1562,1.1562,1.1562,1.1602,1.1602,1.1602,1.1602,1.1602,1.1602,1.1602,1.1641,1.1602,1.1602,1.1602,1.1602,1.1602,1.1602,1.1562,1.1562,1.1562,1.1523,1.1523,1.1523,1.1523,1.1484,1.1484,1.1484,1.1445,1.1484,1.1445,1.1406,1.1406,1.1367,1.1367,1.1406,1.1406,1.1367,1.1328,0,0,0,0,0,0,0,0,0,0,0,0,0,0,0,0,0,0,0,0,0,0,0,0,0,0,0,0,0,0,0
0,0,0,0,0,0,3.1094,2.9961,2.9707,2.9961,2.9707,2.9961,2.9961,2.9961,2.9961,2.9707,2.9707,2.9961,2.9707,2.9434,2.9961,3.0234,2.998,2.998,2.998,2.9707,2.9707,2.9707,2.9707,2.9707,2.9707,2.9707,2.9453,0,0,2.9707,2.9453,2.9453,2.918,2.8926,2.8926,2.8926,2.8926,0,0,0,0,0,0,0,0,0,0,0,0,0,0,0,0,0,0,0,0,0,0,0,0,0,0,0,0,0,0,0,0,0,0,0,0,0,0,0,0,0,0,0,0,0,0,0,0,0,0,0,0,0,0,0,0,0,0,0,0,0,0,0,0,0,0,0,1.0664,1.0596,1.0557,1.0625,1.0625,1.0625,1.0596,1.0596,1.0596,1.0596,1.0596,1.0596,1.0596,1.0557,1.0459,1.043,1.043,1.043,1.0459,1.0459,1.0498,1.0557,1.0557,1.0557,1.0664,1.0693,1.0693,1.0693,1.0693,1.0693,1.0732,1.0732,1.0732,1.0762,1.0801,1.0801,1.0801,1.0801,1.0801,1.084,1.0801,1.084,1.084,1.0869,1.0869,1.0869,1.0869,1.0908,1.0908,1.0908,1.0908,1.0908,1.0908,1.0908,1.0908,1.0908,1.0908,1.0908,1.0869,1.0908,1.0908,1.1162,1.1123,1.1123,1.1084,1.1084,1.1055,1.1055,1.1016,1.1016,1.1016,1.1016,1.1016,1.1016,1.1016,1.1016,1.1055,1.1055,1.1016,1.1016,1.1016,1.1055,1.1016,1.1016,1.1016,1.1055,1.1055,1.1055,1.1055,1.1055,1.1055,1.1055,1.1055,1.1055,1.1055,1.1055,1.1055,1.1055,1.1094,1.1094,1.1094,1.1123,1.1123,1.1123,1.1123,1.1123,1.1123,1.1123,1.1123,1.1094,1.1123,1.1094,1.1123,1.1123,1.1123,1.1123,1.1123,1.1123,1.1133,1.1094,1.1094,1.1133,1.1133,1.1133,1.1133,1.1162,1.1162,1.1162,1.1133,1.1133,1.1133,1.1133,1.1162,1.1162,1.1133,1.1162,1.1162,1.1162,1.1162,1.1162,1.1162,1.1162,1.1162,1.1162,1.1162,1.1162,1.1162,1.1162,1.1172,1.1201,1.1162,1.1162,1.124,1.124,1.124,1.124,1.124,1.124,1.124,1.124,1.1201,1.1201,1.1201,1.1201,1.1201,1.124,1.124,1.124,1.124,1.1279,1.124,1.124,1.124,1.124,1.124,1.124,1.124,1.124,1.1279,1.1279,1.1279,1.124,1.124,1.124,1.124,1.124,1.124,1.124,1.124,1.124,1.124,1.1279,1.1318,1.1318,1.1279,1.1279,1.1279,1.1279,1.1279,1.1318,1.1318,1.1279,1.1318,1.1279,1.1279,1.1279,1.1279,1.1279,1.1279,1.1279,1.1279,1.1279,1.1279,1.1279,1.1279,1.1318,1.1279,1.1279,1.1279,1.1279,1.1279,1.1279,1.1279,1.125,1.125,1.125,1.125,1.1279,1.1318,1.1318,1.1318,1.1289,1.1289,1.1318,1.1318,1.1318,1.1318,1.1357,1.1357,1.1357,1.1357,1.1357,1.1357,1.1357,1.1357,1.1357,1.1357,1.1328,1.1328,1.1289,1.1289,1.1328,1.1289,1.1328,1.1328,1.1328,1.1357,1.1328,1.1328,1.1328,1.1328,1.1328,1.1328,1.1328,1.1367,1.1367,1.1367,1.1367,1.1367,1.1367,1.1367,1.1367,1.1367,1.1406,1.1367,1.1367,1.1367,1.1367,1.1367,1.1406,1.1406,1.1406,1.1406,1.1406,1.1406,1.1406,1.1406,1.1406,1.1406,1.1445,1.1445,1.1445,1.1445,1.1445,1.1445,1.1406,1.1445,1.1445,1.1445,1.1445,1.1445,1.1445,1.1445,1.1445,1.1484,1.1484,1.1523,1.1523,1.1523,1.1523,1.1523,1.1523,1.1562,1.1523,1.1484,1.1523,1.1523,1.1523,1.1523,1.1523,1.1523,1.1562,1.1562,1.1562,1.1562,1.1562,1.1562,1.1562,1.1562,1.1602,1.1562,1.1562,1.1562,1.1602,1.1602,1.1602,1.1602,1.1602,1.1602,1.1602,1.1602,1.1602,1.1602,1.1602,1.1602,1.1602,1.1602,1.1602,1.1562,1.1562,1.1562,1.1562,1.1523,1.1523,1.1523,1.1484,1.1484,1.1484,1.1445,1.1484,1.1445,1.1406,1.1406,1.1406,1.1406,1.1406,1.1406,1.1406,1.1367,0,0,0,0,0,0,0,0,0,0,0,0,0,0,0,0,0,0,0,0,0,0,0,0,0,0,0,0,0,0,0
0,0,0,0,0,0,2.9961,2.9707,2.9434,2.9707,2.9707,2.9961,3.0234,3.0234,3.0234,2.998,2.998,3.0234,2.9707,2.9707,2.998,2.998,2.998,2.998,2.9707,2.9707,2.9453,2.9707,2.9453,2.9453,2.9453,2.9707,2.918,2.9707,2.998,2.9453,2.9453,2.918,2.918,2.8926,2.8691,2.8691,2.8691,0,0,0,0,0,0,0,0,0,0,0,0,0,0,0,0,0,0,0,0,0,0,0,0,0,0,0,0,0,0,0,0,0,0,0,0,0,0,0,0,0,0,0,0,0,0,0,0,0,0,0,0,0,0,0,0,0,0,0,0,0,0,0,0,0,0,0,1.0693,1.0625,1.0596,1.0693,1.0693,1.0625,1.0596,1.0596,1.0596,1.0596,1.0596,1.0596,1.0596,1.0557,1.0459,1.0459,1.043,1.043,1.0459,1.0459,1.0498,1.0557,1.0557,1.0557,1.0664,1.0693,1.0693,1.0693,1.0693,1.0693,1.0732,1.0732,1.0732,1.0762,1.0801,1.084,1.084,1.084,1.0801,1.084,1.084,1.084,1.0869,1.0869,1.0869,1.0869,1.0869,1.0908,1.0908,1.0869,1.0869,1.0908,1.0908,1.0908,1.0908,1.0908,1.0908,1.0869,1.0869,1.0908,1.0908,1.1162,1.1162,1.1162,1.1123,1.1084,1.1055,1.1016,1.1016,1.1016,1.1016,1.1016,1.1016,1.1016,1.1016,1.1016,1.1055,1.1055,1.1055,1.1016,1.1016,1.1016,1.1016,1.1016,1.1016,1.1055,1.1055,1.1055,1.1055,1.1055,1.1055,1.1094,1.1094,1.1094,1.1094,1.1123,1.1055,1.1094,1.1094,1.1094,1.1123,1.1123,1.1123,1.1123,1.1123,1.1123,1.1123,1.1123,1.1123,1.1123,1.1133,1.1162,1.1201,1.1162,1.1162,1.1162,1.1133,1.1133,1.1133,1.1133,1.1133,1.1133,1.1162,1.1162,1.1162,1.1162,1.1162,1.1162,1.1162,1.1162,1.1133,1.1133,1.1162,1.1162,1.1162,1.1162,1.1162,1.1162,1.1162,1.1162,1.1162,1.1172,1.1172,1.1172,1.1172,1.1172,1.1172,1.1172,1.1172,1.1201,1.1201,1.1201,1.124,1.124,1.124,1.124,1.124,1.124,1.124,1.124,1.1201,1.1201,1.1201,1.124,1.124,1.124,1.124,1.124,1.124,1.124,1.124,1.124,1.124,1.124,1.124,1.1279,1.124,1.124,1.1279,1.1279,1.1279,1.1279,1.124,1.124,1.124,1.124,1.124,1.124,1.124,1.124,1.124,1.1279,1.1279,1.1318,1.1279,1.1279,1.1279,1.1279,1.1279,1.1318,1.1279,1.1279,1.1318,1.1318,1.1279,1.1279,1.1279,1.125,1.1279,1.1279,1.1279,1.1279,1.1279,1.1279,1.1279,1.1318,1.1279,1.1279,1.1279,1.1279,1.1279,1.1318,1.1279,1.1289,1.1318,1.1318,1.1289,1.1289,1.1289,1.1289,1.1289,1.1289,1.1289,1.1289,1.1289,1.1318,1.1318,1.1357,1.1357,1.1357,1.1357,1.1357,1.1357,1.1357,1.1357,1.1357,1.1367,1.1328,1.1328,1.1328,1.1328,1.1367,1.1289,1.1328,1.1328,1.1367,1.1367,1.1367,1.1328,1.1367,1.1328,1.1367,1.1328,1.1367,1.1367,1.1406,1.1367,1.1367,1.1367,1.1367,1.1367,1.1328,1.1367,1.1367,1.1406,1.1406,1.1367,1.1367,1.1406,1.1406,1.1406,1.1406,1.1406,1.1406,1.1406,1.1406,1.1445,1.1445,1.1406,1.1445,1.1445,1.1445,1.1445,1.1445,1.1406,1.1445,1.1445,1.1445,1.1445,1.1445,1.1484,1.1445,1.1445,1.1445,1.1484,1.1484,1.1523,1.1484,1.1484,1.1523,1.1523,1.1523,1.1562,1.1523,1.1523,1.1523,1.1523,1.1523,1.1523,1.1523,1.1523,1.1562,1.1562,1.1562,1.1562,1.1562,1.1562,1.1602,1.1602,1.1602,1.1602,1.1602,1.1562,1.1602,1.1602,1.1602,1.1602,1.1602,1.1602,1.1641,1.1602,1.1602,1.1602,1.1602,1.1602,1.1602,1.1562,1.1562,1.1562,1.1562,1.1562,1.1523,1.1523,1.1523,1.1523,1.1484,1.1484,1.1484,1.1484,1.1484,1.1445,1.1445,1.1445,1.1406,1.1406,1.1406,1.1406,1.1367,1.1367,0,0,0,0,0,0,0,0,0,0,0,0,0,0,0,0,0,0,0,0,0,0,0,0,0,0,0,0,0,0,0
0,0,0,0,0,0,3.0234,2.9707,2.9707,2.9707,2.9707,2.998,3.0234,3.0234,3.0234,3.0234,3.0234,3.0234,2.9707,2.9707,3.0254,2.9707,2.9707,2.998,2.9707,2.9707,2.9453,2.9453,2.9453,2.9453,2.998,2.9707,2.998,2.998,2.9707,2.9453,2.9453,2.918,2.9199,2.8945,2.8691,2.8691,2.8945,0,0,0,0,0,0,0,0,0,0,0,0,0,0,0,0,0,0,0,0,0,0,0,0,0,0,0,0,0,0,0,0,0,0,0,0,0,0,0,0,2.8691,0,0,0,0,0,0,0,0,0,0,0,0,0,0,0,0,0,0,0,0,0,0,0,0,0,0,1.0693,1.0625,1.0625,1.0693,1.0664,1.0625,1.0596,1.0596,1.0596,1.0625,1.0596,1.0596,1.0596,1.0557,1.0527,1.0459,1.0459,1.043,1.0459,1.0498,1.0527,1.0557,1.0557,1.0596,1.0693,1.0693,1.0693,1.0693,1.0693,1.0693,1.0732,1.0732,1.0732,1.0732,1.0801,1.084,1.084,1.0801,1.0801,1.084,1.084,1.0869,1.0869,1.0869,1.0908,1.0869,1.0908,1.0908,1.0947,1.0908,1.0947,1.0947,1.0947,1.0947,1.0908,1.0908,1.0908,1.0869,1.0869,1.0869,1.1123,1.1162,1.1162,1.1162,1.1123,1.1094,1.1094,1.1055,1.1016,1.1016,1.1016,1.1016,1.1016,1.1016,1.1016,1.1016,1.1055,1.1055,1.1055,1.1016,1.1016,1.1016,1.1016,1.1016,1.1016,1.1016,1.1055,1.1055,1.1094,1.1094,1.1094,1.1094,1.1094,1.1094,1.1094,1.1094,1.1094,1.1094,1.1123,1.1123,1.1123,1.1123,1.1162,1.1162,1.1162,1.1162,1.1162,1.1162,1.1162,1.1162,1.1162,1.1162,1.1162,1.1162,1.1162,1.1162,1.1162,1.1162,1.1162,1.1162,1.1133,1.1133,1.1162,1.1162,1.1162,1.1162,1.1162,1.1162,1.1162,1.1162,1.1162,1.1162,1.1162,1.1162,1.1172,1.1172,1.1172,1.1172,1.1172,1.1172,1.1172,1.1172,1.1172,1.1172,1.1172,1.1172,1.1172,1.1172,1.1201,1.1201,1.1201,1.1201,1.124,1.124,1.124,1.124,1.124,1.124,1.124,1.1201,1.1201,1.1201,1.1201,1.124,1.124,1.124,1.124,1.124,1.124,1.124,1.124,1.124,1.124,1.124,1.124,1.1279,1.124,1.1279,1.1279,1.1279,1.1279,1.1279,1.1279,1.124,1.124,1.124,1.124,1.124,1.124,1.124,1.1279,1.1279,1.1318,1.1318,1.1279,1.1279,1.1279,1.1279,1.1318,1.1318,1.1318,1.1279,1.1279,1.1279,1.1279,1.1279,1.1279,1.125,1.125,1.1289,1.1289,1.1289,1.1279,1.1279,1.1279,1.1318,1.1289,1.1289,1.1318,1.1289,1.1289,1.1318,1.125,0,1.1289,1.1289,1.1289,1.1289,1.1289,1.1289,1.1289,1.1328,1.1328,1.1328,1.1328,1.1328,1.1357,1.1396,1.1357,1.1396,1.1367,1.1367,1.1367,1.1367,1.1367,1.1367,1.1367,1.1328,1.1328,1.1328,1.1328,1.1367,1.1328,1.1289,1.1328,1.1367,1.1367,1.1367,1.1328,1.1328,1.1328,1.1328,1.1367,1.1367,1.1367,1.1367,1.1367,1.1367,1.1367,1.1367,1.1328,1.1328,1.1328,1.1367,1.1367,1.1367,1.1367,1.1367,1.1406,1.1406,1.1406,1.1406,1.1406,1.1445,1.1406,1.1406,1.1445,1.1406,1.1445,1.1445,1.1445,1.1445,1.1445,1.1445,1.1445,1.1445,1.1445,1.1445,1.1445,1.1445,1.1484,1.1445,1.1445,1.1445,1.1484,1.1484,1.1523,1.1523,1.1523,1.1523,1.1523,1.1523,1.1523,1.1523,1.1523,1.1523,1.1523,1.1562,1.1562,1.1523,1.1562,1.1562,1.1562,1.1562,1.1602,1.1602,1.1602,1.1602,1.1602,1.1602,1.1602,1.1602,1.1602,1.1602,1.1602,1.1602,1.1602,1.1602,1.1602,1.1641,1.1602,1.1641,1.1602,1.1602,1.1602,1.1602,1.1602,1.1602,1.1562,1.1562,1.1562,1.1523,1.1523,1.1523,1.1523,1.1484,1.1484,1.1484,1.1484,1.1445,1.1445,1.1445,1.1445,1.1406,1.1406,1.1406,1.1406,1.1406,1.1367,0,0,0,0,0,0,0,0,0,0,0,0,0,0,0,0,0,0,0,0,0,0,0,0,0,0,0,0,0,0,0
0,0,0,0,0,0,3.0234,2.9707,2.9707,2.9707,2.9707,2.998,3.0254,3.0254,3.0254,3.0527,3.0527,3.0254,3.0527,3.0254,3.0254,3.0254,3.0254,2.998,2.9707,2.9453,2.9453,2.9453,2.9453,2.9453,2.9707,2.9707,2.9707,2.998,2.998,2.9707,2.9453,2.9199,2.9199,2.8945,2.8691,2.8945,2.9199,0,0,0,0,0,0,0,0,0,0,0,0,0,0,0,0,0,0,0,0,0,0,0,0,0,0,0,0,0,0,0,0,0,0,0,0,0,2.8457,2.8691,2.8691,2.8691,2.8945,2.9453,0,0,0,0,0,0,0,0,0,0,0,0,0,0,0,0,0,0,0,0,0,0,0,1.0664,1.0732,1.0625,1.0625,1.0693,1.0625,1.0625,1.0596,1.0596,1.0625,1.0596,1.0625,1.0596,1.0596,1.0557,1.0498,1.0498,1.0459,1.0459,1.0459,1.0498,1.0527,1.0566,1.0566,1.0596,1.0664,1.0693,1.0693,1.0693,1.0693,1.0732,1.0732,1.0732,1.0732,1.0732,1.0801,1.0801,1.084,1.084,1.0801,1.084,1.084,1.0869,1.0869,1.0869,1.0908,1.0908,1.0947,1.0947,1.0947,1.0908,1.0908,1.0947,1.0947,1.0947,1.0908,1.0869,1.0908,1.0869,1.0908,1.0908,1.1123,1.1162,1.1162,1.1162,1.1123,1.1094,1.1094,1.1055,1.1055,1.1016,1.1016,1.1016,1.1016,1.1016,1.1016,1.1016,1.1055,1.1055,1.1055,1.1055,1.1016,1.1016,1.1016,1.1016,1.1016,1.1016,1.1055,1.1094,1.1133,1.1133,1.1162,1.1162,1.1162,1.1133,1.1123,1.1123,1.1133,1.1133,1.1133,1.1133,1.1133,1.1162,1.1162,1.1162,1.1162,1.1162,1.1162,1.1162,1.1162,1.1162,1.1162,1.1162,1.1201,1.1201,1.1201,1.1162,1.1201,1.1162,1.1201,1.1162,1.1162,1.1162,1.1162,1.1162,1.1201,1.1201,1.1201,1.1201,1.1201,1.1172,1.1172,1.1172,1.1172,1.1172,1.1172,1.1172,1.1201,1.1172,1.1201,1.1201,1.1172,1.1172,1.1172,1.1172,1.1172,1.1172,1.1172,1.1172,1.1172,1.1201,1.1201,1.1201,1.124,1.1279,1.124,1.124,1.124,1.124,1.124,1.124,1.1211,1.1211,1.124,1.124,1.124,1.124,1.124,1.124,1.124,1.124,1.124,1.124,1.124,1.124,1.124,1.1279,1.1279,1.1279,1.1279,1.1279,1.1279,1.1279,1.1279,1.125,1.125,1.125,1.125,1.1279,1.125,1.125,1.1279,1.1279,1.1318,1.1318,1.1318,1.1318,1.1318,1.1318,1.1318,1.1318,1.1318,1.1318,1.1318,1.1318,1.1318,1.1318,1.1289,1.125,1.125,1.125,1.125,1.1289,1.1289,1.1289,1.1289,1.1289,1.1289,1.1289,1.1289,1.1289,1.1289,1.125,1.125,1.1289,1.1289,1.1289,1.1289,1.1289,1.1328,1.1289,1.1289,1.1328,1.1328,1.1328,1.1328,1.1367,1.1396,1.1396,1.1406,1.1406,1.1406,1.1406,1.1367,1.1367,1.1367,1.1367,1.1367,1.1367,1.1367,1.1367,1.1367,1.1367,1.1367,1.1367,1.1367,1.1367,1.1328,1.1367,1.1328,1.1328,1.1367,1.1367,1.1367,1.1367,1.1367,1.1367,1.1367,1.1367,1.1367,1.1367,1.1328,1.1328,1.1367,1.1367,1.1367,1.1367,1.1367,1.1367,1.1406,1.1406,1.1406,1.1406,1.1406,1.1406,1.1406,1.1445,1.1445,1.1445,1.1445,1.1445,1.1445,1.1445,1.1445,1.1445,1.1445,1.1445,1.1445,1.1445,1.1445,1.1445,1.1484,1.1445,1.1445,1.1445,1.1484,1.1523,1.1523,1.1523,1.1523,1.1523,1.1523,1.1523,1.1523,1.1523,1.1523,1.1523,1.1562,1.1562,1.1562,1.1562,1.1602,1.1602,1.1602,1.1602,1.1602,1.1602,1.1602,1.1602,1.1602,1.1602,1.1602,1.1602,1.1602,1.1602,1.1602,1.1602,1.1602,1.1641,1.1641,1.1641,1.1602,1.1602,1.1602,1.1602,1.1602,1.1562,1.1602,1.1602,1.1562,1.1562,1.1562,1.1562,1.1562,1.1523,1.1484,1.1484,1.1484,1.1484,1.1484,1.1484,1.1445,1.1445,1.1445,1.1445,1.1445,1.1445,1.1445,1.1406,1.1406,0,0,0,0,0,0,0,0,0,0,0,0,0,0,0,0,0,0,0,0,0,0,0,0,0,0,0,0,0,0,0
0,0,0,0,0,0,3.0254,2.998,2.9707,2.998,2.998,2.998,3.0254,3.0254,3.0527,3.0527,3.0254,3.0254,3.0254,3.0254,3.0254,2.998,2.9707,2.9707,2.9707,2.9707,2.9453,2.9453,2.9199,2.9453,2.9453,2.9707,2.9707,2.998,2.9707,2.9453,2.9199,2.9199,2.8945,2.8945,2.8945,2.8945,0,0,0,0,0,0,0,0,0,0,0,0,0,0,0,0,0,0,0,0,0,0,0,0,0,0,0,0,0,0,0,0,0,0,0,0,0,0,2.8691,2.8691,2.8691,2.8691,2.8945,0,0,0,0,0,0,0,0,0,0,0,0,0,0,0,0,0,0,0,0,0,0,0,0,1.0625,1.0596,1.0596,1.0596,1.0625,1.0625,1.0625,1.0596,1.0596,1.0625,1.0625,1.0625,1.0596,1.0596,1.0566,1.0527,1.0527,1.0498,1.0498,1.0498,1.0527,1.0527,1.0566,1.0596,1.0596,1.0664,1.0693,1.0693,1.0693,1.0693,1.0693,1.0732,1.0732,1.0732,1.0771,1.0801,1.084,1.084,1.084,1.084,1.084,1.084,1.084,1.0869,1.0869,1.0908,1.0908,1.0947,1.0947,1.0947,1.0947,1.0908,1.0908,1.0908,1.0908,1.0908,1.0869,1.0908,1.0908,1.0908,1.0908,1.1123,1.1162,1.1162,1.1162,1.1123,1.1123,1.1094,1.1055,1.1055,1.1016,1.1016,1.1016,1.1016,1.1016,1.1016,1.1016,1.1055,1.1055,1.1055,1.1055,1.1055,1.1055,1.1016,1.1016,1.1055,1.1055,1.1055,1.1201,1.1162,1.1162,1.1162,1.1162,1.1162,1.1162,1.1133,1.1133,1.1133,1.1133,1.1133,1.1133,1.1133,1.1162,1.1162,1.1162,1.1162,1.1162,1.1162,1.1162,1.1162,1.1162,1.1162,1.1162,1.1162,1.1162,1.1162,1.1162,1.1201,1.1201,1.1162,1.1172,1.1172,1.1172,1.1172,1.1172,1.1201,1.1201,1.1201,1.1201,1.1201,1.1201,1.1201,1.1201,1.1172,1.1201,1.1201,1.1201,1.1201,1.1201,1.1201,1.1201,1.1201,1.1201,1.1172,1.1172,1.1201,1.1172,1.1172,1.1172,1.1211,1.1211,1.1211,1.124,1.1279,1.1279,1.124,1.124,1.124,1.124,1.124,1.124,1.1211,1.124,1.124,1.124,1.124,1.124,1.124,1.124,1.124,1.124,1.124,1.124,1.124,1.124,1.124,1.125,1.125,1.1279,1.1279,1.1279,1.1279,1.1318,1.1279,1.1279,1.1279,1.1279,1.1279,1.1279,1.1279,1.1318,1.1318,1.1318,1.1318,1.1318,1.1318,1.1318,1.1318,1.1318,1.1318,1.1318,1.1318,1.1318,1.1318,1.1318,1.1318,1.1318,1.1289,1.1289,1.1289,1.1289,1.1289,1.1289,1.1289,1.1289,1.1289,1.1289,1.1328,1.1289,1.1289,1.1328,1.1289,1.125,1.1289,1.1289,1.1289,1.1289,1.1289,1.1289,1.1328,1.1328,1.1328,1.1328,1.1367,1.1367,1.1367,1.1367,1.1406,1.1406,1.1406,1.1367,1.1406,1.1406,1.1406,1.1406,1.1367,1.1367,1.1367,1.1367,1.1367,1.1367,1.1367,1.1367,1.1367,1.1367,1.1367,1.1367,1.1328,1.1367,1.1367,1.1367,1.1406,1.1367,1.1367,1.1367,1.1406,1.1367,1.1367,1.1367,1.1367,1.1328,1.1328,1.1328,1.1328,1.1367,1.1367,1.1367,1.1367,1.1367,1.1406,1.1406,1.1406,1.1406,1.1406,1.1445,1.1445,1.1445,1.1406,1.1445,1.1445,1.1445,1.1445,1.1445,1.1445,1.1445,1.1445,1.1445,1.1484,1.1484,1.1445,1.1445,1.1484,1.1484,1.1445,1.1445,1.1484,1.1523,1.1523,1.1484,1.1523,1.1523,1.1523,1.1523,1.1523,1.1523,1.1523,1.1523,1.1562,1.1562,1.1562,1.1562,1.1602,1.1602,1.1602,1.1602,1.1602,1.1602,1.1602,1.1602,1.1602,1.1602,1.1602,1.1602,1.1602,1.1602,1.1602,1.1602,1.1602,1.1641,1.1641,1.1641,1.165,1.165,1.1602,1.1602,1.1602,1.1562,1.1562,1.1562,1.1562,1.1562,1.1562,1.1562,1.1562,1.1562,1.1523,1.1523,1.1484,1.1484,1.1484,1.1484,1.1445,1.1484,1.1445,1.1445,1.1445,1.1406,1.1445,1.1406,1.1406,0,0,0,0,0,0,0,0,0,0,0,0,0,0,0,0,0,0,0,0,0,0,0,0,0,0,0,0,0,0,0
0,0,0,0,0,0,0,2.9707,2.9707,2.998,2.998,3.0254,3.0254,3.0527,3.0527,3.0527,3.0527,3.0527,3.0527,3.0254,3.0254,2.998,2.9707,2.998,2.9707,2.9707,2.9453,2.9453,2.9199,2.9453,2.9453,2.9707,2.998,2.998,2.998,2.9707,2.9453,2.9199,2.8945,2.8691,2.8945,0,0,0,0,0,0,0,0,0,0,0,0,0,0,0,0,0,0,0,0,0,0,0,0,0,0,0,0,0,0,0,0,0,0,0,0,0,0,0,0,2.8945,2.8691,2.8691,2.8945,2.9199,0,0,0,0,0,0,0,0,0,0,0,0,0,0,0,0,0,0,0,0,0,0,0,1.0596,1.0596,1.0596,1.0596,1.0625,1.0625,1.0664,1.0625,1.0625,1.0693,1.0664,1.0664,1.0664,1.0596,1.0566,1.0527,1.0527,1.0498,1.0527,1.0527,1.0527,1.0566,1.0566,1.0596,1.0625,1.0693,1.0693,1.0693,1.0732,1.0732,1.0732,1.0732,1.0732,1.0732,1.0801,1.084,1.084,1.084,1.084,1.084,1.084,1.084,1.084,1.0869,1.0869,1.0869,1.0869,1.0947,1.0947,1.0947,1.0908,1.0908,1.0908,1.0908,1.0947,1.0908,1.0908,1.0947,1.0947,1.0947,1.1094,1.1162,1.1123,1.1162,1.1162,1.1123,1.1094,1.1094,1.1055,1.1055,1.1016,1.1016,1.1016,1.1016,1.1016,1.1016,1.1055,1.1094,1.1094,1.1055,1.1094,1.1055,1.1016,1.1016,1.1016,1.1055,1.1055,1.1094,1.1133,1.1162,1.1162,1.1162,1.1162,1.1162,1.1162,1.1162,1.1133,1.1133,1.1133,1.1133,1.1133,1.1162,1.1162,1.1162,1.1162,1.1162,1.1162,1.1162,1.1162,1.1162,1.1162,1.1162,1.1162,1.1201,1.1201,1.1201,1.1172,1.1201,1.1201,1.1201,1.1201,1.1172,1.1172,1.1201,1.1201,1.1201,1.1201,1.1201,1.1201,1.1201,1.1201,1.1201,1.1201,1.1201,1.1201,1.1201,1.1201,1.124,1.1201,1.124,1.124,1.1211,1.1211,1.1211,1.1172,1.1172,1.1172,1.1172,1.1211,1.1211,1.1211,1.1211,1.124,1.1279,1.1279,1.124,1.124,1.124,1.124,1.124,1.124,1.124,1.125,1.125,1.125,1.125,1.1279,1.125,1.1279,1.125,1.125,1.125,1.125,1.125,1.125,1.125,1.125,1.125,1.1279,1.1279,1.1279,1.1279,1.1318,1.1279,1.1279,1.1279,1.1279,1.1289,1.1289,1.1289,1.1318,1.1318,1.1318,1.1318,1.1318,1.1318,1.1318,1.1318,1.1318,1.1318,1.1318,1.1328,1.1328,1.1328,1.1328,1.1289,1.1328,1.1289,1.1289,1.1289,1.125,1.1289,1.125,1.1289,1.1289,1.1289,1.1289,1.1328,1.1328,1.1289,1.1289,1.1289,1.1289,1.1289,1.1289,1.1289,1.1289,1.1328,1.1289,1.1328,1.1328,1.1328,1.1328,1.1367,1.1406,1.1367,1.1367,1.1367,1.1406,1.1406,1.1367,1.1406,1.1406,1.1406,1.1406,1.1406,1.1406,1.1406,1.1406,1.1406,1.1406,1.1406,1.1406,1.1406,1.1367,1.1367,1.1367,1.1367,1.1367,1.1406,1.1406,1.1406,1.1406,1.1406,1.1406,1.1406,1.1406,1.1367,1.1367,1.1367,1.1367,1.1328,1.1328,1.1328,1.1367,1.1367,1.1367,1.1367,1.1367,1.1406,1.1406,1.1406,1.1445,1.1445,1.1445,1.1445,1.1445,1.1406,1.1406,1.1445,1.1406,1.1445,1.1445,1.1445,1.1445,1.1445,1.1445,1.1445,1.1484,1.1445,1.1445,1.1484,1.1484,1.1484,1.1445,1.1523,1.1523,1.1523,1.1523,1.1523,1.1523,1.1562,1.1523,1.1523,1.1523,1.1562,1.1562,1.1562,1.1562,1.1562,1.1602,1.1602,1.1602,1.1602,1.1602,1.1602,1.1602,1.1602,1.1602,1.1602,1.1602,1.1602,1.1602,1.1602,1.1602,1.1602,1.1602,1.1602,1.165,1.165,1.1602,1.165,1.165,1.1602,1.1602,1.1602,1.1562,1.1602,1.1602,1.1602,1.1602,1.1562,1.1562,1.1523,1.1562,1.1523,1.1523,1.1523,1.1484,1.1523,1.1484,1.1484,1.1484,1.1445,1.1445,1.1445,1.1445,1.1445,1.1406,1.1406,0,0,0,0,0,0,0,0,0,0,0,0,0,0,0,0,0,0,0,0,0,0,0,0,0,0,0,0,0,0,0
0,0,0,0,0,0,0,3.0254,2.998,2.998,2.998,3.0254,3.0254,3.0527,3.0527,3.0527,3.0527,3.0254,3.0254,3.0254,3.0254,3.0254,2.998,2.998,2.9707,2.9707,2.9453,2.9453,2.9453,2.9453,2.9453,2.9707,2.998,2.998,2.998,2.9707,2.9453,2.9199,2.8945,2.8691,2.9199,2.9199,0,0,0,0,0,0,0,0,0,0,0,0,0,0,0,0,0,0,0,0,0,0,0,0,0,0,0,0,0,0,0,0,0,0,0,0,0,0,2.8691,2.8691,2.8945,2.8945,2.8945,2.9199,2.9199,0,0,0,0,0,0,0,0,0,0,0,0,0,0,0,0,0,0,0,0,0,0,1.0566,1.0566,1.0596,1.0596,1.0596,1.0664,1.0664,1.0664,1.0664,1.0693,1.0693,1.0693,1.0664,1.0664,1.0566,1.0527,1.0566,1.0527,1.0527,1.0527,1.0566,1.0566,1.0596,1.0635,1.0664,1.0703,1.0703,1.0703,1.0732,1.0703,1.0732,1.0771,1.0732,1.0771,1.084,1.084,1.084,1.0869,1.0869,1.084,1.0869,1.084,1.084,1.0869,1.0869,1.0869,1.0869,1.0908,1.0947,1.0947,1.0908,1.0908,1.0908,1.0947,1.0947,1.0947,1.0908,1.0947,1.0977,1.1016,1.1094,1.1162,1.1162,1.1162,1.1162,1.1123,1.1123,1.1094,1.1055,1.1055,1.1016,1.1016,1.1016,1.1016,1.1016,1.1055,1.1055,1.1094,1.1094,1.1094,1.1055,1.1055,1.1055,1.1016,1.1016,1.1055,1.1055,1.1094,1.1133,1.1162,1.1162,1.1162,1.1162,1.1162,1.1162,1.1162,1.1162,1.1133,1.1133,1.1172,1.1172,1.1172,1.1172,1.1172,1.1201,1.1201,1.1201,1.1201,1.1201,1.1172,1.1172,1.1172,1.1172,1.1201,1.1172,1.1201,1.1201,1.1201,1.1201,1.1201,1.1201,1.1172,1.1172,1.1201,1.1201,1.1201,1.1201,1.1201,1.1201,1.124,1.124,1.124,1.1211,1.1211,1.1211,1.1211,1.1211,1.124,1.1211,1.124,1.124,1.1211,1.1211,1.1211,1.1211,1.1211,1.1211,1.1211,1.1172,1.1172,1.1211,1.1211,1.1211,1.124,1.124,1.125,1.125,1.125,1.125,1.125,1.1211,1.125,1.125,1.125,1.125,1.125,1.1279,1.1279,1.1279,1.125,1.125,1.125,1.125,1.125,1.125,1.125,1.125,1.125,1.125,1.1279,1.1289,1.1289,1.1289,1.1289,1.125,1.125,1.125,1.1289,1.1289,1.1289,1.1318,1.1318,1.1357,1.1318,1.1357,1.1328,1.1328,1.1328,1.1328,1.1328,1.1357,1.1328,1.1328,1.1289,1.1289,1.1289,1.1328,1.1289,1.1289,1.1289,1.1289,1.1289,1.1289,1.1289,1.1289,1.1289,1.1289,1.1289,1.1289,1.1289,1.1289,1.1289,1.1289,1.1289,1.1289,1.1289,1.1289,1.1328,1.1328,1.1367,1.1367,1.1367,1.1406,1.1406,1.1406,1.1406,1.1406,1.1406,1.1406,1.1367,1.1367,1.1406,1.1406,1.1406,1.1406,1.1406,1.1406,1.1406,1.1406,1.1406,1.1445,1.1445,1.1406,1.1406,1.1406,1.1367,1.1367,1.1367,1.1367,1.1367,1.1406,1.1406,1.1406,1.1406,1.1406,1.1406,1.1406,1.1406,1.1406,1.1367,1.1367,1.1367,1.1328,1.1328,1.1367,1.1367,1.1367,1.1406,1.1367,1.1406,1.1406,1.1406,1.1406,1.1445,1.1445,1.1406,1.1445,1.1406,1.1445,1.1406,1.1406,1.1445,1.1445,1.1445,1.1445,1.1445,1.1445,1.1445,1.1445,1.1445,1.1445,1.1484,1.1484,1.1484,1.1484,1.1523,1.1523,1.1523,1.1523,1.1523,1.1562,1.1562,1.1562,1.1523,1.1523,1.1562,1.1562,1.1562,1.1562,1.1562,1.1602,1.1602,1.1602,1.1602,1.1602,1.1602,1.1602,1.1602,1.1602,1.1602,1.1602,1.1602,1.1602,1.1602,1.1602,1.1602,1.165,1.165,1.165,1.165,1.1602,1.165,1.1602,1.1602,1.1602,1.1602,1.1611,1.1611,1.1611,1.1611,1.1611,1.1611,1.1562,1.1562,1.1562,1.1523,1.1523,1.1523,1.1523,1.1523,1.1523,1.1484,1.1484,1.1445,1.1484,1.1445,1.1445,1.1445,1.1445,1.1406,0,0,0,0,0,0,0,0,0,0,0,0,0,0,0,0,0,0,0,0,0,0,0,0,0,0,0,0,0,0,0
0,0,0,0,0,0,0,3.0254,2.998,2.998,2.998,3.0254,3.0527,3.0527,3.0527,3.0527,3.0254,3.0254,3.0254,3.0254,3.0254,3.0254,2.998,2.998,2.9707,2.9453,2.9453,2.9199,2.9199,2.9199,2.9453,2.9707,2.998,2.998,2.998,2.9707,2.9453,2.9199,2.8945,2.9199,2.9199,0,0,0,0,0,0,0,0,0,0,0,0,0,0,0,0,0,0,0,0,0,0,0,0,0,0,0,0,0,0,0,0,0,0,0,0,0,0,0,2.8691,2.8691,2.8945,2.8945,2.8945,2.9199,2.9199,2.9453,0,0,0,0,0,0,0,0,0,0,0,0,0,0,0,0,0,0,0,0,1.0566,1.0566,1.0566,1.0566,1.0566,1.0596,1.0635,1.0664,1.0664,1.0664,1.0732,1.0732,1.0703,1.0703,1.0664,1.0596,1.0527,1.0566,1.0527,1.0527,1.0527,1.0566,1.0566,1.0596,1.0635,1.0635,1.0703,1.0703,1.0703,1.0732,1.0703,1.0732,1.0771,1.0771,1.0801,1.084,1.0869,1.0869,1.0869,1.0869,1.0869,1.084,1.084,1.084,1.0869,1.0869,1.0869,1.0869,1.0908,1.0908,1.0908,1.0908,1.0908,1.0908,1.0947,1.0947,1.0947,1.0908,1.0986,1.1016,1.1016,1.1094,1.1162,1.1162,1.1162,1.1162,1.1133,1.1133,1.1094,1.1055,1.1055,1.1016,1.1016,1.1016,1.1016,1.1055,1.1055,1.1055,1.1094,1.1133,1.1094,1.1094,1.1055,1.1055,1.1055,1.1055,1.1055,1.1094,1.1133,1.1162,1.1162,1.1201,1.1172,1.1172,1.1172,1.1172,1.1172,1.1172,1.1133,1.1172,1.1172,1.1172,1.1172,1.1201,1.1201,1.1201,1.1201,1.1201,1.1201,1.1172,1.1172,1.1172,1.1172,1.1172,1.1172,1.1172,1.1172,1.1201,1.1201,1.1201,1.1201,1.1201,1.1172,1.1201,1.1201,1.1201,1.124,1.124,1.124,1.124,1.124,1.124,1.124,1.124,1.1211,1.124,1.124,1.124,1.124,1.124,1.124,1.124,1.124,1.1211,1.1211,1.1211,1.1211,1.1211,1.1211,1.1211,1.1211,1.1211,1.125,1.1211,1.125,1.125,1.125,1.125,1.125,1.125,1.125,1.125,1.125,1.125,1.125,1.125,1.125,1.1289,1.1289,1.1289,1.1289,1.125,1.125,1.125,1.125,1.125,1.125,1.125,1.125,1.1289,1.1289,1.1289,1.1289,1.1289,1.1289,1.1289,1.1289,1.1289,1.1289,1.1328,1.1328,1.1328,1.1328,1.1328,1.1357,1.1357,1.1328,1.1367,1.1328,1.1328,1.1367,1.1367,1.1328,1.1328,1.1328,1.1328,1.1328,1.1367,1.1328,1.1289,1.1289,1.125,1.125,1.1289,1.1289,1.1289,1.1289,1.1289,1.1289,1.1289,1.1289,1.1289,1.1289,1.1289,1.1289,1.1289,1.1328,1.1328,1.1328,1.1328,1.1406,1.1406,1.1406,1.1406,1.1406,1.1406,1.1406,1.1406,1.1406,1.1367,1.1367,1.1367,1.1406,1.1406,1.1406,1.1406,1.1406,1.1406,1.1445,1.1445,1.1445,1.1445,1.1445,1.1406,1.1406,1.1406,1.1406,1.1406,1.1367,1.1367,1.1406,1.1406,1.1406,1.1406,1.1406,1.1406,1.1406,1.1406,1.1406,1.1406,1.1406,1.1367,1.1367,1.1367,1.1367,1.1367,1.1406,1.1406,1.1406,1.1406,1.1406,1.1445,1.1445,1.1445,1.1445,1.1445,1.1406,1.1445,1.1406,1.1445,1.1406,1.1406,1.1445,1.1445,1.1445,1.1445,1.1445,1.1445,1.1445,1.1445,1.1445,1.1445,1.1484,1.1484,1.1484,1.1484,1.1523,1.1523,1.1523,1.1523,1.1523,1.1562,1.1562,1.1523,1.1523,1.1562,1.1562,1.1562,1.1602,1.1602,1.1602,1.1602,1.1602,1.1602,1.1602,1.1602,1.1602,1.1602,1.1602,1.1602,1.1602,1.1602,1.1602,1.1602,1.1602,1.1602,1.165,1.165,1.165,1.165,1.165,1.1611,1.165,1.1611,1.1611,1.1611,1.1611,1.1611,1.1611,1.1611,1.1611,1.1611,1.1611,1.1611,1.1611,1.1572,1.1572,1.1572,1.1562,1.1523,1.1523,1.1523,1.1484,1.1484,1.1484,1.1484,1.1445,1.1445,1.1445,1.1445,1.1445,0,0,0,0,0,0,0,0,0,0,0,0,0,0,0,0,0,0,0,0,0,0,0,0,0,0,0,0,0,0,0
0,0,0,0,0,0,0,3.0254,2.998,2.998,2.998,3.0254,3.0254,3.0527,3.0527,3.0527,3.0254,3.0254,3.0254,3.0254,3.0254,2.998,2.998,2.998,2.9707,2.9453,2.9453,2.9199,2.9199,2.9199,2.9199,2.9707,2.998,2.998,2.998,2.9707,2.9453,2.9453,2.9199,2.9199,2.9199,0,0,0,0,0,0,0,0,0,0,0,0,0,0,0,0,0,0,0,0,0,0,0,0,0,0,0,0,0,0,0,0,0,0,0,0,0,0,0,2.8711,2.8711,2.8711,2.8711,2.8945,0,0,0,0,0,0,0,0,0,0,0,0,0,0,0,0,0,0,0,0,0,0,0,1.0566,1.0566,1.0566,1.0566,1.0596,1.0596,1.0635,1.0703,1.0703,1.0703,1.0732,1.0732,1.0732,1.0703,1.0664,1.0566,1.0527,1.0566,1.0527,1.0527,1.0566,1.0596,1.0596,1.0596,1.0635,1.0664,1.0703,1.0703,1.0732,1.0732,1.0703,1.0732,1.0771,1.0771,1.084,1.084,1.084,1.0879,1.0879,1.0879,1.0869,1.084,1.084,1.084,1.0879,1.0879,1.0879,1.0879,1.0879,1.0947,1.0908,1.0908,1.0947,1.0947,1.0947,1.0947,1.0947,1.0947,1.0986,1.1016,1.1055,1.1162,1.1201,1.1162,1.1162,1.1162,1.1133,1.1133,1.1133,1.1094,1.1055,1.1055,1.1055,1.1016,1.1055,1.1055,1.1094,1.1094,1.1133,1.1133,1.1133,1.1133,1.1094,1.1055,1.1094,1.1094,1.1094,1.1094,1.1133,1.1172,1.1201,1.1201,1.1201,1.1201,1.1172,1.1172,1.1172,1.1172,1.1172,1.1172,1.1172,1.1172,1.1172,1.1201,1.1201,1.1201,1.1201,1.1201,1.1201,1.1172,1.1172,1.1172,1.1172,1.1172,1.1172,1.1172,1.1172,1.1172,1.124,1.1211,1.1211,1.1211,1.1211,1.1211,1.1211,1.1211,1.124,1.124,1.124,1.124,1.124,1.1279,1.124,1.124,1.1211,1.124,1.124,1.124,1.124,1.1211,1.124,1.125,1.125,1.125,1.1211,1.1211,1.1211,1.1211,1.1211,1.1211,1.1211,1.1211,1.125,1.125,1.125,1.1279,1.125,1.125,1.125,1.125,1.125,1.125,1.125,1.125,1.125,1.125,1.125,1.1289,1.1289,1.1289,1.125,1.125,1.1289,1.1289,1.125,1.125,1.1289,1.125,1.125,1.1289,1.1289,1.1289,1.1289,1.1289,1.1289,1.1289,1.1289,1.1289,1.1289,1.1328,1.1328,1.1367,1.1367,1.1328,1.1367,1.1328,1.1367,1.1367,1.1367,1.1328,1.1367,1.1367,1.1367,1.1328,1.1328,1.1328,1.1367,1.1367,1.1289,1.1289,1.1289,1.125,1.1289,1.1289,1.1289,1.1289,1.1289,1.1289,1.1289,1.1289,1.1289,1.1289,1.1289,1.1289,1.1289,1.1328,1.1328,1.1328,1.1367,1.1367,1.1406,1.1406,1.1406,1.1445,1.1445,1.1406,1.1406,1.1406,1.1406,1.1406,1.1406,1.1367,1.1367,1.1406,1.1406,1.1406,1.1406,1.1406,1.1445,1.1445,1.1445,1.1445,1.1406,1.1406,1.1406,1.1406,1.1406,1.1406,1.1367,1.1367,1.1406,1.1406,1.1406,1.1406,1.1406,1.1406,1.1406,1.1406,1.1406,1.1406,1.1406,1.1367,1.1406,1.1406,1.1406,1.1406,1.1406,1.1406,1.1406,1.1406,1.1406,1.1445,1.1445,1.1445,1.1445,1.1445,1.1445,1.1445,1.1445,1.1445,1.1445,1.1445,1.1445,1.1445,1.1445,1.1445,1.1445,1.1445,1.1445,1.1484,1.1484,1.1484,1.1484,1.1484,1.1484,1.1523,1.1562,1.1562,1.1523,1.1523,1.1562,1.1562,1.1562,1.1523,1.1523,1.1562,1.1562,1.1602,1.1602,1.1602,1.1602,1.1602,1.1602,1.165,1.165,1.165,1.1602,1.1602,1.1602,1.1602,1.1602,1.1602,1.1611,1.165,1.165,1.165,1.165,1.165,1.165,1.165,1.165,1.1611,1.165,1.165,1.1611,1.1611,1.1611,1.1611,1.1611,1.1611,1.1611,1.1611,1.1611,1.1611,1.1611,1.1611,1.1611,1.1572,1.1572,1.1572,1.1572,1.1533,1.1523,1.1523,1.1484,1.1484,1.1445,1.1445,1.1445,1.1445,1.1445,0,0,0,0,0,0,0,0,0,0,0,0,0,0,0,0,0,0,0,0,0,0,0,0,0,0,0,0,0,0,0
0,0,0,0,0,0,0,0,3.0254,2.998,3.0254,3.0254,3.0254,3.0527,3.0527,3.0254,3.0254,3.0254,3.0254,3.0254,3.0254,2.998,2.998,2.998,2.9707,2.9453,2.9453,2.9199,2.9199,2.9199,2.9199,2.9707,2.998,2.998,2.998,2.9453,2.9453,2.9199,2.9199,2.9199,2.9199,0,0,0,0,0,0,0,0,0,0,0,0,0,0,0,0,0,0,0,0,0,0,0,0,0,0,0,0,0,0,0,0,0,0,0,0,0,0,0,2.8945,2.8945,2.8945,2.8945,0,0,0,0,0,0,0,0,0,0,0,0,0,0,0,0,0,0,0,0,0,0,0,0,0,1.0566,1.0566,1.0566,1.0566,1.0596,1.0664,1.0664,1.0703,1.0703,1.0732,1.0732,1.0703,1.0664,1.0664,1.0566,1.0566,1.0566,1.0566,1.0566,1.0566,1.0596,1.0596,1.0635,1.0635,1.0664,1.0703,1.0703,1.0703,1.0732,1.0732,1.0732,1.0801,1.0801,1.084,1.084,1.0879,1.0879,1.0879,1.0879,1.0879,1.0879,1.0879,1.0879,1.0908,1.0908,1.0908,1.0879,1.0908,1.0947,1.0947,1.0947,1.0947,1.0986,1.0947,1.0986,1.0986,1.0986,1.0986,1.1016,1.1162,1.1162,1.1201,1.1162,1.1162,1.1162,1.1133,1.1133,1.1133,1.1094,1.1094,1.1055,1.1094,1.1055,1.1094,1.1055,1.1094,1.1094,1.1133,1.1172,1.1172,1.1172,1.1133,1.1133,1.1094,1.1094,1.1094,1.1094,1.1133,1.1133,1.1172,1.1172,1.1172,1.1172,1.1172,1.1172,1.1172,1.1172,1.1172,1.1172,1.1172,1.1201,1.1201,1.1201,1.1211,1.1211,1.1211,1.1172,1.1211,1.1172,1.1172,1.1172,1.1172,1.1172,1.1172,1.1172,1.1211,1.1211,1.124,1.1211,1.1211,1.1211,1.1211,1.1211,1.1211,1.1211,1.125,1.124,1.124,1.124,1.124,1.124,1.124,1.124,1.1211,1.125,1.125,1.125,1.125,1.125,1.125,1.125,1.125,1.125,1.1211,1.1211,1.1211,1.1211,1.125,1.1211,1.125,1.125,1.125,1.125,1.1289,1.1289,1.125,1.125,1.1289,1.125,1.125,1.125,1.125,1.125,1.125,1.125,1.1289,1.1289,1.1289,1.1289,1.1289,1.1289,1.1289,1.1328,1.1289,1.1289,1.1289,1.1289,1.1289,1.1289,1.125,1.1289,1.1289,1.1289,1.1289,1.1289,1.1289,1.1328,1.1328,1.1328,1.1367,1.1367,1.1367,1.1367,1.1328,1.1328,1.1328,1.1367,1.1367,1.1367,1.1367,1.1367,1.1367,1.1367,1.1367,1.1367,1.1367,1.1367,1.1328,1.1289,1.1289,1.1289,1.1289,1.1289,1.1289,1.1289,1.1289,1.1289,1.1328,1.1328,1.1289,1.1289,1.1289,1.1289,1.1328,1.1328,1.1328,1.1367,1.1367,1.1367,1.1406,1.1406,1.1406,1.1445,1.1445,1.1445,1.1445,1.1406,1.1406,1.1406,1.1406,1.1328,1.1367,1.1367,1.1367,1.1406,1.1406,1.1406,1.1406,1.1445,1.1445,1.1445,1.1445,1.1406,1.1406,1.1406,1.1406,1.1406,1.1406,1.1367,1.1406,1.1406,1.1406,1.1445,1.1406,1.1406,1.1406,1.1406,1.1406,1.1406,1.1406,1.1406,1.1406,1.1445,1.1406,1.1445,1.1406,1.1406,1.1445,1.1445,1.1445,1.1445,1.1445,1.1445,1.1445,1.1445,1.1445,1.1445,1.1445,1.1445,1.1445,1.1445,1.1445,1.1445,1.1445,1.1445,1.1445,1.1445,1.1445,1.1484,1.1484,1.1484,1.1484,1.1484,1.1484,1.1523,1.1562,1.1562,1.1562,1.1523,1.1523,1.1523,1.1562,1.1523,1.1562,1.1562,1.1562,1.1602,1.1602,1.1602,1.1602,1.1602,1.1602,1.1602,1.165,1.165,1.1611,1.1611,1.1611,1.1611,1.1611,1.1611,1.1611,1.165,1.165,1.165,1.165,1.165,1.165,1.165,1.165,1.165,1.165,1.165,1.1611,1.1611,1.1611,1.1611,1.1611,1.1611,1.1611,1.1611,1.1611,1.1611,1.1611,1.1611,1.1611,1.1611,1.1572,1.1572,1.1572,1.1533,1.1533,1.1533,1.1494,1.1494,1.1494,1.1455,1.1455,1.1455,1.1455,0,0,0,0,0,0,0,0,0,0,0,0,0,0,0,0,0,0,0,0,0,0,0,0,0,0,0,0,0,0,0
0,0,0,0,0,0,0,0,3.0254,3.0254,3.0254,3.0254,3.0254,3.0527,3.0527,3.0254,3.0254,2.998,2.998,3.0254,3.0254,2.998,2.998,2.998,2.9707,2.9453,2.9453,2.9453,2.9453,2.9453,2.9453,2.9727,2.998,2.998,2.998,2.9727,2.9727,2.9199,2.9199,2.9199,2.9453,2.9727,2.9727,0,0,0,0,0,0,0,0,0,0,0,0,0,0,0,0,0,0,0,0,0,0,0,0,0,0,0,0,0,0,0,0,0,0,0,0,0,2.8711,2.8945,2.8945,2.9199,0,0,0,0,0,0,0,0,0,0,0,0,0,0,0,0,0,0,0,0,0,0,0,0,1.0596,1.0596,1.0596,1.0596,1.0596,1.0635,1.0664,1.0703,1.0703,1.0703,1.0771,1.0732,1.0703,1.0703,1.0635,1.0566,1.0566,1.0566,1.0566,1.0566,1.0566,1.0596,1.0596,1.0664,1.0664,1.0664,1.0703,1.0703,1.0732,1.0732,1.0732,1.0771,1.0801,1.0801,1.084,1.084,1.0879,1.0879,1.0908,1.0879,1.0879,1.0879,1.0879,1.0879,1.0908,1.0908,1.0908,1.0908,1.0947,1.0947,1.0947,1.0947,1.0986,1.0986,1.0986,1.0986,1.1016,1.1016,1.1016,1.1055,1.1133,1.1162,1.1201,1.1201,1.1162,1.1162,1.1133,1.1133,1.1133,1.1094,1.1094,1.1055,1.1094,1.1094,1.1094,1.1055,1.1055,1.1094,1.1133,1.1133,1.1133,1.1133,1.1133,1.1172,1.1172,1.1172,1.1133,1.1133,1.1133,1.1172,1.1172,1.1172,1.1172,1.1172,1.1172,1.1172,1.1172,1.1172,1.1172,1.1172,1.1172,1.1211,1.1211,1.1211,1.1211,1.1211,1.1211,1.1211,1.1211,1.1172,1.1172,1.1172,1.1211,1.1172,1.1172,1.1211,1.1211,1.1211,1.124,1.1211,1.1211,1.1211,1.1211,1.1211,1.1211,1.1211,1.1211,1.125,1.125,1.125,1.125,1.1279,1.125,1.125,1.125,1.125,1.125,1.125,1.1211,1.125,1.125,1.125,1.125,1.125,1.1211,1.1211,1.1211,1.125,1.125,1.1211,1.1211,1.125,1.125,1.125,1.1289,1.1289,1.125,1.1289,1.1289,1.125,1.125,1.1289,1.1289,1.1289,1.1289,1.125,1.1289,1.1289,1.1289,1.1289,1.1289,1.1289,1.1328,1.1328,1.1328,1.1289,1.1289,1.1289,1.1289,1.1289,1.1289,1.1289,1.1328,1.1328,1.1328,1.1328,1.1328,1.1328,1.1328,1.1328,1.1328,1.1367,1.1367,1.1367,1.1367,1.1367,1.1367,1.1367,1.1367,1.1328,1.1367,1.1367,1.1367,1.1367,1.1367,1.1367,1.1367,1.1367,1.1328,1.1328,1.1289,1.1328,1.1328,1.1328,1.1328,1.1289,1.1289,1.1328,1.1328,1.1328,1.1289,1.1289,1.1289,1.1289,1.1328,1.1328,1.1367,1.1367,1.1367,1.1367,1.1406,1.1406,1.1406,1.1445,1.1406,1.1445,1.1445,1.1406,1.1406,1.1406,1.1367,1.1367,1.1367,1.1367,1.1406,1.1406,1.1406,1.1406,1.1406,1.1406,1.1445,1.1445,1.1445,1.1406,1.1406,1.1406,1.1406,1.1406,1.1406,1.1367,1.1406,1.1406,1.1445,1.1445,1.1406,1.1406,1.1406,1.1445,1.1445,1.1406,1.1406,1.1406,1.1445,1.1445,1.1445,1.1445,1.1445,1.1445,1.1445,1.1445,1.1445,1.1484,1.1484,1.1445,1.1445,1.1484,1.1484,1.1484,1.1484,1.1484,1.1445,1.1484,1.1484,1.1484,1.1484,1.1445,1.1445,1.1445,1.1484,1.1484,1.1484,1.1484,1.1484,1.1523,1.1484,1.1523,1.1562,1.1562,1.1562,1.1523,1.1523,1.1523,1.1562,1.1523,1.1562,1.1562,1.1611,1.1611,1.1611,1.1611,1.1611,1.1611,1.1611,1.1611,1.1611,1.1611,1.1611,1.1611,1.1611,1.1611,1.1611,1.1611,1.1611,1.165,1.165,1.165,1.165,1.165,1.165,1.165,1.165,1.165,1.165,1.165,1.165,1.165,1.1611,1.165,1.165,1.1611,1.1611,1.1611,1.1611,1.1611,1.1611,1.1611,1.1611,1.1611,1.1611,1.1572,1.1572,1.1533,1.1533,1.1533,1.1494,1.1494,1.1494,1.1455,1.1455,1.1416,1.1416,0,0,0,0,0,0,0,0,0,0,0,0,0,0,0,0,0,0,0,0,0,0,0,0,0,0,0,0,0,0,0
0,0,0,0,0,0,0,0,0,3.0254,3.0254,3.0254,3.0254,3.0254,3.0254,3.0254,2.998,2.998,3.0254,3.0254,3.0254,3.0254,2.998,2.998,2.998,2.9727,2.9453,2.9453,2.9453,2.9453,2.9727,2.998,3.0254,2.998,2.9727,2.9453,2.9453,2.9199,2.9199,2.9199,2.9199,2.9453,3.0254,0,0,2.9727,3.0254,3.0254,2.9727,2.9727,0,0,0,0,0,0,0,0,0,0,0,0,0,0,0,0,0,0,0,0,0,0,0,0,0,0,0,0,0,2.9199,2.8711,2.8945,2.8945,2.9199,0,0,0,0,0,0,0,0,0,0,0,0,0,0,0,0,0,0,0,0,0,0,0,0,1.0596,1.0596,1.0596,1.0596,1.0596,1.0635,1.0703,1.0732,1.0732,1.0732,1.0771,1.0771,1.0732,1.0703,1.0664,1.0566,1.0566,1.0566,1.0566,1.0566,1.0566,1.0596,1.0596,1.0635,1.0664,1.0664,1.0703,1.0703,1.0732,1.0732,1.0771,1.0771,1.0801,1.0801,1.084,1.084,1.0879,1.0879,1.0908,1.0879,1.0879,1.0879,1.0879,1.0879,1.0908,1.0908,1.0908,1.0908,1.0947,1.0986,1.0986,1.0986,1.0986,1.0986,1.0986,1.1016,1.1016,1.1016,1.1016,1.1055,1.1162,1.1201,1.1201,1.1201,1.1201,1.1172,1.1172,1.1133,1.1133,1.1133,1.1094,1.1094,1.1094,1.1094,1.1094,1.1055,1.1055,1.1094,1.1133,1.1133,1.1133,1.1133,1.1172,1.1172,1.1172,1.1172,1.1172,1.1133,1.1133,1.1133,1.1172,1.1172,1.1172,1.1172,1.1172,1.1172,1.1172,1.1172,1.1172,1.1172,1.1172,1.1172,1.1211,1.1211,1.1211,1.1211,1.1172,1.1211,1.1211,1.1211,1.1211,1.1211,1.1211,1.1211,1.1172,1.1211,1.1211,1.125,1.125,1.1211,1.1211,1.125,1.1211,1.1211,1.1211,1.1211,1.125,1.125,1.125,1.125,1.125,1.1289,1.1289,1.125,1.125,1.125,1.125,1.125,1.1211,1.125,1.125,1.125,1.125,1.125,1.1211,1.1211,1.1211,1.1211,1.125,1.1211,1.1211,1.1211,1.125,1.125,1.1289,1.1289,1.1289,1.1289,1.1289,1.1289,1.1328,1.1328,1.1328,1.1289,1.1289,1.1289,1.1289,1.1289,1.1289,1.1289,1.1289,1.1328,1.1328,1.1328,1.1328,1.1289,1.1328,1.1289,1.1289,1.1289,1.1289,1.1328,1.1328,1.1289,1.1328,1.1328,1.1328,1.1367,1.1367,1.1367,1.1328,1.1367,1.1367,1.1367,1.1367,1.1367,1.1328,1.1328,1.1367,1.1328,1.1367,1.1367,1.1367,1.1367,1.1367,1.1367,1.1328,1.1328,1.1289,1.1289,1.1289,1.1367,1.1367,1.1328,1.1328,1.1289,1.1328,1.1328,1.1328,1.1328,1.1289,1.1328,1.1328,1.1328,1.1328,1.1328,1.1367,1.1367,1.1367,1.1367,1.1406,1.1406,1.1445,1.1445,1.1406,1.1445,1.1445,1.1406,1.1406,1.1406,1.1406,1.1406,1.1367,1.1367,1.1406,1.1406,1.1406,1.1445,1.1445,1.1445,1.1445,1.1445,1.1445,1.1445,1.1406,1.1406,1.1406,1.1406,1.1406,1.1367,1.1406,1.1406,1.1406,1.1445,1.1445,1.1445,1.1445,1.1445,1.1445,1.1445,1.1406,1.1406,1.1445,1.1445,1.1445,1.1445,1.1445,1.1445,1.1445,1.1445,1.1445,1.1445,1.1484,1.1484,1.1484,1.1484,1.1484,1.1484,1.1484,1.1484,1.1445,1.1484,1.1523,1.1484,1.1484,1.1484,1.1445,1.1445,1.1445,1.1484,1.1484,1.1484,1.1523,1.1523,1.1523,1.1523,1.1611,1.1562,1.1562,1.1523,1.1562,1.1562,1.1562,1.1562,1.1562,1.1611,1.1611,1.1611,1.1611,1.1611,1.1611,1.1611,1.1611,1.1611,1.1611,1.1611,1.1611,1.1611,1.1611,1.1611,1.1611,1.1611,1.1611,1.165,1.165,1.165,1.165,1.165,1.1689,1.165,1.165,1.165,1.165,1.165,1.165,1.165,1.165,1.165,1.165,1.1611,1.165,1.165,1.165,1.165,1.165,1.1611,1.1611,1.1611,1.1572,1.1572,1.1533,1.1533,1.1533,1.1494,1.1494,1.1494,1.1455,1.1455,1.1455,1.1416,0,0,0,0,0,0,0,0,0,0,0,0,0,0,0,0,0,0,0,0,0,0,0,0,0,0,0,0,0,0,0,0
0,0,0,0,0,0,0,0,0,0,0,3.0254,3.0254,3.0254,3.0254,2.998,2.998,2.998,2.998,3.0254,3.0254,2.998,2.998,2.998,2.9727,2.9453,2.9453,2.9453,2.9453,2.9453,2.9453,2.998,3.0254,2.9727,2.9453,2.9453,2.9453,2.9453,2.9199,2.9199,2.9199,2.9453,3.0254,0,0,3.0254,3.0254,3.0254,2.9727,2.9453,2.9453,0,0,0,0,0,0,0,0,0,0,0,0,0,0,0,0,0,0,0,0,0,0,0,0,0,0,0,0,0,2.8945,2.8965,2.8965,2.9199,0,2.9473,2.9727,0,0,0,0,0,0,0,0,0,0,0,0,0,0,0,0,0,0,0,0,0,1.0596,1.0596,1.0635,1.0596,1.0635,1.0635,1.0732,1.0732,1.0732,1.0732,1.0771,1.0771,1.0703,1.0664,1.0664,1.0596,1.0566,1.0566,1.0566,1.0566,1.0566,1.0596,1.0596,1.0664,1.0664,1.0703,1.0703,1.0732,1.0732,1.0732,1.0771,1.0801,1.084,1.084,1.084,1.084,1.0879,1.0879,1.0908,1.0908,1.0908,1.0879,1.0908,1.0908,1.0908,1.0908,1.0947,1.0986,1.0986,1.0986,1.0986,1.1016,1.1016,1.1016,1.0986,1.0986,1.1016,1.1016,1.1055,1.1094,1.124,1.124,1.124,1.1201,1.1201,1.1201,1.1172,1.1133,1.1133,1.1133,1.1094,1.1094,1.1094,1.1094,1.1094,1.1094,1.1055,1.1055,1.1094,1.1094,1.1133,1.1133,1.1133,1.1133,1.1133,1.1133,1.1133,1.1133,1.1133,1.1133,1.1133,1.1133,1.1172,1.1172,1.1172,1.1172,1.1172,1.1172,1.1172,1.1172,1.1172,1.1172,1.1172,1.1211,1.1211,1.1211,1.1211,1.1211,1.1211,1.1211,1.1211,1.1211,1.1211,1.1211,1.1211,1.1211,1.1211,1.1211,1.125,1.1211,1.1211,1.125,1.125,1.125,1.125,1.125,1.125,1.125,1.125,1.125,1.125,1.1289,1.1289,1.125,1.125,1.125,1.125,1.125,1.125,1.125,1.125,1.125,1.125,1.1211,1.1211,1.1211,1.1211,1.125,1.125,1.125,1.125,1.125,1.1289,1.1289,1.1289,1.1289,1.1289,1.1328,1.1328,1.1289,1.1328,1.1328,1.1328,1.1328,1.1328,1.1289,1.1289,1.1328,1.1328,1.1328,1.1328,1.1328,1.1328,1.1328,1.1328,1.1328,1.1328,1.1328,1.1328,1.1289,1.1289,1.1328,1.1328,1.1328,1.1328,1.1328,1.1328,1.1367,1.1367,1.1367,1.1367,1.1367,1.1367,1.1367,1.1367,1.1367,1.1328,1.1328,1.1328,1.1367,1.1367,1.1367,1.1367,1.1367,1.1367,1.1367,1.1328,1.1328,1.1289,1.1289,1.1289,1.1328,1.1328,1.1328,1.1328,1.1328,1.1328,1.1367,1.1367,1.1367,1.1328,1.1328,1.1328,1.1328,1.1328,1.1328,1.1367,1.1367,1.1367,1.1406,1.1406,1.1406,1.1406,1.1445,1.1406,1.1445,1.1445,1.1445,1.1445,1.1445,1.1406,1.1406,1.1367,1.1367,1.1406,1.1406,1.1406,1.1445,1.1445,1.1445,1.1445,1.1445,1.1445,1.1445,1.1406,1.1406,1.1406,1.1406,1.1406,1.1406,1.1406,1.1406,1.1406,1.1445,1.1445,1.1406,1.1445,1.1445,1.1445,1.1445,1.1445,1.1406,1.1445,1.1445,1.1445,1.1445,1.1445,1.1445,1.1484,1.1445,1.1445,1.1484,1.1484,1.1484,1.1484,1.1484,1.1484,1.1523,1.1484,1.1484,1.1484,1.1523,1.1562,1.1523,1.1523,1.1484,1.1484,1.1484,1.1484,1.1484,1.1484,1.1523,1.1523,1.1523,1.1523,1.1562,1.1611,1.1611,1.1562,1.1562,1.1562,1.1562,1.1572,1.1572,1.1611,1.1611,1.1611,1.1611,1.1611,1.1611,1.1611,1.1611,1.1611,1.1611,1.1611,1.1611,1.1611,1.1611,1.1611,1.1611,1.1611,1.1611,1.1611,1.165,1.165,1.165,1.165,1.165,1.1689,1.165,1.165,1.165,1.165,1.165,1.165,1.165,1.165,1.165,1.165,1.1611,1.165,1.165,1.165,1.165,1.165,1.1611,1.1611,1.1611,1.1572,1.1572,1.1533,1.1533,1.1533,1.1494,1.1494,1.1494,1.1455,1.1455,1.1455,1.1074,0,0,0,0,0,0,0,0,0,0,0,0,0,0,0,0,0,0,0,0,0,0,0,0,0,0,0,0,0,0,0,0
0,0,0,0,0,0,0,0,0,0,0,3.0254,3.0254,3.0254,2.998,2.9727,2.998,2.998,3.0254,3.0254,3.0254,2.998,2.998,2.998,2.9727,2.9453,2.9453,2.9453,2.9453,2.9453,2.9453,2.9727,2.998,2.9727,2.9453,2.9453,2.9453,2.9453,2.9199,2.9199,2.9199,2.9453,3,3.0254,3,3,3,3,2.9473,2.9473,2.9473,2.9727,0,0,0,0,0,0,0,0,0,0,0,0,0,0,0,0,0,0,0,0,0,0,0,0,0,0,0,0,2.8965,2.8965,2.9219,2.9473,0,0,0,0,0,0,0,0,0,0,0,0,0,0,0,0,0,0,0,0,0,0,0,0,0,1.0635,1.0635,1.0596,1.0664,1.0703,1.0732,1.0771,1.0732,1.0732,1.0732,1.0732,1.0703,1.0664,1.0635,1.0596,1.0596,1.0566,1.0566,1.0566,1.0596,1.0635,1.0664,1.0664,1.0664,1.0703,1.0703,1.0732,1.0771,1.0732,1.0771,1.0811,1.084,1.084,1.084,1.0879,1.0879,1.0908,1.0908,1.0908,1.0908,1.0908,1.0908,1.0908,1.0947,1.0947,1.0986,1.0986,1.0986,1.0986,1.0986,1.1025,1.1025,1.1025,1.0986,1.0986,1.1025,1.1025,1.1025,1.1055,1.124,1.124,1.124,1.124,1.124,1.1201,1.1172,1.1172,1.1133,1.1133,1.1094,1.1094,1.1094,1.1094,1.1094,1.1094,1.1055,1.1055,1.1094,1.1094,1.1133,1.1133,1.1133,1.1133,1.1172,1.1172,1.1172,1.1133,1.1133,1.1133,1.1172,1.1133,1.1133,1.1133,1.1172,1.1172,1.1172,1.1172,1.1172,1.1172,1.1172,1.1172,1.1211,1.1211,1.1211,1.1211,1.1211,1.1211,1.1211,1.1211,1.1211,1.1211,1.1211,1.1211,1.1211,1.1211,1.125,1.125,1.1211,1.125,1.1211,1.125,1.125,1.125,1.125,1.125,1.125,1.125,1.125,1.125,1.125,1.125,1.125,1.125,1.125,1.125,1.125,1.125,1.125,1.125,1.125,1.125,1.125,1.125,1.125,1.1211,1.1211,1.1211,1.125,1.125,1.1211,1.1211,1.125,1.1289,1.1289,1.1289,1.1289,1.1328,1.1328,1.1328,1.1328,1.1367,1.1328,1.1328,1.1328,1.1328,1.1328,1.1328,1.1328,1.1328,1.1328,1.1328,1.1328,1.1367,1.1367,1.1328,1.1328,1.1328,1.1328,1.1328,1.1328,1.1328,1.1367,1.1328,1.1367,1.1367,1.1367,1.1367,1.1367,1.1367,1.1367,1.1367,1.1367,1.1367,1.1367,1.1328,1.1328,1.1328,1.1328,1.1367,1.1367,1.1367,1.1367,1.1367,1.1328,1.1367,1.1328,1.1328,1.1328,1.1328,1.1328,1.1328,1.1328,1.1367,1.1367,1.1367,1.1328,1.1367,1.1367,1.1367,1.1328,1.1367,1.1328,1.1367,1.1367,1.1367,1.1367,1.1367,1.1367,1.1367,1.1406,1.1406,1.1406,1.1406,1.1406,1.1406,1.1445,1.1445,1.1406,1.1406,1.1406,1.1406,1.1406,1.1406,1.1406,1.1406,1.1406,1.1445,1.1445,1.1445,1.1445,1.1445,1.1445,1.1445,1.1445,1.1445,1.1406,1.1406,1.1406,1.1406,1.1406,1.1445,1.1445,1.1445,1.1445,1.1406,1.1406,1.1445,1.1445,1.1445,1.1445,1.1406,1.1445,1.1445,1.1445,1.1445,1.1445,1.1445,1.1484,1.1484,1.1484,1.1445,1.1484,1.1484,1.1484,1.1484,1.1523,1.1523,1.1523,1.1484,1.1523,1.1523,1.1562,1.1523,1.1523,1.1484,1.1484,1.1484,1.1484,1.1484,1.1484,1.1523,1.1523,1.1523,1.1523,1.1572,1.1611,1.1611,1.1572,1.1572,1.1611,1.1572,1.1611,1.1572,1.1611,1.1611,1.1611,1.1611,1.1611,1.1611,1.1611,1.1611,1.1611,1.1611,1.1611,1.1611,1.1611,1.1611,1.165,1.165,1.1611,1.1611,1.165,1.165,1.165,1.165,1.165,1.165,1.165,1.165,1.165,1.165,1.165,1.165,1.165,1.165,1.165,1.165,1.165,1.165,1.165,1.165,1.165,1.165,1.165,1.1611,1.1611,1.1572,1.1572,1.1533,1.1533,1.1533,1.1533,1.1494,1.1494,1.1494,1.1455,1.1455,1.1113,1.1006,0,0,0,0,0,0,0,0,0,0,0,0,0,0,0,0,0,0,0,0,0,0,0,0,0,0,0,0,0,0,0,0
0,0,0,0,0,0,0,0,0,0,0,3.0254,3.0254,3.0254,3.0254,2.998,2.998,2.998,3.0254,3.0254,3.0254,2.998,2.998,2.998,2.9727,2.9727,2.9727,2.9727,2.9453,2.9453,2.9453,2.9727,3,2.9727,2.9453,2.9453,2.9453,2.9453,2.9199,2.9199,2.9199,2.9727,3,3,2.9727,2.9727,3,2.9473,2.9199,2.9727,2.9199,2.9199,0,0,0,0,0,0,0,0,0,0,0,0,0,0,0,0,0,0,0,0,0,0,0,0,0,0,0,2.9727,2.9219,2.9219,2.9219,2.9473,0,0,0,0,0,0,0,0,0,0,0,0,0,0,0,0,0,0,0,0,0,0,0,1.0566,1.0635,1.0635,1.0635,1.0635,1.0703,1.0703,1.0771,1.0771,1.0732,1.0771,1.0732,1.0703,1.0664,1.0635,1.0566,1.0596,1.0596,1.0566,1.0566,1.0566,1.0596,1.0635,1.0635,1.0664,1.0664,1.0703,1.0703,1.0732,1.0771,1.0771,1.0771,1.0811,1.084,1.084,1.0879,1.0879,1.0879,1.0908,1.0908,1.0908,1.0908,1.0908,1.0908,1.0947,1.0947,1.0947,1.0947,1.0986,1.0986,1.0986,1.0986,1.1025,1.1025,1.1025,1.0986,1.1025,1.1025,1.1025,1.1025,1.1055,1.124,1.124,1.124,1.124,1.124,1.1172,1.1172,1.1172,1.1133,1.1133,1.1094,1.1094,1.1094,1.1055,1.1094,1.1055,1.1055,1.1055,1.1094,1.1094,1.1133,1.1133,1.1133,1.1172,1.1172,1.1172,1.1172,1.1172,1.1172,1.1133,1.1133,1.1133,1.1133,1.1133,1.1172,1.1172,1.1172,1.1172,1.1172,1.1172,1.1172,1.1172,1.1211,1.1211,1.1211,1.1211,1.1211,1.1211,1.1211,1.1211,1.1211,1.1211,1.1211,1.125,1.1211,1.125,1.125,1.125,1.125,1.125,1.125,1.125,1.125,1.125,1.125,1.1211,1.125,1.125,1.125,1.125,1.125,1.1289,1.1289,1.1289,1.125,1.125,1.125,1.125,1.125,1.125,1.125,1.125,1.125,1.1211,1.1211,1.1211,1.125,1.125,1.125,1.125,1.125,1.125,1.1289,1.1289,1.1328,1.1328,1.1289,1.1328,1.1367,1.1328,1.1328,1.1367,1.1328,1.1328,1.1328,1.1328,1.1328,1.1328,1.1328,1.1328,1.1328,1.1328,1.1367,1.1367,1.1367,1.1367,1.1367,1.1367,1.1367,1.1328,1.1328,1.1367,1.1367,1.1367,1.1367,1.1367,1.1367,1.1367,1.1367,1.1367,1.1367,1.1367,1.1367,1.1367,1.1367,1.1328,1.1328,1.1328,1.1328,1.1328,1.1367,1.1367,1.1367,1.1367,1.1328,1.1367,1.1328,1.1328,1.1328,1.1328,1.1328,1.1328,1.1367,1.1367,1.1367,1.1367,1.1367,1.1367,1.1367,1.1367,1.1328,1.1367,1.1367,1.1367,1.1367,1.1367,1.1367,1.1367,1.1367,1.1367,1.1406,1.1406,1.1445,1.1406,1.1406,1.1406,1.1445,1.1445,1.1445,1.1406,1.1406,1.1445,1.1406,1.1406,1.1406,1.1406,1.1406,1.1406,1.1406,1.1406,1.1406,1.1445,1.1445,1.1445,1.1445,1.1445,1.1406,1.1406,1.1406,1.1406,1.1406,1.1445,1.1445,1.1445,1.1445,1.1406,1.1406,1.1445,1.1445,1.1445,1.1445,1.1406,1.1445,1.1484,1.1484,1.1484,1.1484,1.1484,1.1484,1.1523,1.1484,1.1484,1.1484,1.1484,1.1523,1.1484,1.1523,1.1484,1.1484,1.1484,1.1523,1.1523,1.1523,1.1523,1.1523,1.1484,1.1484,1.1484,1.1484,1.1523,1.1523,1.1523,1.1523,1.1523,1.1523,1.1572,1.1611,1.1611,1.1572,1.1572,1.1611,1.1572,1.1611,1.1611,1.1611,1.1611,1.1611,1.1611,1.1611,1.1611,1.1611,1.1611,1.1611,1.1611,1.1611,1.1611,1.1611,1.1611,1.165,1.165,1.165,1.165,1.165,1.165,1.165,1.165,1.165,1.165,1.165,1.165,1.165,1.165,1.165,1.165,1.165,1.165,1.165,1.165,1.165,1.165,1.165,1.165,1.165,1.165,1.165,1.1611,1.1611,1.1611,1.1572,1.1572,1.1533,1.1533,1.1533,1.1494,1.1455,1.1494,1.1455,1.1416,1.1074,1.1035,0,0,0,0,0,0,0,0,0,0,0,0,0,0,0,0,0,0,0,0,0,0,0,0,0,0,0,0,0,0,0,0
