0,0,0,0,0,0,0,0,0,0,0,0,0,0,0,0,0,0,0,0,0,0,0,0,0,0.80957,0.80957,0.80957,0.80957,0.80762,0.80762,0.80566,0.80371,0.80176,0.80176,0.80176,0.80176,0.7998,0.7998,0.7998,0.80176,0.80176,0.80176,0.80176,0.80029,0.80029,0.80176,0.80029,0.80029,0.80029,0.80029,0.80029,0.80029,0.80029,0.80029,0.80029,0.80029,0.80029,0.80029,0.80029,0.80029,0.80029,0.80029,0.80029,0.80029,0.80029,0.80029,0.80029,0.80029,0.80029,0.80029,0.80029,0.80029,0.80029,0.80225,0.80225,0.80225,0.80225,0.80225,0.80029,0.80029,0.80029,0.80029,0.80029,0.80029,0.80029,0.80029,0.80029,0.80029,0.80029,0.80029,0.80029,0.80029,0.80029,0.79834,0.80029,0.80029,0.80029,0.79834,0.80029,0.80029,0.80029,0.80029,0.80225,0.80029,0.80029,0.80225,0.80225,0.80225,0.80029,0.80029,0.80225,0.80225,0.80029,0.80029,0.80029,0.80225,0.80029,0.80029,0.80029,0.80029,0.80029,0.80029,0.80029,0.80029,0.80029,0.80029,0.80029,0.80029,0.80029,0.79834,0.79834,0.80029,0.79834,0.79834,0,0,0,0,0,0,0,1.2607,1.2656,1.2656,1.2754,1.2852,1.2949,1.2949,1.2949,1.2949,1.2949,1.29,1.2852,1.2852,1.2852,1.2852,1.2803,1.2803,1.2803,1.2803,1.2803,1.2803,1.2803,1.2803,1.2803,1.2803,1.2803,1.2803,1.2803,1.2803,1.2803,1.2852,1.2852,1.2852,1.2852,1.2852,1.2852,1.2852,1.2852,1.2852,1.29,1.29,1.29,1.29,1.29,1.29,1.29,1.29,1.29,1.29,1.29,1.29,1.29,1.29,1.29,1.2949,1.2949,1.29,1.29,1.29,1.29,1.29,1.29,1.29,1.29,1.29,1.29,1.29,1.2949,1.2949,1.2949,1.29,1.2949,1.2949,1.2949,1.2949,1.2949,1.2949,1.2949,1.29,1.29,1.2852,1.2852,1.2803,0,0,0,0,0,0,0,0,0,0.82422,0.82227,0.82227,0.82031,0.82031,0.81836,0.81836,0.81445,0.81445,0.81445,0.81445,0.81445,0.81445,0.81445,0.81445,0.81641,0.81836,0.81836,0.81836,0.82031,0.82422,0.82861,0.83057,0.83057,0.83057,0.83057,0.82861,0.82666,0.82422,0.82422,0.82227,0.82227,0.82031,0.82031,0.81641,0.8125,0.8125,0.81055,0.80859,0.80859,0.80859,0.80859,0.80859,0.80859,0.80859,0.80859,0.80859,0.80859,0.80664,0.80859,0.80859,0.80859,0.80664,0.80664,0.80664,0.80664,0.80664,0.80664,0.80664,0.80664,0.80664,0.80859,0.77197,0.77197,0.77002,0.77002,0.76855,0.76514,0.76514,0.76318,0.76318,0.76172,0.76172,0.76172,0.75977,0.75977,0.75977,0.75977,0.75977,0.76172,0.76172,0.76172,0.76172,0.76318,0.76318,0.76318,0.76318,0.76318,0,0,0.84961,0.85156,0.85156,0.85156,0.84961,0.84961,0.84961,0.84766,0.84766,0.84522,0.84326,0.84326,0.84326,0.84326,0.84326,0.84326,0.84522,0.84326,0.84326,0,0,1.0244,1.0215,1.0244,1.0215,1.0215,1.0186,1.0186,1.0186,1.0156,1.0156,1.0156,1.0127,1.0127,1.0127,1.0098,1.0098,1.0098,1.0068,1.0068,1.0068,1.0068,1.0039,1.0039,1.0039,1.001,1.001,1.001,1.001,1.001,1.001,0.99756,0.99756,0.99463,0.99463,0.99463,0.9917,0.9917,0.9917,0.9917,0.98877,0.98877,0.98877,0.98877,0.98877,0.98633,0.9834,0.9834,0.9834,0.98047,0.98047,0,0,0,0,1.3164,1.3213,1.3164,1.3164,1.3164,1.3164,1.3115,1.3164,1.3164,1.3164,1.3164,1.3164,1.3164,1.3164,1.3164,1.3164,1.3164,1.3164,1.3164,1.3164,1.3164,1.3164,1.3164,1.3164,1.3164,1.3223,1.3223,1.3223,1.3223,1.3223,1.3223,1.3164,1.3223,1.3164,1.3164,1.3164,1.3115,1.3115,1.3164,1.3115,1.3115,1.3066,1.3115,1.3174,1.3174,1.3174,1.3174,1.3174,1.3174,1.3174,1.3174,1.3174,1.3174,1.3223,1.3223,1.3223,1.3174,1.3223,1.3223,1.3223,0,0,0,0,0,0,0,0,0,0,0,0,0,0,0,0,0,0,0,0,0,0,0,0,0,0,0,0,0,0,0,0,0,0,0,0,0,0,0,0,0,0,0,0,0,0
0,0,0,0,0,0,0,0,0,0,0,0,0,0,0,0,0,0,0,0,0,0,0,0,0,0.81934,0.81152,0.80957,0.80957,0.80762,0.80566,0.80371,0.80371,0.80176,0.80176,0.80176,0.80176,0.80176,0.80176,0.80176,0.80176,0.80176,0.80176,0.80176,0.80176,0.80176,0.80176,0.80029,0.80029,0.80029,0.80225,0.80029,0.80029,0.80029,0.80029,0.80029,0.80029,0.80029,0.80029,0.80029,0.80029,0.80029,0.80029,0.80029,0.80029,0.80029,0.80029,0.80029,0.80029,0.80029,0.80029,0.80029,0.80029,0.80225,0.80225,0.80225,0.80225,0.80225,0.80225,0.80029,0.80029,0.80029,0.80029,0.80029,0.80029,0.80029,0.80029,0.80029,0.80029,0.80029,0.80029,0.80029,0.80029,0.80029,0.80029,0.80029,0.80029,0.80029,0.80029,0.80029,0.80029,0.80029,0.80225,0.80225,0.80225,0.80225,0.80225,0.80225,0.80225,0.80225,0.80029,0.80225,0.80225,0.80029,0.80029,0.80029,0.80225,0.80029,0.80029,0.80029,0.80029,0.80029,0.80029,0.80029,0.80029,0.80029,0.80029,0.80029,0.80029,0.80029,0.79834,0.79883,0.79883,0.79883,0.79688,0,0,0,0,0,0,1.2607,1.2607,1.2656,1.2607,1.2705,1.29,1.2949,1.2949,1.2998,1.2998,1.2998,1.2949,1.2852,1.2852,1.2852,1.2852,1.2803,1.2803,1.2803,1.2803,1.2803,1.2803,1.2803,1.2803,1.2803,1.2803,1.2803,1.2803,1.2803,1.2803,1.2803,1.2852,1.2803,1.2803,1.2852,1.2852,1.2852,1.2803,1.2852,1.2852,1.29,1.29,1.29,1.29,1.29,1.29,1.29,1.29,1.29,1.29,1.29,1.29,1.29,1.29,1.29,1.2949,1.2949,1.2949,1.29,1.29,1.29,1.29,1.2852,1.29,1.2852,1.29,1.29,1.29,1.29,1.2949,1.29,1.29,1.2949,1.2949,1.2949,1.2949,1.2949,1.2949,1.2949,1.29,1.29,1.2852,1.2852,1.2803,0,0,0,0,0,0,0,0,0,0.82422,0.82227,0.82227,0.82031,0.82031,0.82031,0.81836,0.81641,0.81445,0.81445,0.81445,0.81445,0.81445,0.81445,0.81641,0.81836,0.82031,0.81836,0.82031,0.82031,0.82227,0.82227,0.83057,0.83057,0.83057,0.83057,0.82861,0.82666,0.82422,0.82422,0.82422,0.82227,0.82031,0.81836,0.81641,0.8125,0.80859,0.80859,0.80664,0.80664,0.80859,0.80859,0.80859,0.80859,0.80859,0.80859,0.80859,0.80859,0.80859,0.80859,0.80859,0.80859,0.80859,0.80859,0.80859,0.80859,0.80664,0.80859,0.80859,0.80664,0.80664,0.80713,0.77197,0.77197,0.77002,0.76855,0.7666,0.76514,0.76514,0.76318,0.76318,0.76172,0.76172,0.76172,0.75977,0.75977,0.76172,0.75977,0.76172,0.75977,0.76172,0.76172,0.76172,0.76318,0.76318,0.76318,0.76318,0.76318,0.76514,0,0,0.85156,0.85156,0.85156,0.85156,0.84961,0.84961,0.84766,0.84766,0.84522,0.84522,0.84326,0.84522,0.84522,0.84522,0.84522,0.84522,0.84326,0,0,0,1.0244,1.0215,1.0215,1.0244,1.0244,1.0215,1.0215,1.0186,1.0186,1.0156,1.0156,1.0127,1.0127,1.0127,1.0098,1.0098,1.0098,1.0098,1.0098,1.0068,1.0068,1.0039,1.0039,1.0039,1.001,1.001,1.001,1.001,1.001,1.001,1.001,0.99756,0.99756,0.99463,0.99463,0.99463,0.9917,0.9917,0.9917,0.9917,0.98926,0.98926,0.98926,0.98926,0.98633,0.9834,0.9834,0.9834,0.9834,0.98047,0.98633,0,0,0,1.3213,1.3223,1.3164,1.3164,1.3115,1.3115,1.3066,1.3066,1.3115,1.3115,1.3115,1.3066,1.3164,1.3164,1.3164,1.3115,1.3115,1.3115,1.3115,1.3115,1.3164,1.3164,1.3164,1.3164,1.3223,1.3223,1.3223,1.3223,1.3223,1.3223,1.3164,1.3164,1.3164,1.3164,1.3164,1.3066,1.3066,1.3018,1.3115,1.3066,1.3115,1.3066,1.3115,1.3174,1.3174,1.3174,1.3174,1.3174,1.3174,1.3174,1.3174,1.249,1.249,1.3174,1.3174,1.3223,1.3174,1.3223,1.3223,0,0,0,0,0,0,0,0,0,0,0,0,0,0,0,0,0,0,0,0,0,0,0,0,0,0,0,0,0,0,0,0,0,0,0,0,0,0,0,0,0,0,0,0,0,0,0
0,0,0,0,0,0,0,0,0,0,0,0,0,0,0,0,0,0,0,0,0,0,0,0,0.82129,0.81934,0.81152,0.80957,0.80957,0.80762,0.80566,0.80371,0.80371,0.80176,0.80176,0.80176,0.80176,0.80176,0.80176,0.80176,0.80225,0.80225,0.80225,0.80225,0.80225,0.80225,0.80225,0.80225,0.80225,0.80225,0.80225,0.80225,0.80225,0.80225,0.80225,0.80225,0.80029,0.80029,0.80029,0.80029,0.80225,0.80029,0.80029,0.80225,0.80029,0.80029,0.80029,0.80029,0.80029,0.80029,0.80029,0.80029,0.80225,0.80225,0.80225,0.80225,0.80225,0.80225,0.80029,0.80029,0.80029,0.80029,0.80029,0.80029,0.80029,0.80029,0.80029,0.80029,0.80029,0.80029,0.80029,0.80029,0.80029,0.80029,0.80029,0.80029,0.80029,0.80029,0.80029,0.80225,0.80225,0.80225,0.80029,0.80029,0.80029,0.80225,0.80029,0.80225,0.80029,0.80225,0.80029,0.80225,0.80029,0.80029,0.80029,0.80029,0.80225,0.80029,0.80029,0.80029,0.80029,0.80029,0.80029,0.80029,0.79883,0.80029,0.80029,0.80029,0.80029,0.80029,0.79883,0.79883,0.79883,0.79883,0.79883,0,0,0,0,0,0,0,1.2656,1.2656,1.2656,1.2754,1.29,1.2949,1.2949,1.3047,1.2998,1.2998,1.2949,1.2852,1.2852,1.2852,1.2803,1.2803,1.2803,1.2803,1.2803,1.2803,1.2803,1.2803,1.2803,1.2803,1.2803,1.2803,1.2803,1.2803,1.2803,1.2803,1.2803,1.2803,1.2803,1.2803,1.2852,1.2852,1.2852,1.2852,1.2852,1.29,1.29,1.29,1.29,1.29,1.29,1.29,1.29,1.29,1.29,1.29,1.29,1.29,1.29,1.29,1.2949,1.2949,1.2949,1.29,1.29,1.29,1.29,1.29,1.29,1.29,1.29,1.29,1.29,1.29,1.2949,1.2949,1.2949,1.2949,1.2949,1.2949,1.2949,1.2949,1.2949,1.2949,1.29,1.29,1.29,1.2852,0,0,0,0,0,0,0,0,0.83252,0.83057,0.82617,0.82422,0.82227,0.82227,0.82031,0.82031,0.81836,0.81641,0.81641,0.81641,0.81445,0.81445,0.81445,0.81641,0.81641,0.82031,0.82031,0.82031,0.82031,0.82227,0.82227,0.82227,0.83252,0.83252,0.83252,0.83057,0.83057,0.82861,0.82666,0.82666,0.82471,0.82227,0.82227,0.82031,0.81641,0.80859,0.80859,0.80664,0.80664,0.80664,0.80664,0.80664,0.80859,0.80859,0.80859,0.80859,0.80859,0.80859,0.80859,0.80859,0.80859,0.80859,0.80859,0.80859,0.80859,0.80859,0.80859,0.80859,0.80859,0.80908,0.80908,0.80908,0.77197,0.77197,0.77002,0.76855,0.7666,0.76514,0.76514,0.76318,0.76318,0.76318,0.76318,0.76172,0.76172,0.76172,0.76172,0.75977,0.76172,0.76172,0.76172,0.76172,0.76172,0.76318,0.76172,0.76318,0.76318,0.76318,0,0,0,0.85156,0.85156,0.85156,0.85156,0.84961,0.84961,0.84766,0.84766,0.84522,0.84522,0.84522,0.84522,0.84522,0.84522,0.84522,0.84522,0.84326,0,0,0,1.0215,1.0215,1.0215,1.0244,1.0244,1.0215,1.0215,1.0186,1.0186,1.0156,1.0156,1.0127,1.0127,1.0127,1.0098,1.0127,1.0098,1.0098,1.0098,1.0098,1.0068,1.0039,1.0068,1.0039,1.0039,1.0039,1.001,1.001,1.001,1.001,1.001,0.99756,0.99756,0.99463,0.99463,0.99463,0.9917,0.99219,0.99219,0.99219,0.98926,0.98926,0.98926,0.98633,0.98633,0.9834,0.9834,0.9834,0.9834,0.98047,0.98633,0,0,0,0,1.3271,1.3223,1.3164,1.3115,1.3115,1.3018,1.3115,1.3066,1.3115,1.3018,1.3018,1.3018,1.3164,1.3115,1.3115,1.3018,1.2969,1.3115,1.3115,1.3115,1.3164,1.3164,1.3223,1.3223,1.3223,1.3223,1.3223,1.3223,1.3223,1.3174,1.3174,1.3174,1.3174,1.3223,1.2969,1.2969,1.2969,1.3066,1.3018,1.3018,1.3018,1.3115,1.3174,1.3174,1.3174,1.3174,1.3174,1.249,1.249,1.249,1.249,1.2441,1.2441,1.2441,1.2441,1.2402,1.2402,0,0,0,0,0,0,0,0,0,0,0,0,0,0,0,0,0,0,0,0,0,0,0,0,0,0,0,0,0,0,0,0,0,0,0,0,0,0,0,0,0,0,0,0,0,0,0,0
0,0,0,0,0,0,0,0,0,0,0,0,0,0,0,0,0,0,0,0,0,0,0,0,0.82129,0.80957,0.80957,0.80957,0.80957,0.80762,0.80762,0.80566,0.80371,0.80371,0.80225,0.80225,0.80225,0.80225,0.80225,0.80225,0.80225,0.80225,0.80225,0.80029,0.80029,0.80225,0.80225,0.80225,0.80225,0.80225,0.80225,0.80225,0.80225,0.80225,0.80225,0.80029,0.80029,0.80029,0.80225,0.80029,0.80029,0.80029,0.80029,0.80225,0.80029,0.80029,0.80029,0.80029,0.80029,0.80029,0.80029,0.80225,0.80225,0.80225,0.80029,0.80029,0.80029,0.80029,0.80029,0.80029,0.80029,0.80029,0.80029,0.80029,0.80029,0.80225,0.80029,0.80029,0.80029,0.80029,0.80029,0.80029,0.80029,0.80029,0.80029,0.80029,0.80029,0.80029,0.80029,0.80225,0.80225,0.80225,0.80225,0.80029,0.80225,0.80225,0.80225,0.80225,0.80225,0.80225,0.80029,0.80225,0.80029,0.80029,0.80225,0.80225,0.80225,0.80029,0.80225,0.80029,0.80029,0.80225,0.80029,0.80029,0.80029,0.80029,0.80029,0.80029,0.80029,0.80029,0.80078,0.79883,0.80078,0.79883,0.80078,0,0,0,0,0,0,0,1.2705,1.2705,1.2656,1.2803,1.2852,1.29,1.2949,1.3047,1.2998,1.2998,1.2949,1.29,1.2852,1.2852,1.2852,1.2852,1.2803,1.2803,1.2803,1.2803,1.2803,1.2803,1.2803,1.2803,1.2803,1.2803,1.2803,1.2803,1.2803,1.2803,1.2803,1.2803,1.2803,1.2803,1.2852,1.2852,1.2852,1.2852,1.2852,1.29,1.29,1.29,1.29,1.29,1.29,1.29,1.29,1.29,1.29,1.29,1.29,1.29,1.29,1.29,1.29,1.29,1.2949,1.29,1.29,1.29,1.29,1.29,1.29,1.29,1.29,1.29,1.29,1.2949,1.2949,1.29,1.2949,1.3008,1.2949,1.3008,1.3008,1.3008,1.3008,1.3008,1.3008,1.3008,1.2949,0,0,0,0,0,0,0,0,0.83447,0.83057,0.83057,0.82861,0.82422,0.82422,0.82227,0.82031,0.81836,0.81641,0.81641,0.81641,0.81641,0.81445,0.81445,0.81445,0.81641,0.81641,0.82031,0.82031,0.82031,0.82031,0.82227,0.82227,0.82227,0.85352,0.84522,0.83252,0.83057,0.83057,0.82861,0.82666,0.82666,0.82471,0.82471,0.82275,0.82031,0.81445,0.80859,0.80859,0.80664,0.80664,0.80664,0.80664,0.80664,0.80664,0.80664,0.80664,0.80859,0.80859,0.80713,0.80713,0.80859,0.80859,0.80859,0.80908,0.80908,0.80908,0.81103,0.81103,0.81103,0.80908,0.80908,0.81103,0.77393,0.77197,0.77197,0.77002,0.77002,0.7666,0.76514,0.76514,0.76318,0.76318,0.76318,0.76318,0.76172,0.76172,0.76172,0.76172,0.76172,0.76318,0.76172,0.76172,0.76318,0.76318,0.76318,0.76318,0.76318,0.76514,0.76514,0,0,0.84961,0.85156,0.85156,0.85156,0.85156,0.84961,0.84961,0.84766,0.84522,0.84522,0.84522,0.84522,0.84522,0.84522,0.84522,0.84522,0.8457,0.84326,0,0,0,1.0254,1.0215,1.0215,1.0254,1.0254,1.0215,1.0215,1.0186,1.0186,1.0156,1.0156,1.0127,1.0127,1.0127,1.0127,1.0127,1.0127,1.0098,1.0098,1.0098,1.0068,1.0068,1.0068,1.0039,1.0039,1.0039,1.001,1.001,1.001,1.001,1.001,0.99805,0.99805,0.99512,0.99512,0.99512,0.99219,0.99219,0.99219,0.99219,0.99219,0.98926,0.98926,0.98633,0.98633,0.9834,0.9834,0.9834,0.9834,0.98047,0.9834,0,0,0,1.2441,1.332,1.3223,1.3164,1.3066,1.3066,1.3018,1.3066,1.3066,1.3066,1.3066,1.2969,1.2256,1.2256,1.2354,1.2871,1.2871,1.2871,1.3066,1.3066,1.3066,1.3066,1.3066,1.3115,1.3174,1.3174,1.3174,1.3428,1.3379,1.333,1.3379,1.2354,0,1.2441,0,1.2627,1.2627,1.2627,1.2627,1.2725,1.2773,1.2676,1.2676,1.2578,1.2578,1.2578,1.249,1.249,1.2441,1.249,1.249,1.2441,1.2441,1.2441,1.2402,1.2402,1.2402,1.2402,1.2441,0,0,0,0,0,0,0,0,0,0,0,0,0,0,0,0,0,0,0,0,0,0,0,0,0,0,0,0,0,0,0,0,0,0,0,0,0,0,0,0,0,0,0,0,0,0,0
0,0,0,0,0,0,0,0,0,0,0,0,0,0,0,0,0,0,0,0,0,0,0,0,0,0.81934,0.80957,0.80957,0.80957,0.80762,0.80762,0.80566,0.80566,0.8042,0.8042,0.80225,0.80225,0.80225,0.80225,0.80225,0.80225,0.80225,0.80225,0.80225,0.80029,0.80225,0.80225,0.80225,0.80225,0.80225,0.80225,0.80225,0.80225,0.80225,0.80225,0.80029,0.80029,0.80029,0.80225,0.80029,0.80225,0.80225,0.80225,0.80225,0.80029,0.80029,0.80029,0.80029,0.80029,0.80029,0.80029,0.80225,0.80225,0.80225,0.80029,0.80029,0.80029,0.80029,0.80029,0.80029,0.80029,0.80029,0.80029,0.80029,0.80029,0.80029,0.80225,0.80225,0.80029,0.80029,0.80029,0.80029,0.80029,0.80029,0.80029,0.80029,0.80029,0.80029,0.80029,0.80225,0.80029,0.80225,0.80225,0.80029,0.80225,0.80225,0.80225,0.80225,0.80225,0.80225,0.80225,0.80225,0.80225,0.80225,0.80225,0.80225,0.80225,0.80225,0.80225,0.80029,0.80225,0.80225,0.80029,0.80078,0.80078,0.80078,0.80078,0.80078,0.80078,0.80078,0.80078,0.80078,0.80078,0.80078,0,0,0,0,0,0,0,0,1.2754,1.2754,1.2705,1.2754,1.29,1.29,1.2949,1.3047,1.2998,1.2998,1.2998,1.29,1.29,1.2852,1.2852,1.2852,1.2852,1.2803,1.2803,1.2852,1.2852,1.2852,1.2852,1.2852,1.2803,1.2852,1.2803,1.2803,1.2803,1.2852,1.2852,1.2852,1.2852,1.2852,1.2852,1.2852,1.2852,1.2852,1.2852,1.29,1.29,1.29,1.29,1.29,1.29,1.2949,1.29,1.29,1.29,1.29,1.29,1.29,1.2949,1.29,1.29,1.2949,1.29,1.29,1.29,1.29,1.29,1.29,1.29,1.29,1.29,1.29,1.29,1.29,1.2949,1.29,1.29,1.2949,1.2949,1.3008,1.3008,1.3008,1.3057,1.3057,1.3057,0,0,0,0,0,0,0,0,0,0,0.83447,0.83252,0.83057,0.82861,0.82666,0.82422,0.82227,0.82031,0.81836,0.81641,0.81641,0.81641,0.81641,0.81641,0.81445,0.81641,0.81641,0.81641,0.81836,0.82031,0.81836,0.82031,0.82031,0.82031,0.85352,0.85352,0.84961,0.84717,0.83252,0.83252,0.82861,0.82861,0.82666,0.82666,0.82471,0.82275,0.8208,0.81641,0.80859,0.80859,0.80664,0.80664,0.80713,0.80713,0.80713,0.80713,0.80713,0.80713,0.80713,0.80713,0.80713,0.80713,0.80908,0.80908,0.80908,0.80908,0.80908,0.81103,0.81103,0.81103,0.81103,0.81103,0.81103,0.81103,0.77393,0.77393,0.77197,0.77002,0.77002,0.7666,0.76514,0.76514,0.76514,0.76318,0.76318,0.76318,0.76318,0.76172,0.76172,0.76172,0.76172,0.76318,0.76318,0.76318,0.76318,0.76318,0.76318,0.76318,0.76514,0.76514,0.76514,0,0,0.85205,0.85205,0.85205,0.85205,0.85205,0.84961,0.84961,0.84766,0.84522,0.8457,0.8457,0.8457,0.8457,0.8457,0.8457,0.84766,0.8457,0.84326,0,0,0,1.0215,1.0215,1.0254,1.0215,1.0254,1.0215,1.0215,1.0186,1.0186,1.0156,1.0156,1.0127,1.0127,1.0127,1.0127,1.0127,1.0127,1.0127,1.0127,1.0098,1.0098,1.0068,1.0068,1.0039,1.0039,1.0039,1.001,1.001,1.001,1.001,1.001,1.001,0.99805,0.99512,0.99512,0.99512,0.99219,0.99219,0.99219,0.99219,0.99219,0.98926,0.98926,0.98633,0.98633,0.98633,0.9834,0.9834,0.9834,0.98047,0,0,0,0,1.2441,1.249,1.3223,1.3164,1.249,1.2969,1.2969,1.2354,1.2354,1.2354,1.2393,1.2393,1.2354,1.2393,1.2266,1.2354,1.2354,1.2305,1.2969,1.3115,1.2969,1.2969,1.3115,1.2441,0,1.2441,1.2441,1.2441,1.2393,1.2354,1.2354,1.2354,1.2441,1.2441,1.2305,1.2578,1.2627,1.2578,1.2627,1.2627,1.2627,1.2627,1.2627,1.2578,1.2539,1.2402,1.2441,1.2441,1.2441,1.2441,1.2441,1.249,1.2441,1.2441,1.2441,1.2441,1.2441,1.2402,1.2441,1.2441,1.249,0,0,0,0,0,0,0,0,0,0,0,0,0,0,0,0,0,0,0,0,0,0,0,0,0,0,0,0,0,0,0,0,0,0,0,0,0,0,0,0,0,0,0,0,0
0,0,0,0,0,0,0,0,0,0,0,0,0,0,0,0,0,0,0,0,0,0,0,0,0,0,0.80957,0.80957,0.80762,0.80762,0.80615,0.80615,0.8042,0.8042,0.8042,0.80225,0.80225,0.80225,0.80225,0.80225,0.80225,0.80225,0.80225,0.80225,0.80225,0.80225,0.80225,0.80225,0.80225,0.80225,0.80225,0.80225,0.80225,0.80225,0.80225,0.80225,0.80225,0.80225,0.80225,0.80225,0.80225,0.80225,0.80225,0.80225,0.80029,0.80029,0.80029,0.80225,0.80225,0.80225,0.80225,0.80225,0.80225,0.80225,0.80029,0.80029,0.80029,0.80029,0.80029,0.80029,0.80029,0.80029,0.80225,0.80225,0.80225,0.80029,0.80225,0.80225,0.80029,0.80029,0.80029,0.80029,0.80029,0.80029,0.80029,0.80029,0.80029,0.80029,0.80029,0.80029,0.80029,0.80029,0.80029,0.80029,0.80225,0.80225,0.80225,0.80225,0.80225,0.80225,0.80225,0.80225,0.80225,0.80225,0.80225,0.80225,0.80225,0.80225,0.80225,0.80225,0.80225,0.80225,0.80225,0.80225,0.80078,0.80225,0.80225,0.80273,0.80273,0.80273,0.80078,0.80078,0.80078,0.80078,0,0,0,0,0,0,0,1.2754,1.2803,1.2754,1.2754,1.2803,1.29,1.2949,1.2998,1.3047,1.2998,1.2998,1.2998,1.29,1.29,1.2852,1.2852,1.2803,1.2803,1.2803,1.2803,1.2852,1.2852,1.2852,1.2852,1.2803,1.2803,1.2852,1.2803,1.2803,1.2852,1.2852,1.2852,1.2852,1.2852,1.2852,1.2852,1.2852,1.2852,1.2852,1.2852,1.29,1.2949,1.2949,1.2949,1.2949,1.2949,1.2949,1.2949,1.29,1.2949,1.2949,1.2949,1.2949,1.29,1.29,1.29,1.2949,1.29,1.29,1.29,1.29,1.29,1.2949,1.2949,1.29,1.2949,1.2949,1.29,1.2949,1.2949,1.29,1.2959,1.2158,1.2158,1.207,1.2119,1.2119,1.207,0,0,0,0,0,0,0,0,0,0,0,0,0.83252,0.83057,0.82861,0.82861,0.82471,0.82227,0.82227,0.82031,0.81836,0.81641,0.81641,0.81641,0.81641,0.81641,0.81641,0.81641,0.81641,0.81836,0.82031,0.82031,0.81836,0.8208,0.8208,0.8208,0.85352,0.85352,0.84961,0.84717,0.84717,0.83887,0.83057,0.83057,0.82861,0.82666,0.82471,0.82275,0.82275,0.81885,0.81445,0.80859,0.80908,0.80713,0.80713,0.80713,0.80713,0.80713,0.80713,0.80713,0.80713,0.80713,0.80713,0.80713,0.80908,0.80908,0.80908,0.81103,0.81103,0.81103,0.81103,0.81103,0.81103,0.81103,0.81103,0.81103,0.77393,0.77393,0.77197,0.77051,0.77051,0.7666,0.76514,0.76514,0.76514,0.76318,0.76318,0.76318,0.76318,0.76318,0.76172,0.76172,0.76172,0.76318,0.76318,0.76318,0.76318,0.76318,0.76318,0.76318,0.76514,0.76514,0.76514,0,0,0.85205,0.85205,0.85205,0.85205,0.85205,0.84961,0.84961,0.84766,0.84766,0.8457,0.8457,0.8457,0.84766,0.8457,0.8457,0.8457,0.8457,0.84326,0,0,0,1.0215,1.0215,1.0254,1.0254,1.0254,1.0215,1.0215,1.0186,1.0186,1.0186,1.0156,1.0156,1.0127,1.0127,1.0127,1.0127,1.0127,1.0127,1.0127,1.0098,1.0098,1.0068,1.0068,1.0039,1.0039,1.0039,1.001,1.001,1.0039,1.001,1.001,1.001,1.001,0.99805,0.99512,0.99512,0.99219,0.99219,0.99219,0.99219,0.99219,0.98926,0.98926,0.98633,0.98633,0.98633,0.9834,0.9834,0.9834,0.9834,0.9834,0,0,0,1.2441,1.249,1.3174,1.2305,1.2305,0,1.292,1.2354,1.2354,1.2354,1.2393,1.2393,1.2393,1.2354,1.2354,1.2354,1.2305,1.2266,1.2217,1.2217,1.2178,0,0,0,0,1.2441,1.2441,1.2441,1.2393,1.2354,1.2354,1.2354,1.2354,1.2305,1.2305,1.2578,1.2539,1.2578,1.2578,1.2627,1.2627,1.2627,1.2627,1.2588,1.2402,1.2402,1.2402,1.2402,1.2402,1.2441,1.2441,1.2441,1.2402,1.2402,1.2441,1.2441,1.2402,1.2441,1.249,1.2441,1.249,1.249,0,0,0,0,0,0,0,0,0,0,0,0,0,0,0,0,0,0,0,0,0,0,0,0,0,0,0,0,0,0,0,0,0,0,0,0,0,0,0,0,0,0,0,0
0,0,0,0,0,0,0,0,0,0,0,0,0,0,0,0,0,0,0,0,0,0,0,0,0,0,0.81152,0.80957,0.80957,0.8081,0.8081,0.80615,0.80615,0.8042,0.8042,0.8042,0.80225,0.8042,0.80225,0.80225,0.80225,0.80225,0.80225,0.80225,0.80225,0.80225,0.80225,0.80225,0.80225,0.80225,0.80225,0.80225,0.80225,0.80225,0.80225,0.80225,0.80225,0.80225,0.80225,0.80225,0.80225,0.80225,0.80225,0.80029,0.80029,0.80225,0.80029,0.80029,0.80029,0.80029,0.80029,0.80029,0.80029,0.80029,0.80029,0.80029,0.80029,0.80225,0.80029,0.80029,0.80029,0.80029,0.80029,0.80225,0.80225,0.80029,0.80225,0.80029,0.80029,0.80029,0.80029,0.80029,0.80029,0.80029,0.80029,0.80029,0.80029,0.80029,0.80029,0.80225,0.80225,0.80225,0.80225,0.80225,0.80225,0.80225,0.80225,0.80225,0.80225,0.80225,0.80225,0.80225,0.80225,0.80225,0.80225,0.80225,0.80225,0.80225,0.80225,0.80225,0.80273,0.80273,0.80273,0.80273,0.80078,0.80273,0.80273,0.80273,0.80273,0.80273,0.80078,0.80078,0.80078,0.80078,0,0,0,0,0,0,0,1.2803,1.2803,1.2803,1.2754,1.2803,1.29,1.29,1.2998,1.3047,1.2998,1.2998,1.2998,1.2949,1.29,1.29,1.2852,1.2852,1.2852,1.2852,1.2803,1.2852,1.2852,1.2852,1.2852,1.2852,1.2852,1.2852,1.2852,1.2852,1.2852,1.2852,1.2852,1.2852,1.2852,1.2852,1.29,1.2852,1.2852,1.29,1.29,1.2949,1.2949,1.2949,1.2949,1.2949,1.2949,1.2949,1.2949,1.2949,1.2949,1.2949,1.2949,1.2949,1.29,1.29,1.29,1.2949,1.2949,1.29,1.29,1.29,1.29,1.2949,1.2959,1.2959,1.2959,1.2959,1.2959,1.2959,1.2031,1.2031,1.2031,1.207,1.207,1.207,1.2031,1.207,1.207,1.207,1.2119,0,0,0,0,0,0,0,0,0,0,0.83057,0.82666,0.82471,0.82471,0.82275,0.82275,0.82031,0.81836,0.81836,0.81641,0.81641,0.81641,0.81641,0.81641,0.81641,0.81641,0.81641,0.81836,0.8208,0.8208,0.8208,0.82275,0.8208,0.82275,0.82275,0.85352,0.85156,0.84961,0.84961,0.84082,0.83496,0.83057,0.83057,0.82861,0.82666,0.82471,0.82275,0.8208,0.81103,0.81103,0.80908,0.80713,0.80713,0.80713,0.80518,0.80713,0.80713,0.80713,0.80713,0.80713,0.80713,0.80713,0.80908,0.80908,0.81103,0.81103,0.81103,0.81103,0.81103,0.81103,0.81103,0.81103,0.81103,0.81103,0.77393,0.77197,0.77197,0.77051,0.77051,0.7666,0.76514,0.76514,0.76514,0.76318,0.76514,0.76318,0.76318,0.76318,0.76318,0.76318,0.76172,0.76318,0.76172,0.76318,0.76318,0.76514,0.76514,0.76514,0.76709,0.76709,0.76709,0,0,0.85205,0.85205,0.85205,0.85205,0.85205,0.84961,0.84961,0.84766,0.84766,0.84766,0.8457,0.8457,0.84766,0.8457,0.8457,0.84766,0.8457,0.84326,0,0,0,1.0186,1.0215,1.0254,1.0254,1.0254,1.0215,1.0215,1.0225,1.0186,1.0186,1.0156,1.0156,1.0127,1.0127,1.0127,1.0127,1.0127,1.0127,1.0127,1.0127,1.0098,1.0068,1.0068,1.0039,1.0039,1.0039,1.0039,1.001,1.0039,1.001,1.001,1.001,0.99805,0.99805,0.99512,0.99512,0.99219,0.99219,0.99219,0.99219,0.98926,0.98926,0.98926,0.98926,0.98633,0.98633,0.98633,0.9834,0.98633,0.98633,0.9834,0,0,0,0,1.2393,1.2441,1.2217,1.2217,1.2217,1.2354,1.2305,1.2305,1.2305,1.2354,1.2354,1.2354,1.2354,1.2305,1.2305,1.2266,1.2217,1.2178,1.2129,1.2178,1.2178,1.2217,1.2217,1.2266,1.2441,1.2441,1.2402,1.2354,1.2217,1.2266,1.2354,1.2305,1.2266,1.2305,1.2305,1.2539,1.249,1.2539,1.2539,1.2539,1.2588,1.2539,1.2539,1.2402,1.2354,1.2354,1.2354,1.2354,1.2354,1.2402,1.2402,1.2354,1.2129,1.2129,0,1.2354,1.2441,0,0,0,0,0,0,0,0,0,0,0,0,0,0,0,0,0,0,0,0,0,0,0,0,0,0,0,0,0,0,0,0,0,0,0,0,0,0,0,0,0,0,0,0,0,0,0,0
0,0,0,0,0,0,0,0,0,0,0,0,0,0,0,0,0,0,0,0,0,0,0,0,0,0,0.81397,0.81006,0.81006,0.8081,0.8081,0.80615,0.80615,0.8042,0.8042,0.8042,0.80225,0.80225,0.80225,0.80225,0.80225,0.80225,0.80225,0.80225,0.80225,0.80225,0.80225,0.80225,0.80225,0.80225,0.80225,0.80225,0.80225,0.80225,0.80225,0.80225,0.80225,0.80225,0.80225,0.80225,0.80225,0.80225,0.80225,0.80029,0.80029,0.80225,0.80225,0.80225,0.80225,0.80225,0.80225,0.80225,0.80029,0.80029,0.80029,0.80029,0.80029,0.80029,0.80029,0.80029,0.80029,0.80029,0.80225,0.80225,0.80225,0.80225,0.80225,0.80225,0.80029,0.80225,0.80029,0.80029,0.80029,0.80029,0.80029,0.80029,0.80029,0.80029,0.80029,0.80225,0.80225,0.80225,0.80225,0.80225,0.80225,0.80225,0.80225,0.80225,0.80225,0.80225,0.80225,0.80225,0.80225,0.80273,0.80273,0.80273,0.80273,0.80273,0.80273,0.80273,0.80273,0.80273,0.80273,0.80273,0.80273,0.80273,0.80273,0.80273,0.80273,0.80273,0.80273,0.80078,0.80078,0.80078,0,0,0,0,0,0,0,1.2852,1.2852,1.2803,1.2754,1.2803,1.2852,1.29,1.2949,1.3047,1.2998,1.2998,1.2949,1.29,1.29,1.2852,1.2852,1.2803,1.2803,1.2803,1.2803,1.2852,1.2852,1.2852,1.2852,1.2852,1.2852,1.2852,1.2852,1.2852,1.2852,1.2852,1.2852,1.2852,1.2852,1.29,1.29,1.29,1.29,1.29,1.29,1.2949,1.2949,1.2949,1.2949,1.3008,1.3008,1.3008,1.2949,1.2959,1.2959,1.2959,1.2959,1.29,1.2959,1.2959,1.2959,1.3008,1.29,1.1904,1.1904,1.29,1.29,1.2959,1.2959,1.2959,1.3008,1.2959,1.1777,1.1777,1.1777,1.207,1.2031,1.207,1.2031,1.2031,1.2031,1.2031,1.208,1.208,1.208,1.2119,1.2119,0,0,0,0,0,0,0,0,0.83057,0.82471,0.82471,0.82275,0.82275,0.82031,0.8208,0.81836,0.81641,0.81445,0.81641,0.81641,0.81641,0.81641,0.81641,0.81641,0.81641,0.81641,0.81885,0.8208,0.81885,0.8208,0.8208,0.82275,0.82275,0.854,0.854,0.84717,0.84717,0.84326,0.84131,0.83887,0.83301,0.83301,0.82861,0.82666,0.82471,0.82275,0.81494,0.81103,0.80908,0.80713,0.80713,0.80713,0.80518,0.80518,0.80713,0.80518,0.80518,0.80713,0.80713,0.80713,0.80908,0.80908,0.80908,0.81103,0.81103,0.81299,0.81299,0.81299,0.81299,0.81299,0.81299,0.81299,0.77393,0.77393,0.77197,0.77197,0.77051,0.76855,0.76514,0.76514,0.76514,0.76318,0.76514,0.76318,0.76318,0.76318,0.76318,0.76172,0.76172,0.76172,0.76172,0.76367,0.76367,0.76514,0.76514,0.76514,0.76709,0.76709,0.76855,0,0,0.854,0.854,0.85205,0.85205,0.85205,0.84961,0.84961,0.84961,0.84766,0.84766,0.84766,0.84766,0.84766,0.84766,0.8457,0.84766,0.8457,0.8457,0.8457,0,0,0,1.0254,1.0254,1.0254,1.0254,1.0225,1.0225,1.0225,1.0186,1.0186,1.0156,1.0156,1.0156,1.0156,1.0127,1.0127,1.0127,1.0127,1.0127,1.0127,1.0098,1.0068,1.0068,1.0039,1.0039,1.0039,1.0039,1.001,1.0039,1.001,1.001,1.001,0.99805,0.99805,0.99805,0.99512,0.99512,0.99219,0.99219,0.99219,0.98926,0.98926,0.98926,0.98926,0.98633,0.98633,0.9834,0.9834,0.9834,0.9834,0.98633,0,0,0,1.2354,1.2129,0,1.209,1.2002,1.2041,1.2217,1.2266,1.2266,1.2266,1.2305,1.2354,1.2305,1.2305,1.2266,1.2217,1.2217,1.2178,1.2129,1.209,1.209,1.209,1.2178,1.2217,1.2178,1.2129,1.2217,1.2402,1.2354,1.2354,1.2354,1.2354,1.2305,1.2305,1.2266,1.2305,1.2266,1.2305,1.2441,1.2441,1.2402,1.2354,1.2305,1.2217,1.2354,1.2305,1.2305,1.2305,1.2266,1.2305,1.2314,1.2314,1.2266,1.209,1.209,1.209,1.2178,0,0,0,0,0,0,0,0,0,0,0,0,0,0,0,0,0,0,0,0,0,0,0,0,0,0,0,0,0,0,0,0,0,0,0,0,0,0,0,0,0,0,0,0,0,0,0,0,0
0,0,0,0,0,0,0,0,0,0,0,0,0,0,0,0,0,0,0,0,0,0,0,0,0,0,0.81201,0.81006,0.81006,0.8081,0.8081,0.8081,0.80615,0.80615,0.8042,0.8042,0.80225,0.80225,0.80225,0.80225,0.80225,0.80225,0.80225,0.80225,0.80225,0.80225,0.80225,0.80225,0.80225,0.80225,0.8042,0.80225,0.80225,0.80225,0.80225,0.80225,0.80225,0.80225,0.80225,0.80225,0.80225,0.80225,0.80225,0.80225,0.80029,0.80225,0.80225,0.80225,0.80225,0.80225,0.80225,0.80225,0.80225,0.80225,0.80225,0.80029,0.80029,0.80029,0.80029,0.80029,0.80029,0.80029,0.80225,0.80225,0.80225,0.80225,0.80225,0.80225,0.80225,0.80225,0.80029,0.80029,0.80029,0.80029,0.80225,0.80225,0.80225,0.80078,0.80078,0.80225,0.80225,0.80225,0.80225,0.80225,0.80225,0.80225,0.80273,0.80273,0.8042,0.80273,0.80273,0.80273,0.80273,0.80273,0.80273,0.80273,0.80273,0.80273,0.80273,0.80273,0.80273,0.80273,0.80273,0.80273,0.80273,0.80273,0.80273,0.80273,0.80273,0.80273,0.80273,0.80078,0.80078,0.80078,0,0,0,0,0,0,0,1.2852,1.2803,1.2803,1.2803,1.2803,1.2852,1.2852,1.2949,1.2998,1.2998,1.2998,1.2949,1.29,1.29,1.2852,1.2852,1.2803,1.2803,1.2852,1.2803,1.2852,1.2852,1.2852,1.2852,1.2852,1.2852,1.2852,1.2852,1.2852,1.2852,1.2852,1.29,1.2852,1.2852,1.29,1.29,1.29,1.29,1.29,1.29,1.2949,1.2949,1.2959,1.2959,1.3008,1.3008,1.3008,1.3008,1.2959,1.2959,1.2959,1.2959,1.291,1.2959,1.2959,1.1699,1.1699,1.1777,1.1826,1.1826,1.1826,1.1865,1.1865,1.1826,1.1826,1.1777,1.1777,1.1738,1.1738,1.1738,1.1777,1.208,1.2119,1.208,1.208,1.2031,1.2031,1.208,1.208,1.208,1.2119,0,0,0,0,0,0,0,0,0.82861,0.82861,0.82471,0.82471,0.82275,0.82275,0.8208,0.81885,0.81641,0.81445,0.81445,0.81445,0.81445,0.81445,0.81445,0.8169,0.8169,0.8169,0.8169,0.81885,0.81885,0.81885,0.8208,0.8208,0.8208,0.82275,0.854,0.854,0.84766,0.84766,0.84522,0.84326,0.83887,0.83496,0.83301,0.83301,0.83057,0.83105,0.82861,0.82471,0.81299,0.80908,0.80908,0.80713,0.80713,0.80713,0.80713,0.80518,0.80518,0.80518,0.80713,0.80713,0.80713,0.80908,0.80908,0.81103,0.81103,0.81299,0.81299,0.81299,0.81299,0.81299,0.81299,0.81494,0.81494,0.77393,0.77197,0.77197,0.77051,0.77051,0.76855,0.76514,0.76514,0.76514,0.76514,0.76514,0.76367,0.76367,0.76367,0.76367,0.76172,0.76172,0.76367,0.76172,0.76367,0.76367,0.76514,0.76514,0.76709,0.76709,0.76855,0.77051,0,0,0.854,0.854,0.854,0.854,0.85205,0.8501,0.8501,0.8501,0.84766,0.84766,0.84766,0.84766,0.84766,0.84766,0.84766,0.84766,0.84766,0.84766,0.8501,0,0,0,1.0254,1.0254,1.0254,1.0254,1.0225,1.0225,1.0186,1.0186,1.0156,1.0156,1.0156,1.0156,1.0156,1.0156,1.0127,1.0127,1.0127,1.0127,1.0127,1.0098,1.0068,1.0068,1.0039,1.0039,1.0039,1.0039,1.0039,1.001,1.001,1.001,1.001,0.99805,0.99805,0.99805,0.99512,0.99219,0.99219,0.99219,0.99219,0.98926,0.98926,0.98926,0.98926,0.98633,0.98633,0.9834,0.9834,0.9834,0.9834,0,0,0,1.2129,1.209,1.209,1.209,1.209,1.2041,1.2002,1.2129,1.2217,1.2217,1.2217,1.2266,1.2305,1.2266,1.2266,1.2217,1.2178,1.2178,1.2178,1.209,1.209,1.209,1.209,1.2129,1.2129,1.2129,1.209,1.209,1.2041,1.2041,1.2051,1.2002,1.1963,1.1963,1.2051,1.209,1.209,1.2217,1.2217,1.2178,1.2178,1.2178,1.2178,1.2217,1.2129,1.2178,1.2266,1.2178,1.2266,1.2178,1.2129,1.209,1.209,1.209,1.2051,1.2051,1.2051,1.209,0,0,0,0,0,0,0,0,0,0,0,0,0,0,0,0,0,0,0,0,0,0,0,0,0,0,0,0,0,0,0,0,0,0,0,0,0,0,0,0,0,0,0,0,0,0,0,0,0
0,0,0,0,0,0,0,0,0,0,0,0,0,0,0,0,0,0,0,0,0,0,0,0,0,0,0.81397,0.81006,0.81006,0.81006,0.8081,0.8081,0.8081,0.80615,0.8042,0.8042,0.80225,0.8042,0.8042,0.80225,0.80225,0.80225,0.80225,0.8042,0.8042,0.80225,0.8042,0.80225,0.8042,0.8042,0.8042,0.80225,0.80225,0.80225,0.80225,0.80225,0.80225,0.80225,0.8042,0.80225,0.80225,0.80225,0.80225,0.80225,0.80225,0.80225,0.80225,0.80225,0.80225,0.80225,0.80225,0.80225,0.80225,0.80225,0.80225,0.80225,0.80029,0.80029,0.80029,0.80029,0.80078,0.80078,0.80225,0.80225,0.80225,0.80225,0.80225,0.80225,0.80225,0.80225,0.80078,0.80078,0.80078,0.80225,0.80225,0.80225,0.80225,0.80078,0.80078,0.80273,0.80273,0.80273,0.80273,0.80273,0.80273,0.80273,0.80273,0.80273,0.80273,0.80469,0.80273,0.80469,0.80273,0.80273,0.80273,0.80273,0.80273,0.80273,0.80273,0.80273,0.80273,0.80273,0.80273,0.80273,0.80273,0.80273,0.80273,0.80273,0.80273,0.80273,0.80273,0.80273,0.80273,0.80273,0,0,0,0,0,0,0,1.2803,1.2852,1.2803,1.2803,1.2803,1.2852,1.29,1.2949,1.2998,1.2998,1.2998,1.2998,1.2949,1.29,1.2852,1.2852,1.2803,1.2803,1.2852,1.2852,1.2852,1.2852,1.2852,1.2852,1.2852,1.2852,1.2852,1.2852,1.2852,1.2852,1.29,1.29,1.2852,1.29,1.29,1.29,1.29,1.29,1.2959,1.2959,1.3008,1.3008,1.3008,1.3008,1.3008,1.3008,1.3008,1.3008,1.2959,1.3008,1.2959,1.3008,1.291,1.2959,1.166,1.166,1.166,1.166,1.1738,1.1777,1.1777,1.1826,1.1826,1.1826,1.1826,1.1777,1.1777,1.1738,1.1738,1.1699,1.1699,1.1699,1.1826,1.1953,1.1992,1.1953,1.2031,1.2031,1.2031,1.208,1.2119,0,0,0,0,0,0,0,0,0.82666,0.82471,0.82275,0.82275,0.82275,0.8208,0.81885,0.81885,0.81494,0.81494,0.81494,0.81494,0.81494,0.81494,0.81494,0.8169,0.81494,0.8169,0.8169,0.81885,0.81885,0.81885,0.8208,0.8208,0.8208,0.8208,0.854,0.854,0.84961,0.84766,0.84766,0.84522,0.84131,0.83691,0.83496,0.83301,0.83301,0.83105,0.83105,0.83105,0.83105,0.80908,0.80908,0.80713,0.80713,0.80713,0.80713,0.80713,0.80713,0.80518,0.80713,0.80518,0.80713,0.80713,0.80908,0.81103,0.81103,0.81103,0.81299,0.81299,0.81299,0.81299,0.81494,0.81494,0.77393,0.77393,0.77393,0.77197,0.77197,0.77051,0.76855,0.76709,0.76514,0.76514,0.76514,0.76514,0.76367,0.76367,0.76367,0.76367,0.76172,0.76367,0.76367,0.76172,0.76367,0.76367,0.76514,0.76514,0.76709,0.76709,0.76855,0.76855,0.77246,0,0,0.854,0.854,0.854,0.85205,0.85205,0.8501,0.8501,0.84766,0.84766,0.84766,0.84766,0.84766,0.84766,0.84766,0.8501,0.8501,0.8501,0.8501,0.85205,0,0,0,1.0254,1.0225,1.0225,1.0225,1.0225,1.0186,1.0186,1.0156,1.0156,1.0156,1.0156,1.0156,1.0156,1.0156,1.0127,1.0127,1.0127,1.0127,1.0098,1.0068,1.0068,1.0039,1.0039,1.0039,1.0039,1.001,1.001,1.001,1.001,1.001,1.001,0.99805,0.99805,0.99512,0.99219,0.99219,0.99219,0.99219,0.98926,0.98926,0.98926,0.98926,0.98633,0.98633,0.98389,0.98389,0.98389,0.98389,0.98926,0,0,1.209,1.209,1.2041,1.2041,1.2002,1.1963,1.1963,1.1914,1.2002,1.2041,1.2178,1.2178,1.2266,1.2266,1.2217,1.2129,1.2129,1.2129,1.2129,1.209,1.2041,1.2041,1.2041,1.2051,1.209,1.209,1.2051,1.2051,1.2002,1.2002,1.2002,1.1963,1.1924,1.1924,1.1963,1.2002,1.2002,1.1963,1.2051,1.2002,1.2051,1.2051,1.209,1.2051,1.209,1.2051,1.209,1.2051,1.209,1.2002,1.2002,1.1963,1.2051,1.2051,1.2051,1.2002,1.1963,1.1963,1.2002,0,0,0,0,0,0,0,0,0.88867,0.88867,0.87451,0,0,0,0,0,0,0,0,0,0,0,0,0,0,0,0,0,0,0,0,0,0,0,0,0,0,0,0,0,0,0,0,0,0,0,0,0
0.69336,0.6919,0,0,0,0,0,0,0,0,0,0,0,0,0,0,0,0,0,0,0,0,0,0,0,0,0.81397,0.81201,0.81006,0.81006,0.8081,0.8081,0.80615,0.80615,0.80615,0.8042,0.8042,0.8042,0.8042,0.8042,0.80225,0.80225,0.8042,0.8042,0.8042,0.8042,0.8042,0.8042,0.8042,0.8042,0.8042,0.8042,0.8042,0.80225,0.80225,0.8042,0.80225,0.80225,0.80225,0.80225,0.80225,0.80225,0.80225,0.80225,0.80225,0.80225,0.80225,0.80225,0.80225,0.80225,0.80225,0.80225,0.80225,0.80225,0.80225,0.80225,0.80225,0.80225,0.80078,0.80078,0.80078,0.80078,0.80225,0.80225,0.80273,0.80273,0.80273,0.80273,0.80273,0.80273,0.80273,0.80273,0.80273,0.80273,0.80273,0.80273,0.80273,0.80273,0.80273,0.80469,0.8042,0.80273,0.80273,0.80273,0.80273,0.80469,0.80469,0.80469,0.80273,0.80273,0.80273,0.80273,0.80273,0.80273,0.80273,0.80273,0.80273,0.80273,0.80273,0.80273,0.80273,0.80273,0.80273,0.80273,0.80273,0.80273,0.80273,0.80273,0.80273,0.80273,0.80273,0.80273,0.80273,0.80273,0,0,0,0,0,0,0,1.2803,1.2803,1.2803,1.2803,1.2852,1.2852,1.29,1.2998,1.2998,1.2998,1.2998,1.2998,1.2949,1.2949,1.2852,1.2852,1.2852,1.2852,1.2852,1.2852,1.2852,1.2852,1.2852,1.2852,1.2852,1.29,1.29,1.2852,1.2852,1.2852,1.29,1.29,1.2852,1.29,1.29,1.29,1.29,1.2959,1.2959,1.2959,1.3008,1.3008,1.3008,1.3008,1.3008,1.3008,1.3008,1.3008,1.2959,1.3008,1.2959,1.3008,1.3008,1.1621,1.1621,1.1621,1.1621,1.1621,1.166,1.1738,1.1777,1.1865,1.1826,1.1777,1.1826,1.1777,1.1738,1.1699,1.166,1.166,1.166,1.1621,1.1621,1.1699,1.166,1.1738,1.1826,0,0,0,0,0,0,0,0,0,0,0,0.83057,0.82471,0.82471,0.82275,0.82275,0.8208,0.8208,0.81885,0.8169,0.81494,0.81494,0.81494,0.81494,0.81494,0.81494,0.81494,0.81494,0.81494,0.8169,0.8169,0.81885,0.81885,0.81885,0.81885,0.81885,0.81885,0.81885,0.8208,0.85596,0.84961,0.84766,0.84766,0.84522,0.84326,0.84326,0.83935,0.83496,0.83301,0.83301,0.83301,0.83105,0.8291,0.83105,0.80908,0.80713,0.80713,0.80713,0.80713,0.80713,0.80713,0.80713,0.80713,0.80713,0.80713,0.80908,0.80908,0.81103,0.81103,0.81299,0.81299,0.81299,0.81299,0.81494,0.81494,0.77588,0.77588,0.77393,0.77393,0.77393,0.77197,0.76855,0.76709,0.76514,0.76514,0.76514,0.76367,0.76367,0.76367,0.76367,0.76367,0.76367,0.76172,0.76172,0.76172,0.76172,0.76367,0.76367,0.76514,0.76514,0.76514,0.76709,0.76709,0.76855,0.77051,0,0,0.85645,0.854,0.854,0.85205,0.85205,0.8501,0.8501,0.8501,0.84766,0.84766,0.84766,0.84766,0.84766,0.8501,0.8501,0.8501,0.8501,0.8501,0.85205,0,0,0,1.0254,1.0254,1.0254,1.0225,1.0225,1.0195,1.0195,1.0195,1.0195,1.0156,1.0156,1.0156,1.0156,1.0156,1.0156,1.0127,1.0127,1.0127,1.0127,1.0098,1.0068,1.0039,1.0039,1.0039,1.0039,1.0039,1.001,1.001,1.001,1.001,0.99805,0.99805,0.99805,0.99512,0.99219,0.99219,0.99219,0.99219,0.98926,0.98926,0.98926,0.98926,0.98926,0.98633,0.98389,0.98389,0.98389,0,0.98926,0,0,1.209,1.2041,1.2002,1.2002,1.2002,1.1963,1.1963,1.1914,1.1914,1.1875,1.1875,1.1748,1.1709,1.1709,0,1.209,1.209,1.2051,1.209,1.2051,1.2051,1.2051,1.2002,1.2002,1.2002,1.2002,1.1963,1.1963,1.1924,1.1924,1.1924,1.1875,1.1836,1.1875,1.1924,1.1924,1.1836,1.1836,1.1836,1.1836,1.1836,1.1875,1.1924,1.1924,1.2051,1.2002,1.2002,1.1924,1.1924,1.1924,1.1924,1.1924,1.1963,1.1963,1.2002,1.2002,1.1924,1.1924,1.2002,1.1963,0,0,0,0,0,0,0,0.88867,0.88623,0.87256,0,0,0,0,0,0,0,0,0,0,0,0,0,0,0,0,0,0,0,0,0,0,0,0,0,0,0,0,0,0,0,0,0,0,0,0,0
0.69336,0.69092,0.6919,0.69336,0.69336,0.6919,0,0,0,0,0,0,0,0,0,0,0,0,0,0,0,0,0,0,0,0,0.81592,0.81201,0.81201,0.81006,0.8081,0.8081,0.80615,0.80615,0.8042,0.8042,0.8042,0.8042,0.8042,0.8042,0.8042,0.8042,0.8042,0.8042,0.8042,0.8042,0.8042,0.8042,0.8042,0.8042,0.8042,0.8042,0.80225,0.80225,0.8042,0.8042,0.80225,0.80225,0.80225,0.80225,0.80225,0.80225,0.80225,0.80225,0.80225,0.80225,0.80225,0.80225,0.80225,0.80225,0.80225,0.80225,0.80225,0.80225,0.80225,0.80225,0.80273,0.80273,0.80273,0.80273,0.80273,0.80273,0.80273,0.80273,0.80273,0.80273,0.80273,0.80273,0.80273,0.80273,0.80273,0.80273,0.80273,0.80273,0.80273,0.80273,0.80273,0.80273,0.80273,0.80469,0.80469,0.80469,0.80469,0.80469,0.80469,0.80469,0.80469,0.80469,0.80469,0.80273,0.80273,0.80273,0.80273,0.80273,0.80273,0.80273,0.80469,0.80469,0.80469,0.80273,0.80273,0.80273,0.80273,0.80273,0.80273,0.80273,0.80273,0.80273,0.80273,0.80273,0.80273,0.80078,0.80078,0.80273,0,0,0,0,0,0,0,1.2803,1.2852,1.2852,1.2803,1.2852,1.29,1.2949,1.3008,1.3008,1.3008,1.3008,1.3008,1.2949,1.29,1.2852,1.2852,1.2852,1.2852,1.2852,1.2852,1.29,1.29,1.29,1.2852,1.2852,1.29,1.29,1.2852,1.29,1.291,1.291,1.291,1.2852,1.291,1.291,1.2959,1.2959,1.2959,1.2959,1.2959,1.3008,1.3008,1.3008,1.3008,1.3008,1.3008,1.3008,1.3008,1.2959,1.3008,1.3057,1.1582,1.1582,1.1582,1.1621,1.1582,1.1582,1.1582,1.1621,1.166,1.1777,1.1865,1.1826,1.1777,1.1826,1.1777,1.1738,1.1738,1.166,1.166,1.1621,1.1621,1.1621,1.166,1.166,1.1738,1.1738,1.1504,0,0,0,0,0,0,0,0,0,0,0.82471,0.82471,0.82275,0.8208,0.8208,0.8208,0.81885,0.81885,0.8169,0.81494,0.81494,0.81494,0.81494,0.81494,0.81494,0.81494,0.81494,0.81494,0.81494,0.8169,0.81885,0.81885,0.81885,0.8208,0.81885,0.81885,0.81885,0,0.84961,0.84961,0.84961,0.84766,0.84522,0.84522,0.84522,0.84131,0.83935,0.83691,0.83301,0.83301,0.83301,0.83105,0.83301,0.83301,0.80518,0.80713,0.80518,0.80713,0.80713,0.80713,0.80713,0.80908,0.80908,0.80908,0.80908,0.80908,0.81103,0.81103,0.81299,0.81299,0.81494,0.81494,0.81494,0.81494,0.77588,0.77588,0.77588,0.77588,0.77393,0.77246,0.76855,0.76709,0.76514,0.76514,0.76514,0.76514,0.76367,0.76367,0.76367,0.76367,0.76367,0.76172,0.76172,0.76172,0.76172,0.76172,0.76172,0.76367,0.76367,0.76514,0.76514,0.76514,0.76709,0.76904,0,0,0.85645,0.85645,0.85449,0.85205,0.85205,0.8501,0.8501,0.8501,0.84766,0.84766,0.84766,0.84766,0.84766,0.8501,0.8501,0.8501,0.8501,0.8501,0,0,0,0,1.0254,1.0254,1.0254,1.0225,1.0225,1.0225,1.0195,1.0225,1.0195,1.0156,1.0156,1.0156,1.0156,1.0156,1.0156,1.0127,1.0127,1.0127,1.0098,1.0098,1.0068,1.0039,1.0039,1.0039,1.0039,1.0039,1.001,1.001,1.001,1.001,0.99805,0.99805,0.99805,0.99512,0.99512,0.99219,0.99219,0.99219,0.99219,0.98926,0.98926,0.98926,0.98926,0.98682,0.98682,0.98389,0.98389,0,0.98975,0,0,0,1.2041,1.2002,1.1963,1.1914,1.1914,1.1875,1.1914,1.1914,1.1875,1.1836,1.1758,1.1592,1.1758,1.2178,1.1963,1.2051,1.1963,1.2002,1.2002,1.2002,1.1963,1.1963,1.1924,1.1875,1.1836,1.1836,1.1875,1.1875,1.1875,1.1836,1.1836,1.1797,1.1836,1.1836,1.1797,1.1836,1.1836,1.1836,1.1836,1.1836,1.1836,1.1875,1.1875,1.1924,1.1836,1.1797,1.1875,1.1797,1.1875,1.1875,1.1875,1.1924,1.1924,1.1924,1.1924,1.1924,1.1924,1.1924,1.1875,0,0,0,0,0,0,0,0.88867,0.88623,0.87256,0,0,0,0,0,0,0,0,0,0,0,0,0,0,0,0,0,0,0,0,0,0,0,0,0,0,0,0,0,0,0,0,0,0,0,0,0
0.6919,0.69092,0.6919,0.6919,0.6919,0.6919,0.69092,0,0,0,0.68799,0.68359,0,0,0,0,0,0,0,0,0,0,0,0,0,0,0,0.81201,0.81201,0.81006,0.81006,0.8081,0.8081,0.80615,0.80615,0.8042,0.8042,0.8042,0.8042,0.8042,0.8042,0.8042,0.8042,0.8042,0.8042,0.8042,0.8042,0.8042,0.8042,0.8042,0.8042,0.8042,0.80225,0.80225,0.8042,0.8042,0.8042,0.8042,0.80225,0.80225,0.80225,0.80225,0.80225,0.80225,0.80225,0.80225,0.80225,0.80225,0.8042,0.8042,0.80273,0.8042,0.8042,0.80273,0.80273,0.80273,0.80273,0.80273,0.80273,0.80273,0.80273,0.80273,0.80273,0.80273,0.80273,0.80273,0.80273,0.80273,0.80273,0.80273,0.80273,0.80273,0.80273,0.80273,0.80273,0.80273,0.80273,0.80273,0.80273,0.80469,0.80469,0.80469,0.80469,0.80469,0.80469,0.80469,0.80469,0.80469,0.80469,0.80273,0.80273,0.80273,0.80273,0.80273,0.80273,0.80273,0.80469,0.80273,0.80469,0.80469,0.80469,0.80469,0.80273,0.80273,0.80273,0.80273,0.80273,0.80273,0.80273,0.80273,0.80078,0.80078,0.80078,0.80273,0,0,0,0,0,0,0,1.2803,1.2852,1.2852,1.2852,1.2852,1.29,1.2949,1.3008,1.3008,1.3008,1.3008,1.2949,1.2959,1.29,1.2852,1.2852,1.2852,1.2852,1.2852,1.2852,1.29,1.29,1.291,1.2852,1.2852,1.291,1.291,1.2861,1.291,1.291,1.291,1.291,1.2861,1.291,1.291,1.2959,1.2959,1.2959,1.2959,1.2959,1.3008,1.3008,1.3008,1.3008,1.3008,1.3008,1.3008,1.3008,1.3008,1.3008,1.1465,1.1465,1.1504,1.1504,1.1543,1.1543,1.1582,1.1582,1.1582,1.1582,1.1582,1.1826,1.1826,1.1738,1.1738,1.1787,1.1738,1.1738,1.166,1.1621,1.1582,1.1582,1.1582,1.1582,1.1582,1.1543,1.1504,1.1504,1.1543,0,0,0,0,0,0,0,0,0.82861,0.82471,0.82471,0.82471,0.82275,0.8208,0.81885,0.81885,0.81885,0.8169,0.81494,0.81494,0.81494,0.81494,0.81494,0.81494,0.81494,0.81494,0.81494,0.81494,0.81494,0.81885,0.81885,0.81885,0.81885,0.81885,0.81885,0.81885,0.8169,0.8169,0,0.84961,0.84961,0.84766,0.8457,0.8457,0.84131,0.84131,0.83935,0.83691,0.83496,0.83301,0.83301,0.83301,0.83301,0.83301,0.83105,0.80518,0.80713,0.80713,0.80908,0.80908,0.80908,0.80908,0.80908,0.80908,0.81103,0.81103,0.81299,0.81494,0.81494,0.81494,0.8169,0.8169,0.8169,0.77588,0.77588,0.77393,0.77393,0.77246,0.77246,0.76709,0.76709,0.76514,0.76514,0.76367,0.76367,0.76367,0.76367,0.76367,0.76367,0.76367,0.76172,0.76172,0.76172,0.76172,0.76172,0.76367,0.76367,0.76367,0.76514,0.76514,0.76514,0.76514,0.76904,0,0,0.85449,0.85449,0.85205,0.85205,0.8501,0.8501,0.8501,0.8501,0.84766,0.84766,0.84766,0.84815,0.84815,0.8501,0.8501,0.8501,0.8501,0.8501,0,0,0,1.0254,1.0254,1.0254,1.0254,1.0225,1.0225,1.0225,1.0225,1.0225,1.0195,1.0195,1.0195,1.0166,1.0166,1.0166,1.0166,1.0127,1.0127,1.0127,1.0098,1.0098,1.0068,1.0039,1.0039,1.0039,1.0039,1.0039,1.0039,1.001,1.001,1.001,1.001,1.001,0.99805,0.99512,0.99512,0.99219,0.99219,0.99219,0.99219,0.99219,0.98975,0.98975,0.98975,0.98975,0.98682,0.98682,0.98682,0.98682,0,0,0,1.1963,1.1963,1.1875,1.1875,1.1875,1.1836,1.1836,1.1875,1.1836,1.1836,1.1797,1.1631,1.1592,1.1592,1.1592,1.1631,1.2002,1.1963,1.1963,1.1924,1.1924,1.1924,1.1924,1.1758,1.1758,1.1758,1.1797,1.1797,1.1875,1.1797,1.1758,1.1797,1.1797,1.1836,1.1758,1.1758,1.1758,1.1797,1.1758,1.1836,1.1797,1.1797,1.1797,1.1797,1.1758,1.1758,1.1758,1.1758,1.1758,1.1758,1.1758,1.1836,1.1836,1.1875,1.1836,1.1875,1.1875,1.1885,1.1885,1.1836,1.1797,1.1836,0,0,0,0,0.88867,0.88379,0.87695,0.875,0,0,0,0,0,0,0,0,0,0,0,0,0,0,0,0,0,0,0,0,0,0,0,0,0,0,0,0,0,0,0,0,0,0,0,0,0
0.69092,0.68945,0.69092,0.69092,0.69092,0.69092,0.69092,0,0,0,0.68799,0.68359,0.68262,0,0,0,0,0,0,0,0,0,0,0,0,0,0,0.81201,0.81006,0.81006,0.81006,0.8081,0.8081,0.80615,0.80615,0.8042,0.8042,0.8042,0.8042,0.8042,0.8042,0.8042,0.8042,0.8042,0.8042,0.8042,0.8042,0.8042,0.8042,0.8042,0.8042,0.8042,0.8042,0.8042,0.8042,0.8042,0.8042,0.80225,0.80225,0.80225,0.80225,0.80225,0.80273,0.80273,0.80273,0.80273,0.80273,0.80273,0.8042,0.8042,0.80273,0.8042,0.80469,0.80273,0.80273,0.80273,0.80273,0.80273,0.80273,0.80273,0.80273,0.80273,0.80273,0.80273,0.80273,0.80273,0.80273,0.80273,0.80273,0.80273,0.80273,0.80273,0.80273,0.80273,0.80273,0.80273,0.80273,0.80273,0.80273,0.80469,0.80469,0.80469,0.80469,0.80273,0.80273,0.80273,0.80469,0.80273,0.80273,0.80273,0.80469,0.80469,0.80273,0.80273,0.80469,0.80469,0.80469,0.80469,0.80469,0.80469,0.80469,0.80469,0.80469,0.80469,0.80469,0.80273,0.80273,0.80273,0.80273,0.80273,0.80078,0.80078,0.80078,0.80273,0,0,0,0,0,0,0,1.2852,1.2803,1.2852,1.2852,1.2852,1.29,1.2959,1.3008,1.3008,1.3008,1.3008,1.2959,1.2959,1.29,1.2852,1.2852,1.2852,1.2852,1.2852,1.291,1.291,1.291,1.291,1.2861,1.291,1.291,1.291,1.291,1.291,1.291,1.291,1.291,1.291,1.291,1.291,1.2959,1.2959,1.2959,1.2959,1.2959,1.3008,1.3008,1.3008,1.3008,1.3008,1.3008,1.3008,1.3008,0,0,1.1426,1.1426,1.1426,1.1426,1.1465,1.1465,1.1543,1.1543,1.1504,1.1504,1.1426,1.1426,1.1621,1.1621,1.1465,0,1.1582,1.1621,1.1621,1.1582,1.1543,1.1543,1.1543,1.1504,1.1543,1.1504,1.1465,1.1465,1.1465,0,0,0,0,0,0,0,0,0.82861,0.82471,0.82471,0.82471,0.82275,0.8208,0.81885,0.81885,0.8169,0.81494,0.81494,0.81494,0.81494,0.81494,0.81299,0.81494,0.81494,0.81494,0.81494,0.81494,0.81494,0.81885,0.81885,0.81885,0.81885,0.81885,0.8208,0.8208,0.8208,0.8208,0,0.8584,0.84961,0.84766,0.84766,0.8457,0.84131,0.84131,0.83935,0.83935,0.83496,0.83496,0.83301,0.83301,0.83301,0.83301,0.83301,0.83301,0.83105,0.81103,0.81103,0.81103,0.81103,0.81103,0.81103,0.81103,0.81103,0.81299,0,0.8169,0.8169,0.8169,0.8169,0.8169,0.77783,0.77588,0.77588,0.77588,0.77393,0.77393,0.77246,0.76709,0.76709,0.76514,0.76514,0.76514,0.76514,0.76367,0.76367,0.76367,0.76367,0.76367,0.76367,0.76172,0.76172,0.76172,0.76172,0.76367,0.76367,0.76367,0.76367,0.76562,0.76562,0.76709,0.76904,0,0,0.85449,0.85449,0.85449,0.85205,0.85205,0.85205,0.8501,0.8501,0.84815,0.84815,0.84815,0.8501,0.8501,0.8501,0.8501,0.8501,0.8501,0.8501,0,0,0,1.0254,1.0254,1.0254,1.0254,1.0225,1.0225,1.0225,1.0195,1.0195,1.0195,1.0195,1.0195,1.0166,1.0166,1.0166,1.0166,1.0127,1.0127,1.0127,1.0127,1.0098,1.0098,1.0068,1.0068,1.0039,1.0039,1.0039,1.0039,1.001,1.001,1.001,1.001,1.001,0.99805,0.99805,0.99512,0.99268,0.99268,0.99268,0.99268,0.99268,0.99268,0.98975,0.98975,0.98975,0.98975,0.98975,0.98389,0,0,0,1.1436,1.167,1.1797,1.1797,1.1797,1.1836,1.1836,1.1797,1.1836,1.1709,1.1797,1.167,1.1631,1.1592,1.1592,1.1592,1.1592,1.1592,1.1631,1.1631,1.1797,1.1709,0,1.1797,1.1719,1.1719,1.167,1.1719,1.1719,1.1758,1.1719,1.1719,1.1719,1.1631,0,1.167,1.1719,1.1719,1.1719,1.1719,1.1719,1.1758,1.1719,1.1719,1.168,1.1719,1.168,1.1719,1.1719,1.1719,1.1719,1.1719,1.1758,1.1758,1.1797,1.168,1.168,1.168,1.1592,1.1631,1.1758,1.1797,1.1758,0,0,0,0,0.88867,0.88867,0.87695,0.87695,0,0,0,0,0,0,0,0,0,0,0,0,0,0,0,0,0,0,0,0,0,0,0,0,0,0,0,0,0,0,0,0,0,0,0,0,0
0.68945,0.68945,0.68945,0.68945,0.68945,0.68945,0.68945,0,0,0,0,0,0.68262,0.68115,0,0,0,0,0,0,0,0,0,0,0,0,0,0.81201,0.81006,0.81006,0.81006,0.8081,0.8081,0.8081,0.80615,0.80615,0.8042,0.80615,0.8042,0.8042,0.8042,0.8042,0.80615,0.8042,0.8042,0.8042,0.8042,0.8042,0.8042,0.8042,0.8042,0.8042,0.8042,0.8042,0.8042,0.8042,0.8042,0.80273,0.80273,0.80273,0.80273,0.80273,0.80273,0.80273,0.80273,0.80273,0.80273,0.80273,0.80273,0.80273,0.80273,0.80469,0.80469,0.80273,0.80273,0.80273,0.80273,0.80273,0.80273,0.80273,0.80273,0.80273,0.80273,0.80273,0.80273,0.80273,0.80273,0.80273,0.80273,0.80273,0.80273,0.80273,0.80273,0.80273,0.80273,0.80273,0.80273,0.80273,0.80273,0.80469,0.80469,0.80469,0.80469,0.80469,0.80469,0.80469,0.80469,0.80469,0.80469,0.80469,0.80469,0.80469,0.80273,0.80469,0.80469,0.80469,0.80469,0.80469,0.80469,0.80469,0.80469,0.80469,0.80469,0.80469,0.80469,0.80273,0.80273,0.80273,0.80273,0.80273,0.80273,0.80273,0.80078,0.80273,0.80273,0,0,0,0,0,0,0,1.2803,1.2852,1.2852,1.2852,1.2959,1.3008,1.3057,1.3008,1.3008,1.3057,1.2959,1.2959,1.291,1.2861,1.2861,1.2861,1.2861,1.291,1.2861,1.291,1.291,1.291,1.291,1.291,1.291,1.291,1.291,1.291,1.291,1.291,1.291,1.291,1.291,1.291,1.2959,1.2959,1.2959,1.2959,1.2959,1.3008,1.3008,1.3008,1.3008,1.3008,1.3057,0,0,1.1387,1.1387,1.1348,1.1348,1.1387,1.1348,1.1348,1.1348,1.1348,1.1504,1.1426,1.1426,1.1387,1.1348,1.1387,1.1387,1.1348,1.1348,1.1348,1.1426,1.1504,1.1504,1.1465,1.1504,1.1504,1.1504,1.1465,1.1465,1.1426,1.1426,1.1426,1.1465,0,0,0,0,0,0,0,0.82861,0.82666,0.82666,0.82471,0.82275,0.8208,0.81885,0.81885,0.8169,0.81494,0.81494,0.81494,0.81299,0.81494,0.81299,0.81299,0.81494,0.81494,0.81494,0.81494,0.81494,0.8169,0.81885,0.81885,0.8208,0.81885,0.8208,0.8208,0.82275,0.8208,0.8208,0,0.84766,0.84766,0.84766,0.84766,0.84766,0.84326,0.84131,0.83935,0.8374,0.8374,0.83301,0.83496,0.83496,0.83301,0.83301,0.83301,0.83105,0.83105,0.8252,0.82275,0.81885,0.82275,0.8208,0.8208,0.81885,0.8169,0.81885,0.81885,0.81885,0.81885,0.81885,0.81885,0.77588,0.77588,0.77588,0.77588,0.77393,0.77393,0.77246,0.76904,0.76709,0.76514,0.76514,0.76514,0.76514,0.76367,0.76367,0.76367,0.76367,0.76367,0.76367,0.76172,0.76367,0.76221,0.76367,0.76367,0.76367,0.76562,0.76562,0.76562,0.76709,0.76709,0.76904,0,0,0.85645,0.85449,0.85449,0.85205,0.85205,0.85205,0.8501,0.8501,0.84815,0.8501,0.84815,0.8501,0.8501,0.8501,0.8501,0.8501,0.8501,0.8501,0,0,0,1.0283,1.0254,1.0254,1.0254,1.0225,1.0225,1.0225,1.0195,1.0225,1.0195,1.0195,1.0195,1.0195,1.0166,1.0166,1.0166,1.0127,1.0127,1.0137,1.0137,1.0137,1.0098,1.0039,1.0068,1.0039,1.0039,1.0039,1.0039,1.001,1.001,1.001,0.99853,1.001,0.99853,0.9956,0.9956,0.99268,0.99268,0.99268,0.99268,0.99268,0.99268,0.99268,0.98975,0.98975,0.98975,0.98975,0.98682,0,0,0,1.1436,1.1436,1.167,1.1514,1.167,1.1797,1.1797,1.167,0,1.1709,1.1631,1.167,1.1592,1.1553,1.1553,1.1553,1.1514,1.1475,1.1514,1.1553,1.1592,1.1631,1.167,1.167,1.167,1.167,1.1631,1.167,1.1631,1.1719,1.167,1.1592,1.1592,1.1553,1.1475,1.1592,1.168,1.168,1.168,1.168,1.1631,1.168,1.168,1.168,1.1631,1.1592,1.1592,1.1631,1.1631,1.1631,1.1631,1.1592,1.1592,1.1289,0,1.1514,1.1436,1.1436,1.1475,1.1436,1.1514,0,0,0,0,0,0,0.89111,0.8794,0.8794,0.87695,0,0,0,0,0,0,0,0,0,0,0,0,0,0,0,0,0,0,0,0,0,0,0,0,0,0,0,0,0,0,0,0,0,0,0,0,0
0.68945,0.68799,0.68799,0.68799,0.68799,0.68799,0,0,0,0,0,0,0,0,0,0,0.67139,0,0,0,0,0,0,0,0,0,0,0.81201,0.81006,0.81006,0.81006,0.8081,0.8081,0.8081,0.80615,0.80615,0.80615,0.80615,0.80615,0.8042,0.8042,0.80615,0.80615,0.8042,0.8042,0.8042,0.8042,0.8042,0.8042,0.8042,0.8042,0.8042,0.8042,0.8042,0.8042,0.8042,0.80273,0.80273,0.80273,0.80273,0.80273,0.80273,0.80273,0.80273,0.80273,0.80273,0.80273,0.80273,0.80273,0.80273,0.80273,0.80469,0.80469,0.80469,0.80469,0.80273,0.80273,0.80273,0.80273,0.80273,0.80273,0.80273,0.80273,0.80273,0.80273,0.80273,0.80273,0.80273,0.80273,0.80273,0.80273,0.80273,0.80273,0.80273,0.80273,0.80273,0.80273,0.80273,0.80273,0.80469,0.80469,0.80469,0.80469,0.80469,0.80469,0.80469,0.80469,0.80469,0.80469,0.80469,0.80469,0.80469,0.80273,0.80469,0.80469,0.80469,0.80469,0.80469,0.80469,0.80469,0.80469,0.80469,0.80469,0.80469,0.80469,0.80273,0.80273,0.80273,0.80273,0.80273,0.80273,0.80273,0.80273,0.80273,0.80273,0,0,0,0,0,0,0,1.2812,1.2861,1.2861,1.2861,1.2959,1.3008,1.3057,1.3057,1.3057,1.3057,1.3008,1.2959,1.291,1.291,1.291,1.2861,1.2861,1.291,1.291,1.291,1.291,1.291,1.291,1.291,1.291,1.291,1.291,1.291,1.291,1.291,1.291,1.291,1.291,1.291,1.291,1.291,1.2959,1.2959,1.2959,1.3008,1.3008,1.3008,1.3057,0,0,0,0,1.1348,1.1348,1.1309,1.1348,1.1387,1.1348,1.1348,1.1348,1.1348,1.1348,1.1426,1.1387,1.1348,1.1309,1.1309,1.1309,1.1309,1.127,1.127,1.127,1.1201,1.1201,1.1387,1.1426,1.1387,1.1348,1.1426,1.1387,1.1387,1.1387,1.1387,0,0,0,0,0,0,0,0.83301,0.83105,0.8291,0.8291,0.82471,0.82275,0.8208,0.81885,0.8169,0.81494,0.81494,0.81299,0.81299,0.81299,0.81299,0.81299,0.81299,0.81299,0.81299,0.81494,0.81494,0.81494,0.8169,0.81885,0.81885,0.8208,0.8208,0.8208,0.82275,0.82275,0.82275,0,0,0.9165,0.91406,0.84766,0.84766,0.84961,0.84326,0.84131,0.84131,0.83935,0.83935,0.8374,0.83496,0.83496,0.83496,0.83301,0.83301,0.83105,0.83105,0.8291,0.8291,0.8252,0.8252,0.82324,0.82324,0.82324,0.82129,0.82324,0.82324,0.82324,0.82129,0.82129,0.82129,0.77783,0.77783,0.77783,0.77783,0.77393,0.77393,0.77246,0.76904,0.76904,0.76709,0.76709,0.76562,0.76562,0.76367,0.76367,0.76367,0.76367,0.76367,0.76367,0.76221,0.76367,0.76367,0.76367,0.76367,0.76367,0.76562,0.76562,0.76562,0.76562,0.76709,0.76904,0,0,0.85449,0.85449,0.85205,0.85205,0.85205,0.85205,0.8501,0.8501,0.8501,0.8501,0.8501,0.8501,0.8501,0.8501,0.8501,0.8501,0.8501,0,0,0,1.0283,1.0283,1.0254,1.0254,1.0254,1.0254,1.0225,1.0254,1.0195,1.0195,1.0195,1.0195,1.0195,1.0195,1.0166,1.0166,1.0166,1.0166,1.0166,1.0137,1.0137,1.0137,1.0098,1.0068,1.0068,1.0039,1.0039,1.0039,1.0039,1.0039,1.001,1.001,0.99853,1.001,0.99853,0.9956,0.9956,0.9956,0.9956,0.9956,0.99268,0.99268,0.99268,0.99268,0.98975,0.98975,0.98975,0.98975,0.98682,0,0,0,1.1396,1.1396,1.1396,1.1396,1.1396,1.1396,1.1396,1.1318,1.1318,1.1436,1.1553,1.1553,1.1514,1.1514,1.1514,1.1514,1.1514,1.1436,1.1475,1.1475,1.1475,1.1475,1.1475,1.1592,1.167,1.167,1.1553,1.1553,1.1436,1.1436,1.1475,1.1475,1.1436,1.1436,1.1396,1.1436,1.1436,1.1631,1.168,1.1592,1.1553,1.168,1.1592,1.1592,1.1553,1.1553,1.1514,1.1436,1.1396,1.1396,1.1436,1.1436,1.1436,1.1289,0,1.1475,1.1436,1.1396,1.1396,1.1396,1.1367,1.1367,1.1289,0,0,0,0,0.89355,0.89111,0.8794,0.87695,0,0,0,0,0,0,0,0,0,0,0,0,0,0,0,0,0,0,0,0,0,0,0,0,0,0,0,0,0,0,0,0,0,0,0,0,0
0.68799,0.68799,0.68799,0.68799,0.68799,0.68799,0,0,0,0,0,0,0,0,0.67188,0.67188,0.67188,0.67285,0.67285,0.67285,0,0,0,0,0,0,0,0.81201,0.81006,0.81006,0.81006,0.8081,0.8081,0.8081,0.8081,0.80615,0.80615,0.80615,0.80615,0.80615,0.80615,0.80615,0.80615,0.80615,0.80615,0.80615,0.8042,0.8042,0.8042,0.8042,0.80469,0.80469,0.80469,0.80469,0.80469,0.80273,0.80273,0.80273,0.80273,0.80273,0.80469,0.80273,0.80273,0.80273,0.80273,0.80273,0.80273,0.80273,0.80273,0.80469,0.80273,0.80469,0.80469,0.80273,0.80273,0.80273,0.80273,0.80273,0.80273,0.80273,0.80273,0.80273,0.80273,0.80273,0.80273,0.80273,0.80273,0.80273,0.80273,0.80273,0.80273,0.80273,0.80469,0.80273,0.80273,0.80469,0.80469,0.80469,0.80469,0.80664,0.80469,0.80469,0.80469,0.80469,0.80469,0.80469,0.80469,0.80469,0.80469,0.80469,0.80469,0.80469,0.80469,0.80469,0.80469,0.80469,0.80469,0.80469,0.80469,0.80469,0.80469,0.80469,0.80469,0.80469,0.80469,0.80273,0.80273,0.80273,0.80273,0.80273,0.80273,0.80273,0.80273,0.80273,0,0,0,0,0,0,0,1.291,1.2861,1.291,1.291,1.2861,1.3008,1.3008,1.3057,1.3057,1.3057,1.3057,1.3008,1.2959,1.291,1.291,1.291,1.2861,1.291,1.291,1.291,1.2959,1.2959,1.291,1.291,1.291,1.291,1.291,1.291,1.291,1.291,1.291,1.291,1.291,1.291,1.291,1.291,1.291,1.2959,1.2959,1.2959,1.3008,1.3008,0,0,0,0,0,0,0,1.1309,1.127,1.1309,1.1309,1.1309,1.1348,1.1309,1.127,1.127,1.1348,1.127,1.127,1.124,1.127,1.124,1.124,1.1201,1.1162,1.1162,1.1162,1.1162,1.1162,1.1162,1.1201,1.1309,1.1348,1.1348,1.1348,1.1309,1.1309,0,0,0,0,0,0,0.83691,0.83301,0.83105,0.8291,0.8291,0.82666,0.82471,0.8208,0.81885,0.8169,0.81494,0.81299,0.81299,0.81299,0.81299,0.81299,0.81299,0.81299,0.81299,0.81299,0.81299,0.81494,0.81494,0.8169,0.81885,0.81885,0.8208,0.8208,0.8208,0.82275,0.82275,0.82275,0,0,0.9165,0.91406,0.91406,0.85205,0.85205,0.8457,0.84375,0.84131,0.84131,0.83935,0.83935,0.8374,0.83545,0.83545,0.83301,0.83301,0.83105,0.83105,0.8291,0.8291,0.82715,0.8252,0.8252,0.8252,0.82324,0.82324,0.82324,0.82324,0.8252,0.8252,0.8252,0.8252,0.7793,0.77783,0.7793,0.77783,0.77588,0.77393,0.77246,0.76904,0.76904,0.76709,0.76709,0.76562,0.76562,0.76367,0.76367,0.76367,0.76367,0.76367,0.76367,0.76221,0.76367,0.76367,0.76367,0.76367,0.76367,0.76562,0.76562,0.76562,0.76562,0.76709,0.76904,0,0,0.85449,0.85449,0.85205,0.85205,0.85205,0.85205,0.8501,0.8501,0.8501,0.8501,0.8501,0.8501,0.8501,0.8501,0.8501,0.8501,0.8501,0,0,0,1.0283,1.0283,1.0283,1.0283,1.0254,1.0254,1.0254,1.0254,1.0225,1.0225,1.0195,1.0195,1.0195,1.0195,1.0166,1.0166,1.0166,1.0166,1.0166,1.0137,1.0137,1.0137,1.0137,1.0068,1.0068,1.0068,1.0039,1.0039,1.0039,1.0039,1.001,1.001,0.99853,1.001,0.99853,0.9956,0.9956,0.9956,0.9956,0.9956,0.99268,0.99268,0.99268,0.99268,0.98975,0.99268,0.98975,0.98682,0.98389,0,0,0,1.1357,1.1318,1.1357,1.1357,1.1357,1.1318,1.1318,1.1289,1.1318,1.1318,1.1357,1.1396,1.1396,1.1396,1.1475,1.1475,1.1436,1.1436,1.1436,1.1436,1.1436,1.1436,1.1396,1.1436,1.1396,1.1475,1.1436,1.1436,1.1396,1.1436,1.1396,1.1436,1.1396,1.1396,1.1357,1.1357,1.1328,1.1328,1.1328,1.1328,1.1396,1.1357,1.1436,1.1436,1.1436,1.1436,1.1396,1.1367,1.1367,1.1396,1.1396,1.1396,1.1289,1.125,1.1367,1.1328,1.1289,1.1289,1.1328,1.1328,1.1328,1.1328,1.1289,1.1289,0,0,0,0.89551,0.88867,0.8794,0.87695,0,0,0,0,0,0,0,0,0,0,0,0,0,0,0,0,0,0,0,0,0,0,0,0,0,0,0,0,0,0,0,0,0,0,0,0,0
0.68799,0.68799,0.68652,0.68652,0.68652,0,0,0,0,0,0,0,0,0,0.67188,0.67041,0.66895,0.67285,0.67285,0.67285,0.67432,0,0,0,0,0,0,0.81006,0.81006,0.81006,0.8081,0.8081,0.8081,0.8081,0.8081,0.8081,0.8081,0.80615,0.80615,0.80615,0.80615,0.80615,0.80615,0.80615,0.80469,0.80469,0.80469,0.80469,0.80469,0.80469,0.80469,0.80273,0.80273,0.80273,0.80273,0.80273,0.80273,0.80273,0.80273,0.80469,0.80469,0.80469,0.80273,0.80273,0.80273,0.80273,0.80469,0.80469,0.80469,0.80664,0.80664,0.80664,0.80469,0.80469,0.80273,0.80273,0.80273,0.80273,0.80273,0.80469,0.80273,0.80273,0.80273,0.80273,0.80273,0.80273,0.80273,0.80273,0.80273,0.80273,0.80273,0.80273,0.80469,0.80273,0.80273,0.80469,0.80273,0.80469,0.80469,0.80664,0.80469,0.80469,0.80664,0.80469,0.80469,0.80469,0.80469,0.80469,0.80469,0.80469,0.80469,0.80469,0.80469,0.80469,0.80469,0.80469,0.80469,0.80469,0.80469,0.80469,0.80469,0.80469,0.80469,0.80469,0.80469,0.80469,0.80273,0.80273,0.80273,0.80273,0.80273,0.80273,0.80273,0.80273,0,0,0,0,0,0,0,1.2959,1.2861,1.291,1.291,1.291,1.3008,1.3057,1.3105,1.3105,1.3057,1.3057,1.3008,1.2959,1.291,1.291,1.291,1.291,1.291,1.291,1.291,1.2959,1.2959,1.291,1.2959,1.291,1.291,1.2959,1.291,1.2959,1.2959,1.2959,1.2959,1.291,1.291,1.291,1.2959,1.2959,1.2959,1.2959,1.1123,1.3008,0,0,0,0,0,0,0,0,1.1162,1.1123,1.1055,1.1016,1.1016,1.1016,1.124,1.124,1.1162,1.127,1.124,1.1201,1.1162,1.1201,1.1162,1.1162,1.1162,1.1162,1.1162,1.1162,1.1162,1.1162,1.1162,1.1201,1.124,1.127,1.1309,1.1309,1.127,1.127,0,0,0,0,0,0.83935,0.83496,0.83105,0.83105,0.8291,0.8291,0.82715,0.82471,0.82275,0.81885,0.8169,0.81299,0.81299,0.81299,0.81299,0.81299,0.81299,0.81299,0.81299,0.81299,0.81299,0.81299,0.81299,0.81494,0.8169,0.81885,0.81885,0.8208,0.8208,0.8208,0.82275,0.82275,0.82275,0,0,0.9165,0.91406,0.91406,0.91406,0.8501,0.84766,0.84375,0.84375,0.84131,0.84131,0.83935,0.8374,0.8374,0.83545,0.83301,0.83301,0.83105,0.83105,0.83105,0.83105,0.82715,0.82715,0.8252,0.8252,0.8252,0.8252,0.82324,0.8252,0.8252,0.8252,0.8252,0.8252,0.7793,0.7793,0.7793,0.77783,0.77588,0.77441,0.77246,0.76904,0.76904,0.76709,0.76709,0.76709,0.76562,0.76367,0.76367,0.76367,0.76367,0.76367,0.76367,0.76367,0.76367,0.76367,0.76367,0.76367,0.76367,0.76562,0.76562,0.76562,0.76562,0.76709,0.76904,0,0,0.85254,0.85449,0.85254,0.85254,0.85254,0.85254,0.8501,0.8501,0.8501,0.8501,0.8501,0.8501,0.8501,0.8501,0.8501,0.8501,0,0,0,1.0283,1.0283,1.0283,1.0283,1.0283,1.0254,1.0254,1.0254,1.0254,1.0254,1.0254,1.0195,1.0195,1.0195,1.0195,1.0166,1.0166,1.0166,1.0166,1.0166,1.0137,1.0137,1.0137,1.0137,1.0068,1.0068,1.0068,1.0039,1.0039,1.0039,1.0039,1.001,1.001,0.99853,0.99853,0.99853,0.9956,0.9956,0.9956,0.9956,0.9956,0.99268,0.99268,0.99268,0.99268,0.98975,0.98975,0.98975,0.98682,0.98389,0,0,1.1357,1.1318,1.125,1.1318,1.1318,1.1318,1.1289,1.1289,1.1289,1.1289,1.1289,1.1289,1.1318,1.1357,1.1357,1.1436,1.1436,1.1396,1.1396,1.1396,1.1396,1.1396,1.1396,1.1357,1.1328,1.1357,1.1436,1.1396,1.1396,1.1357,1.1396,1.1357,1.1396,1.1357,1.1357,1.1328,1.1289,1.1289,1.125,1.1211,0,1.1289,1.125,1.1211,1.125,1.1367,1.1367,1.1367,1.1289,1.1328,1.1367,1.1328,1.1289,1.125,1.125,1.125,1.1211,1.125,1.1211,1.1289,1.1289,1.1289,1.1289,1.125,0,0,0,0.896,0.896,0.88623,0.8794,0.875,0,0,0,0,0,0,0,0,0,0,0,0,0,0,0,0,0,0,0,0,0,0,0,0,0,0,0,0,0,0,0,0,0,0,0,0,0
0.68652,0.68652,0.68652,0.68652,0,0,0,0,0,0,0,0,0,0,0.66748,0.66797,0.66797,0.66895,0.66895,0.67188,0.67285,0,0,0,0,0,0,0.81006,0.81006,0.81006,0.81006,0.8081,0.8081,0.8081,0.8081,0.8081,0.8081,0.8081,0.8081,0.80664,0.80664,0.80615,0.80615,0.80664,0.80664,0.80664,0.80469,0.80664,0.80664,0.80469,0.80664,0.80273,0.80273,0.80273,0.80273,0.80273,0.80273,0.80273,0.80273,0.80469,0.80469,0.80273,0.80273,0.80273,0.80273,0.80273,0.80859,0.80664,0.80664,0.80664,0.80664,0.80664,0.80469,0.80469,0.80469,0.80273,0.80273,0.80469,0.80273,0.80469,0.80273,0.80273,0.80273,0.80273,0.80273,0.80273,0.80273,0.80273,0.80273,0.80273,0.80273,0.80273,0.80469,0.80273,0.80273,0.80469,0.80469,0.80469,0.80469,0.80469,0.80469,0.80469,0.80664,0.80664,0.80664,0.80469,0.80469,0.80664,0.80469,0.80469,0.80469,0.80469,0.80469,0.80469,0.80469,0.80469,0.80469,0.80469,0.80469,0.80469,0.80469,0.80469,0.80469,0.80469,0.80469,0.80469,0.80469,0.80469,0.80273,0.80273,0.80273,0.80273,0.80273,0.80273,0,0,0,0,0,0,0,1.2959,1.2861,1.2861,1.2861,1.2861,1.2959,1.3057,1.3105,1.3105,1.3105,1.3057,1.3008,1.2959,1.2959,1.2959,1.2959,1.291,1.2959,1.2959,1.291,1.2959,1.2959,1.2959,1.2959,1.2959,1.291,1.2959,1.2959,1.2959,1.2959,1.2959,1.2959,1.2959,1.2959,1.291,1.2959,1.2959,1.2959,1.2959,1.2959,1.1123,0,0,0,0,0,0,0,0,0,1.1055,1.1016,1.0977,1.0947,1.1016,1.0977,1.0977,1.0947,1.0977,1.1016,1.1016,1.1016,1.1055,1.1055,1.1094,1.1094,1.1094,1.1123,1.1123,1.1123,1.1123,1.1123,1.1123,1.1201,1.124,1.1279,1.1279,1.124,0,0,0,0,0,0,0.83691,0.83496,0.83105,0.83105,0.8291,0.8291,0.82715,0.82275,0.8208,0.8169,0.81494,0.81299,0.81299,0.81299,0.81299,0.81299,0.81299,0.81299,0.81299,0.81299,0.81299,0.81494,0.81494,0.81494,0.8169,0.8169,0.81885,0.8208,0.8208,0.8208,0.8208,0.82324,0.82324,0,0,0.91943,0.9165,0.91406,0.91406,0.8501,0.84766,0.8457,0.84375,0.84131,0.84131,0.83935,0.83935,0.8374,0.83545,0.83301,0.83301,0.83301,0.83301,0.8291,0.8291,0.82715,0.82715,0.82715,0.82715,0.8252,0.8252,0.8252,0.8252,0.8252,0.8252,0.8252,0.8252,0.77978,0.77978,0.77978,0.77783,0.77588,0.77441,0.77051,0.77051,0.76904,0.76904,0.76904,0.76709,0.76562,0.76367,0.76367,0.76367,0.76367,0.76367,0.76367,0.76367,0.76367,0.76367,0.76367,0.76562,0.76562,0.76562,0.76562,0.76562,0.76562,0.76709,0.76904,0,0,0.85254,0.85449,0.85254,0.85254,0.85254,0.85254,0.8501,0.8501,0.8501,0.8501,0.8501,0.8501,0.8501,0.8501,0.8501,0.8501,0,0,0,1.0322,1.0283,1.0283,1.0283,1.0283,1.0254,1.0254,1.0254,1.0254,1.0254,1.0225,1.0225,1.0195,1.0195,1.0195,1.0166,1.0166,1.0166,1.0166,1.0166,1.0137,1.0137,1.0137,1.0137,1.0137,1.0078,1.0078,1.0039,1.0039,1.0039,1.0039,1.001,1.001,0.99853,1.001,1.001,0.9956,0.9956,0.9956,0.9956,0.9956,0.99268,0.99268,0.99268,0.99268,0.98975,0.99268,0.98975,0.98975,0.98389,0,0,1.1133,1.125,1.1172,1.1211,1.1211,1.125,1.125,1.125,1.125,1.125,1.125,1.1211,1.125,1.1211,0,1.1396,1.1357,1.1396,1.125,1.125,1.1289,1.1328,1.1328,1.1328,1.1328,1.125,1.0996,1.0996,1.1289,1.1289,1.1367,1.1328,1.1367,1.1289,1.1289,1.125,1.125,1.1211,1.1172,1.1143,1.1211,1.1211,1.1172,1.1172,1.1211,1.1211,1.1211,1.1328,1.125,1.1328,1.1328,1.1289,1.1211,1.1211,1.1211,1.1211,1.1172,1.1172,1.1172,1.1211,1.125,1.1289,1.125,0,0,0,0,0.896,0.896,0,0.88428,0.87744,0,0,0,0,0,0,0,0,0,0,0,0,0,0,0,0,0,0,0,0,0,0,0,0,0,0,0,0,0,0,0,0,0,0,0,0,0
0.68652,0.68652,0.68652,0.68652,0,0,0,0,0,0,0,0,0,0.66895,0.66797,0.6665,0.66797,0.66797,0.66797,0.66895,0,0,0,0,0,0,0,0.81006,0.81006,0.8081,0.8081,0.8081,0.8081,0.8081,0.80859,0.80859,0.80859,0.80859,0.80859,0.80664,0.80664,0.80664,0.80664,0.80664,0.80664,0.80664,0.80664,0.80664,0.80664,0.80664,0.80664,0.80664,0.80469,0.80273,0.80664,0.80469,0.80273,0.80273,0.80273,0.80469,0.80469,0.80273,0.80273,0.80273,0.80273,0.80664,0.80859,0.80664,0.80664,0.80859,0.80664,0.80664,0.80469,0.80469,0.80469,0.80273,0.80273,0.80469,0.80469,0.80469,0.80469,0.80273,0.80469,0.80469,0.80469,0.80273,0.80273,0.80273,0.80273,0.80273,0.80273,0.80273,0.80469,0.80469,0.80469,0.80469,0.80469,0.80469,0.80469,0.80664,0.80469,0.80469,0.80469,0.80664,0.80664,0.80664,0.80664,0.80469,0.80469,0.80469,0.80469,0.80469,0.80469,0.80469,0.80469,0.80469,0.80469,0.80469,0.80469,0.80469,0.80469,0.80469,0.80469,0.80469,0.80469,0.80469,0.80469,0.80469,0.80469,0.80469,0.80469,0.80322,0.80322,0.80322,0,0,0,0,0,0,0,1.291,1.2861,1.2861,1.2861,1.2861,1.2959,1.3057,1.3105,1.3105,1.3105,1.3105,1.3008,1.3008,1.2959,1.2959,1.2959,1.291,1.291,1.2959,1.291,1.2959,1.2959,1.2959,1.2959,1.2959,1.2959,1.2959,1.2959,1.2959,1.2959,1.2959,1.2959,1.2959,1.2959,1.291,1.2959,0,0,1.0908,1.0908,1.1016,1.0977,1.0977,0,0,0,0,0,0,1.1016,1.1016,1.0977,1.0947,1.0908,1.0947,1.0947,1.0947,1.0908,1.0908,1.1016,1.1016,1.1016,1.0986,1.1016,1.1055,1.1055,1.1016,1.1016,1.0986,1.1094,1.1055,1.1016,1.1016,1.1016,1.0986,1.1162,0,0,0,0,0,0,0,0,0,0.83301,0.83105,0.8291,0.8291,0.82715,0.82715,0.82275,0.8208,0.8169,0.81494,0.81299,0.81299,0.81299,0.81299,0.81299,0.81299,0.81299,0.81299,0.81299,0.81494,0.81494,0.81494,0.81494,0.8169,0.8169,0.81885,0.81885,0.82129,0.82129,0.82324,0.82324,0,0,0.91406,0.91943,0.91699,0.91699,0.91699,0.91699,0.84766,0.8457,0.8457,0.84375,0.84131,0.83935,0.8374,0.8374,0.83545,0.83545,0.83545,0.8335,0.83105,0.83105,0.8291,0.8291,0.82715,0.82715,0.8252,0.82715,0.8252,0.8252,0.8252,0.8252,0.8252,0.8252,0.8252,0.8252,0.77978,0.77978,0.77783,0.77588,0.77441,0.77051,0.77051,0.76904,0.76904,0.76709,0.76709,0.76562,0.76562,0.76367,0.76367,0.76367,0.76367,0.76367,0.76367,0.76562,0.76367,0.76367,0.76562,0.76562,0.76562,0.76562,0.76562,0.76562,0.76758,0.76904,0,0,0.85449,0.85449,0.85254,0.85254,0.85254,0.85254,0.8501,0.8501,0.8501,0.85254,0.8501,0.8501,0.8501,0.8501,0.8501,0.8501,0,0,0,1.0322,1.0283,1.0283,1.0283,1.0283,1.0254,1.0254,1.0254,1.0254,1.0254,1.0225,1.0195,1.0195,1.0195,1.0195,1.0166,1.0166,1.0166,1.0166,1.0166,1.0166,1.0166,1.0137,1.0137,1.0107,1.0107,1.0078,1.0049,1.0049,1.0049,1.0049,1.001,1.001,1.001,1.002,1.002,0.9956,0.9956,0.9956,0.9956,0.9956,0.99268,0.99268,0.99268,0.99268,0.98975,0.98975,0.98975,0.98389,0.98145,0.98145,0,0,1.125,1.1104,1.1104,1.1133,1.1211,1.1172,1.1172,1.1211,1.1211,1.1133,1.1172,1.1133,1.1143,1.1143,1.1143,1.1104,1.1104,1.1143,1.1143,1.1104,1.0996,1.1025,1.0996,1.0996,1.0957,1.0996,1.0957,1.0996,1.0996,1.085,1.1328,1.1328,1.1172,1.1211,1.1289,1.125,1.1172,1.1104,1.1064,1.1143,1.1143,1.1143,1.1143,1.1172,1.1143,1.1172,1.1211,1.125,1.1289,1.1289,1.1172,1.1143,1.1143,1.1172,1.1172,1.1143,1.1143,1.1104,1.1211,1.1211,1.1211,0,0,0,0,0,0,0,0,0.8794,0.8794,0,0,0,0,0,0,0,0,0,0,0,0,0,0,0,0,0,0,0,0,0,0,0,0,0,0,0,0,0,0,0,0,0,0,0,0,0
0.68652,0.68652,0.68652,0.68652,0,0,0,0,0,0,0,0,0.65625,0,0.66504,0.66504,0.66504,0.6665,0.66797,0.66797,0.66895,0.66895,0,0,0,0,0.80859,0.80859,0.80859,0.80859,0.80859,0.80859,0.80859,0.80859,0.80859,0.80859,0.80859,0.80859,0.80859,0.80859,0.80859,0.80664,0.80664,0.80859,0.80664,0.80664,0.80664,0.80664,0.80664,0.80664,0.80664,0.80664,0.80664,0.80664,0.80664,0.80664,0.80664,0.80469,0.80469,0.80469,0.80469,0.80469,0.80469,0.80469,0.80469,0.80664,0.80859,0.80859,0.80664,0.80859,0.80664,0.80664,0.80664,0.80469,0.80469,0.80469,0.80469,0.80469,0.80469,0.80469,0.80469,0.80469,0.80469,0.80469,0.80273,0.80273,0.80273,0.80273,0.80273,0.80273,0.80273,0.80469,0.80469,0.80469,0.80469,0.80469,0.80469,0.80469,0.80469,0.80664,0.80664,0.80664,0.80664,0.80469,0.80664,0.80469,0.80469,0.80469,0.80469,0.80469,0.80469,0.80469,0.80469,0.80469,0.80469,0.80469,0.80469,0.80469,0.80469,0.80469,0.80469,0.80469,0.80469,0.80469,0.80469,0.80469,0.80469,0.80469,0.80469,0.80518,0.80518,0.80518,0.80518,0.80322,0,0,0,0,0,0,0,1.3008,1.2861,1.2861,1.2861,1.2861,1.291,1.3008,1.3105,1.3105,1.3105,1.3105,1.3008,1.3008,1.2959,1.2959,1.2959,1.291,1.2959,1.2959,1.291,1.2959,1.2959,1.2959,1.2959,1.2959,1.2959,1.2959,1.2959,1.2959,1.2959,1.2959,1.2959,1.2959,1.3008,1.2959,1.0879,1.0879,1.0879,1.0879,1.0879,1.0908,1.0879,1.0879,1.0908,1.0879,1.0879,0,1.0947,1.0947,1.0947,1.0977,1.0947,1.0947,1.0908,1.0908,1.0879,1.0908,1.0879,1.0879,1.0947,1.0947,1.0986,1.0947,1.0986,1.0986,1.1016,1.0908,1.0908,1.0908,1.0908,1.0879,1.0879,1.0879,1.084,1.084,1.084,1.084,1.084,0,0,0,0,0,0,0,0.8291,0.8291,0.8291,0.82715,0.82715,0.8252,0.82324,0.8208,0.81494,0.81494,0.81299,0.81299,0.81299,0.81299,0.81299,0.81299,0.81299,0.81299,0.81299,0.81494,0.81494,0.81494,0.81494,0.8169,0.8169,0.81934,0.81934,0.82129,0.82129,0.82324,0.82324,0.82324,0,0.91699,0.91943,0.91943,0.91699,0.91943,0.91943,0.91943,0.8501,0.84766,0.84375,0.8418,0.8418,0.83935,0.8374,0.83545,0.83545,0.8335,0.8335,0.83105,0.83105,0.8291,0.8291,0.82715,0.82715,0.8252,0.8252,0.8252,0.8252,0.8252,0.8252,0.8252,0.8252,0.82324,0.8252,0.82324,0.77978,0.77978,0.77783,0.77441,0.771,0.771,0.771,0.76904,0.76904,0.76709,0.76562,0.76562,0.76562,0.76367,0.76367,0.76367,0.76367,0.76367,0.76562,0.76562,0.76562,0.76562,0.76562,0.76562,0.76562,0.76562,0.76562,0.76758,0.76904,0,0,0.85449,0.85449,0.85254,0.85254,0.85254,0.85254,0.8501,0.8501,0.8501,0.85254,0.85254,0.8501,0.85254,0.8501,0.8501,0,0,0,1.0322,1.0322,1.0322,1.0283,1.0283,1.0283,1.0254,1.0254,1.0254,1.0254,1.0254,1.0225,1.0225,1.0225,1.0195,1.0195,1.0166,1.0166,1.0166,1.0166,1.0166,1.0166,1.0166,1.0137,1.0137,1.0137,1.0107,1.0078,1.0049,1.0049,1.0049,1.0049,1.002,1.002,1.002,1.002,1.002,0.99853,0.99853,0.9956,0.9956,0.9956,0.99268,0.99268,0.99268,0.99268,0.98975,0.98975,0.98975,0.98389,0.98145,0,0,1.0996,1.1025,1.1025,1.0996,1.0996,1.1133,1.1104,1.1064,1.1104,1.1104,1.1064,1.1064,1.1064,1.0996,1.0996,1.1064,1.1025,1.1025,1.1104,1.1025,1.1025,1.0996,1.0996,1.0957,1.0957,1.0957,1.0957,1.0928,1.0889,1.0957,1.085,1.082,1.1172,1.085,1.0957,1.0996,1.1143,1.1104,1.1064,1.1035,1.1104,1.1104,1.1064,1.1064,1.1143,1.1104,1.1143,1.1064,1.0996,1.1182,1.1143,1.1064,1.1064,1.1104,1.1143,1.1143,1.1104,1.1104,1.1143,1.1182,1.1182,0,0,0,0,0,0,0,0,0.88428,0.87744,0.87744,0,0,0,0,0,0,0,0,0,0,0,0,0,0,0,0,0,0,0,0,0,0,0,0,0,0,0,0,0,0,0,0,0,0,0,0,0
0.64844,0.64746,0.64746,0.64746,0.6499,0.6499,0.6499,0,0,0,0,0,0.65625,0.65723,0.66113,0.66406,0.66406,0.66406,0.66406,0.6665,0.66504,0.66797,0.66797,0,0,0,0,0.81055,0.80859,0.80859,0.81055,0.80859,0.80859,0.80859,0.80859,0.80859,0.80859,0.80859,0.80859,0.80859,0.80859,0.80859,0.80859,0.80859,0.80664,0.80859,0.80664,0.80664,0.80664,0.80664,0.80859,0.80664,0.80664,0.80664,0.80664,0.80664,0.80469,0.80469,0.80469,0.80469,0.80469,0.80469,0.80469,0.80664,0.80664,0.80859,0.80859,0.80859,0.80664,0.80664,0.80664,0.80664,0.80664,0.80469,0.80469,0.80664,0.80469,0.80664,0.80469,0.80469,0.80469,0.80469,0.80469,0.80469,0.80469,0.80273,0.80273,0.80273,0.80273,0.80273,0.80273,0.80469,0.80469,0.80469,0.80664,0.80469,0.80664,0.80469,0.80469,0.80664,0.80664,0.80664,0.80664,0.80664,0.80664,0.80664,0.80664,0.80664,0.80469,0.80469,0.80469,0.80469,0.80469,0.80469,0.80469,0.80469,0.80469,0.80469,0.80469,0.80469,0.80469,0.80469,0.80469,0.80518,0.80518,0.80518,0.80518,0.80518,0.80518,0.80518,0.80518,0.80518,0.80518,0.80518,0,0,0,0,0,0,0,1.2959,1.2861,1.2861,1.2861,1.2861,1.291,1.3105,1.3105,1.3164,1.3105,1.3105,1.3008,1.3008,1.2959,1.2959,1.2959,1.2959,1.2959,1.2959,1.2959,1.2959,1.2959,1.2959,1.2959,1.2959,1.2959,1.2959,1.2959,1.2959,1.2959,1.2959,1.2959,1.2959,1.3008,0,1.084,1.0801,1.084,1.0879,1.0879,1.0879,1.084,1.084,1.084,1.0811,1.084,1.0771,1.0703,1.0771,1.0811,1.0879,1.0908,1.0908,1.0879,1.0879,1.0879,1.0879,1.084,1.084,1.0879,1.0879,1.0879,1.084,1.0811,1.0811,1.084,1.084,1.084,1.084,1.0879,1.084,1.084,1.084,1.084,1.0811,1.0771,1.0742,1.0811,0,0,0,0,0,0,0.8374,0.83105,0.8291,0.82715,0.82715,0.8252,0.8252,0.82324,0.8208,0.81494,0.81299,0.81299,0.81299,0.81299,0.81299,0.81299,0.81299,0.81299,0.81299,0.81299,0.81494,0.81494,0.81494,0.81494,0.81738,0.81738,0.81738,0.81738,0.82129,0.82129,0.82324,0.82324,0.82324,0,0,0.92188,0.92188,0.91943,0.92188,0.91943,0.91943,0.8501,0.8501,0.84815,0.84375,0.8418,0.83935,0.8374,0.83545,0.83545,0.8335,0.8335,0.83154,0.83154,0.8291,0.8291,0.82715,0.82715,0.8252,0.82715,0.8252,0.8252,0.8252,0.8252,0.8252,0.82324,0.82324,0.8252,0.77978,0.78125,0.77978,0.77783,0.77588,0.77441,0.771,0.771,0.76904,0.76904,0.76709,0.76562,0.76562,0.76367,0.76367,0.76367,0.76367,0.76367,0.76367,0.76562,0.76562,0.76562,0.76562,0.76562,0.76562,0.76562,0.76562,0.76562,0.76562,0.76904,0,0,0.85254,0.85254,0.85254,0.85254,0.85254,0.85254,0.85059,0.85059,0.85254,0.85254,0.85254,0.85254,0.85254,0.85059,0.85059,0,0,0,1.0352,1.0322,1.0322,1.0293,1.0293,1.0293,1.0293,1.0254,1.0254,1.0254,1.0254,1.0254,1.0225,1.0225,1.0195,1.0195,1.0166,1.0166,1.0166,1.0166,1.0166,1.0166,1.0166,1.0137,1.0137,1.0137,1.0107,1.0078,1.0078,1.0049,1.0049,1.0049,1.002,1.002,1.002,1.002,0.99853,0.99853,0.99853,0.99853,0.9956,0.9956,0.99268,0.99268,0.99268,0.99268,0.98975,0.98975,0.98682,0.98438,0.97852,0,0,1.0996,1.0996,1.0996,1.0996,1.0957,1.0996,1.0957,0,1.1025,1.1025,1.0996,1.0996,1.0957,1.0957,1.0957,1.0957,1.0996,1.0957,1.0996,1.0996,1.0996,1.0957,1.0957,1.0957,1.0928,1.0928,1.0928,1.0889,1.0889,1.085,1.085,1.082,1.082,1.085,1.0889,1.0889,1.0928,1.1035,1.1035,1.0996,1.1035,1.1064,1.1035,1.1035,1.1104,1.1035,1.0957,1.0957,1.0996,1.0996,1.0996,1.0996,1.0996,1.1064,1.1104,1.1035,1.1035,1.1035,1.1064,1.1064,0,0,0,0,0,0,0,0,0,0,0.87744,0.87744,0,0,0,0,0,0,0,0,0,0,0,0,0,0,0,0,0,0,0,0,0,0,0,0,0,0,0,0,0,0,0,0,0,0,0,0,0
0.646,0.646,0.646,0.64502,0.646,0.64746,0.64844,0.6499,0.65137,0.65137,0.65234,0.65381,0.65625,0.65625,0.65723,0.65869,0.66113,0.6626,0.6626,0.66504,0.66504,0.6665,0.6665,0,0,0,0,0.80859,0.80859,0.80859,0.81055,0.80859,0.81055,0.80859,0.80859,0.80859,0.80859,0.80859,0.80859,0.80859,0.80859,0.80859,0.80859,0.80859,0.80859,0.80859,0.80859,0.80859,0.80859,0.80664,0.80859,0.80859,0.80859,0.80859,0.80859,0.80859,0.80859,0.80859,0.80859,0.80859,0.80664,0.80664,0.80664,0.80664,0.80859,0.80859,0.80859,0.80664,0.80664,0.80664,0.80664,0.80664,0.80664,0.80469,0.80469,0.80469,0.80469,0.80469,0.80469,0.80469,0.80664,0.80469,0.80469,0.80469,0.80469,0.80469,0.80273,0.80273,0.80273,0.80273,0.80273,0.80469,0.80469,0.80664,0.80664,0.80664,0.80664,0.80664,0.80469,0.80664,0.80664,0.80664,0.80664,0.80664,0.80664,0.80664,0.80664,0.80469,0.80469,0.80469,0.80469,0.80664,0.80469,0.80469,0.80664,0.80664,0.80664,0.80664,0.80518,0.80518,0.80518,0.80518,0.80518,0.80518,0.80518,0.80518,0.80518,0.80518,0.80518,0.80518,0.80518,0.80518,0.80518,0.80322,0,0,0,0,0,0,0,1.291,1.2812,1.2812,1.2812,1.2861,1.291,1.3115,1.3115,1.3164,1.3115,1.3115,1.3008,1.3008,1.3008,1.2959,1.2959,1.2959,1.2959,1.2959,1.2959,1.2959,1.2959,1.2959,1.2959,1.2959,1.2959,1.2959,1.2959,1.2959,1.2959,1.2959,1.2959,1.3008,0,1.0801,1.0771,1.0771,1.084,1.084,1.0879,1.084,1.084,1.084,1.084,1.0811,1.0811,1.0703,1.0703,1.0674,1.0703,1.0879,1.0879,1.0879,1.084,1.084,1.084,1.084,1.0811,1.0771,1.0674,1.0674,1.0635,1.0635,1.0635,1.0635,1.0703,1.0703,1.0811,1.0811,1.0811,1.0811,1.084,1.0811,1.0771,1.0742,1.0742,1.0703,1.0674,0,0,0,0,0,0,0.83105,0.8291,0.8291,0.82715,0.82715,0.8252,0.82324,0.82129,0.81885,0.81494,0.81299,0.81299,0.81299,0.81299,0.81299,0.81299,0.81299,0.81299,0.81299,0.81299,0.81543,0.81543,0.81543,0.81543,0.81738,0.81738,0.81738,0.81738,0.81934,0.82129,0.82324,0.82324,0.82324,0.82324,0,0.92188,0.92188,0.91943,0.91943,0.91943,0.91943,0.85205,0.8501,0.84815,0.8457,0.84375,0.83935,0.8374,0.83545,0.8335,0.8335,0.8335,0.83154,0.83154,0.8291,0.8291,0.82715,0.82715,0.8252,0.8252,0.8252,0.8252,0.8252,0.82324,0.82324,0.82324,0.78516,0.7832,0.78125,0.78125,0.77978,0.77783,0.77637,0.77441,0.771,0.771,0.771,0.76904,0.76758,0.76562,0.76562,0.76562,0.76562,0.76367,0.76416,0.76416,0.76416,0.76562,0.76562,0.76562,0.76562,0.76562,0.76758,0.76758,0.76758,0.76758,0.76758,0.76904,0,0,0.85254,0.85254,0.85254,0.85254,0.85254,0.85254,0.85059,0.85059,0.85254,0.85254,0.85254,0.85059,0.85254,0,0,0,1.0381,1.0352,1.0352,1.0352,1.0322,1.0322,1.0293,1.0293,1.0293,1.0293,1.0254,1.0254,1.0254,1.0225,1.0225,1.0225,1.0195,1.0195,1.0166,1.0166,1.0166,1.0166,1.0166,1.0166,1.0166,1.0137,1.0137,1.0137,1.0107,1.0078,1.0078,1.0049,1.0049,1.0049,1.002,1.002,1.002,1.002,0.99853,0.99853,0.99853,0.9956,0.9956,0.9956,0.99268,0.99268,0.99268,0.99268,0.98975,0.98975,0.98438,0.98145,0.97852,0,0,1.0957,1.0918,1.0957,1.0957,1.0957,1.0957,1.0957,1.0957,1.0957,1.0996,1.0928,1.0928,1.0928,1.0889,1.0889,1.0889,1.0928,1.0889,1.0928,1.0957,1.0957,1.0928,1.0928,1.0889,1.0928,1.0889,1.0889,1.085,1.085,1.082,1.082,1.0781,1.082,1.082,1.085,1.0859,1.0859,1.0859,1.0928,1.0889,1.0889,1.0889,1.0859,1.0781,1.0781,1.0781,1.0859,1.0889,1.0859,1.0859,1.0859,1.0889,1.0889,1.0889,1.0957,1.0957,1.0996,1.0996,1.0928,0,0,0,0,0,0,0,0,0,0,0.87988,0.875,0.875,0,0,0,0,0,0,0,0,0,0,0,0,0,0,0,0,0,0,0,0,0,0,0,0,0,0,0,0,0,0,0,0,0,0,0,0,0
0.64258,0.64355,0.64355,0.64502,0.64502,0.646,0.646,0.64746,0.6499,0.65137,0.65234,0.65234,0.65381,0.65625,0.65772,0.65869,0.66113,0.6626,0.6626,0.66504,0.66504,0.6665,0.6665,0,0,0,0,0.81055,0.80859,0.81055,0.81055,0.81055,0.81055,0.80859,0.80859,0.80859,0.80859,0.80859,0.80859,0.80859,0.80859,0.80859,0.80859,0.80859,0.80859,0.80859,0.80859,0.80859,0.80859,0.80859,0.80859,0.80859,0.80859,0.80859,0.80859,0.80859,0.80859,0.80859,0.80859,0.80859,0.80859,0.80664,0.80664,0.80664,0.80859,0.80859,0.80859,0.80664,0.80664,0.80664,0.80664,0.80859,0.80664,0.80664,0.80664,0.80664,0.80469,0.80469,0.80469,0.80469,0.80664,0.80469,0.80469,0.80469,0.80664,0.80469,0.80273,0.80469,0.80469,0.80469,0.80469,0.80469,0.80469,0.80664,0.80664,0.80664,0.80664,0.80664,0.80664,0.80664,0.80664,0.80664,0.80859,0.80664,0.80664,0.80664,0.80664,0.80664,0.80664,0.80518,0.80664,0.80664,0.80664,0.80664,0.80664,0.80713,0.80713,0.80713,0.80713,0.80713,0.80518,0.80518,0.80518,0.80518,0.80518,0.80518,0.80518,0.80518,0.80518,0.80518,0.80518,0.80518,0.80518,0.80518,0,0,0,0,0,0,0,1.291,1.2861,1.2812,1.2861,1.2861,1.291,1.3115,1.3164,1.3164,1.3164,1.3115,1.3057,1.3008,1.3008,1.2959,1.2959,1.2959,1.2959,1.2959,1.2959,1.2959,1.2959,1.2959,1.2959,1.2959,1.2959,1.2959,1.2959,1.2959,1.2959,1.2959,1.3008,1.3008,0,1.0742,1.0771,1.0771,1.0811,1.084,1.084,1.084,1.0811,1.0811,1.0811,1.0742,1.0742,1.0674,1.0605,1.0566,1.0566,1.0566,1.0566,1.0742,1.0742,1.0742,1.0742,1.0742,1.0703,1.0674,1.0605,1.0566,1.0566,1.0605,1.0566,1.0566,1.0566,1.0605,1.0605,1.0605,1.0674,1.0742,1.0742,1.0742,1.0703,1.0635,1.0605,1.0605,1.0605,1.0479,1.0479,1.0439,0,0,0,0,0.8291,0.82715,0.82715,0.8252,0.82324,0.82129,0.81934,0.81934,0.81738,0.81299,0.81299,0.81299,0.81348,0.81348,0.81348,0.81348,0.81348,0.81348,0.81348,0.81543,0.81543,0.81543,0.81543,0.81738,0.81738,0.81738,0.81738,0.82129,0.82129,0.82324,0.82129,0.82324,0,0,0.92188,0.91943,0.91943,0.91943,0.91943,0.91943,0.91699,0.85254,0.8501,0.84815,0.8457,0.8418,0.83984,0.83984,0.83545,0.8335,0.8335,0.83154,0.83154,0.8291,0.8291,0.82715,0.82715,0.8252,0.8252,0.8252,0.8252,0.82324,0.8252,0.82324,0.82324,0.82324,0.78516,0.78174,0.7832,0.77978,0.77783,0.77637,0.77246,0.771,0.771,0.771,0.76904,0.76904,0.76758,0.76562,0.76562,0.76562,0.76416,0.76416,0.76416,0.76416,0.76562,0.76562,0.76562,0.76562,0.76758,0.76758,0.76758,0.76758,0.76758,0.76904,0.771,0,0,0.85254,0.85254,0.85254,0.85254,0.85254,0.85059,0.85254,0.85059,0.85254,0.85254,0.85254,0.85254,0,0,0,0,1.0381,1.0352,1.0352,1.0322,1.0322,1.0293,1.0293,1.0293,1.0293,1.0293,1.0254,1.0254,1.0254,1.0225,1.0225,1.0225,1.0195,1.0195,1.0166,1.0166,1.0166,1.0166,1.0166,1.0166,1.0137,1.0137,1.0137,1.0137,1.0107,1.0107,1.0078,1.0049,1.0049,1.0049,1.002,1.002,1.002,1.002,1.002,0.99853,0.99853,0.99853,0.9956,0.9956,0.99268,0.99268,0.99268,0.99268,0.99023,0.99023,0.9873,0.98145,0.98438,0.98438,0,0,1.085,1.0928,1.0928,1.0928,1.0928,1.0889,1.0928,1.0928,1.0928,1.0889,1.0889,1.0889,1.085,1.0889,1.085,1.085,1.082,1.0928,1.0928,1.0928,1.0889,1.085,1.085,1.0889,1.0889,1.085,1.082,1.082,1.0781,1.0781,1.0752,1.0781,1.0781,1.082,1.082,1.0859,1.082,1.0859,1.082,1.0781,1.082,1.0752,1.0752,1.0752,1.0752,1.0791,1.0791,1.0791,1.0791,1.0791,1.082,1.0859,1.0859,1.082,1.082,1.082,1.0791,1.0752,1.0752,1.0723,1.0752,0,0,0,0,0,0.88672,0.88184,0.87988,0.87988,0.87305,0,0,0,0,0,0,0,0,0,0,0,0,0,0,0,0,0,0,0,0,0,0,0,0,0,0,0,0,0,0,0,0,0,0,0,0,0
0.64111,0.64258,0.64258,0.64355,0.64355,0.64502,0.646,0.646,0.64746,0.65137,0.65137,0.65234,0.65478,0.65625,0.65772,0.65869,0.6626,0.66406,0.66406,0.6665,0.66553,0.66797,0.66797,0,0,0,0,0.81055,0.81055,0.81055,0.81055,0.81055,0.81055,0.81055,0.80859,0.80859,0.80859,0.80859,0.80859,0.80859,0.80859,0.80859,0.80859,0.80859,0.80859,0.80859,0.80859,0.80859,0.80859,0.80859,0.80859,0.80859,0.80859,0.80859,0.80859,0.80859,0.80859,0.80859,0.80859,0.80859,0.80859,0.80859,0.80859,0.80664,0.80859,0.80664,0.80664,0.80664,0.80664,0.80664,0.80664,0.80664,0.80664,0.80664,0.80664,0.80664,0.80469,0.80469,0.80469,0.80664,0.80664,0.80664,0.80664,0.80664,0.80664,0.80469,0.80469,0.80664,0.80664,0.80664,0.80664,0.80664,0.80664,0.80664,0.80664,0.80664,0.80664,0.80664,0.80859,0.80859,0.80859,0.80859,0.80859,0.80859,0.80664,0.80664,0.80664,0.80664,0.80713,0.80713,0.80713,0.80713,0.80713,0.80713,0.80713,0.80713,0.80713,0.80713,0.80713,0.80713,0.80518,0.80518,0.80518,0.80518,0.80518,0.80518,0.80518,0.80518,0.80518,0.80518,0.80518,0.80518,0.80518,0.80518,0,0,0,0,0,0,0,1.2861,1.2812,1.2812,1.2861,1.2861,1.3057,1.3164,1.3164,1.3164,1.3164,1.3115,1.3057,1.3008,1.3008,1.3008,1.2959,1.2959,1.2959,1.2959,1.2959,1.2959,1.2959,1.2959,1.2959,1.2959,1.2959,1.2959,1.2959,1.2959,1.2959,1.2959,0,0,0,1.0742,1.0742,1.0742,1.0771,1.0811,1.0811,1.0811,1.0811,1.0811,1.0771,1.0742,1.0674,1.0674,1.0537,1.0508,1.0508,1.0508,1.0508,1.0566,1.0537,1.0566,1.0605,1.0605,1.0566,1.0576,1.0576,1.0537,1.0537,1.0576,1.0576,1.0576,1.0576,1.0537,1.0576,1.0576,1.0605,1.0605,1.0605,1.0605,1.0605,1.0605,1.0605,1.0576,1.0479,1.0439,1.0439,1.0439,0,0,0,0,0.82715,0.82715,0.8252,0.8252,0.82324,0.82129,0.81934,0.81738,0.81738,0.81543,0.81348,0.81348,0.81348,0.81348,0.81348,0.81348,0.81348,0.81348,0.81348,0.81543,0.81543,0.81543,0.81543,0.81738,0.81738,0.81934,0.81934,0.82129,0.82129,0.82324,0.82129,0.82324,0,0,0.91943,0.91943,0.91699,0.91699,0.91699,0.91699,0.91455,0.85254,0.8501,0.84815,0.84619,0.8418,0.8418,0.83984,0.83545,0.8335,0.83154,0.83154,0.83154,0.82959,0.82959,0.82715,0.82715,0.82764,0.82764,0.8252,0.8252,0.82324,0.82324,0.82324,0.82324,0.78516,0.78516,0.7832,0.7832,0.77978,0.77783,0.77637,0.77246,0.77246,0.771,0.771,0.76904,0.76904,0.76758,0.76562,0.76562,0.76562,0.76562,0.76416,0.76416,0.76562,0.76562,0.76562,0.76562,0.76758,0.76758,0.76904,0.76904,0.76904,0.76904,0.771,0.77295,0,0,0.85059,0.85059,0.85059,0.85254,0.85254,0.85059,0.85254,0.85254,0.85254,0.85254,0.85254,0.85254,0,0,0,0,1.0381,1.0381,1.0352,1.0322,1.0322,1.0293,1.0293,1.0293,1.0293,1.0293,1.0293,1.0254,1.0254,1.0225,1.0225,1.0225,1.0195,1.0195,1.0166,1.0166,1.0166,1.0166,1.0166,1.0166,1.0137,1.0137,1.0137,1.0137,1.0107,1.0107,1.0078,1.0049,1.0049,1.0049,1.0049,1.002,1.002,1.002,1.002,1.002,1.002,0.99853,0.9956,0.9956,0.99316,0.99316,0.99316,0.99316,0.99023,0.99023,0.9873,0.9873,0.9873,0,0,1.042,1.0449,1.0547,1.0518,1.0488,1.082,1.082,1.085,1.085,1.085,1.082,1.085,1.085,1.085,1.085,1.085,1.0781,1.0713,1.0713,1.0928,1.0781,1.0752,1.0752,1.0752,1.082,1.0859,1.082,1.0781,1.0781,1.0752,1.0752,1.0713,1.0713,1.0752,1.0791,1.0752,1.0791,1.0752,1.0723,1.0752,1.0723,1.0752,1.0723,1.0723,1.0723,1.0723,1.0723,1.0723,1.0723,1.0752,1.0723,1.0752,1.0615,1.0615,1.0615,1.0615,1.0654,1.0684,1.0723,1.0723,1.0723,1.0723,1.0752,1.0723,0,0,0,0.88428,0.88184,0.88184,0.87988,0.875,0,0,0,0,0,0,0,0,0,0,0,0,0,0,0,0,0,0,0,0,0,0,0,0,0,0,0,0,0,0,0,0,0,0,0,0,0
0.64111,0.64111,0.64258,0.64258,0.64355,0.64502,0.64502,0.646,0.646,0.64893,0.65137,0.65234,0.65478,0.65625,0.65772,0.66016,0.66162,0.66406,0.66553,0.66797,0.66797,0.66797,0.66797,0.66797,0,0,0,0,0.81055,0.81055,0.81055,0.81055,0.81055,0.81055,0.81055,0.81055,0.80859,0.80859,0.80859,0.80859,0.80859,0.80859,0.80859,0.80859,0.80859,0.80859,0.80859,0.80859,0.80859,0.80859,0.80859,0.80859,0.80859,0.80859,0.80859,0.80859,0.80859,0.80859,0.80859,0.80859,0.80859,0.80859,0.80859,0.80859,0.80859,0.80859,0.80664,0.80859,0.80859,0.80859,0.80859,0.80859,0.80664,0.80664,0.80664,0.80469,0.80469,0.80469,0.80469,0.80664,0.80664,0.80664,0.80664,0.80664,0.80664,0.80664,0.80664,0.80664,0.80664,0.80664,0.80664,0.80664,0.80664,0.80713,0.80713,0.80859,0.80859,0.80859,0.80908,0.80908,0.80908,0.80908,0.80908,0.80908,0.80908,0.80908,0.80908,0.80908,0.80713,0.80713,0.80713,0.80713,0.80908,0.80713,0.80713,0.80713,0.80713,0.80713,0.80713,0.80713,0.80518,0.80518,0.80518,0.80518,0.80518,0.80518,0.80518,0.80518,0.80518,0.80518,0.80518,0.80518,0.80518,0.80518,0,0,0,0,0,0,0,1.2812,1.2812,1.2812,1.2861,1.291,1.3057,1.3115,1.3164,1.3164,1.3164,1.3115,1.3066,1.3008,1.3008,1.3008,1.2959,1.2959,1.2959,1.2959,1.2959,1.2959,1.2959,1.2959,1.2959,1.2959,1.2959,1.2959,1.2959,1.2959,1.2959,1.2959,0,0,0,1.0674,1.0703,1.0674,1.0703,1.0742,1.0742,1.0742,1.0703,1.0703,1.0703,1.0703,1.0635,1.0508,1.0508,1.0508,1.0469,1.0469,1.0469,1.0508,1.0537,1.0537,1.0508,1.0576,1.0537,1.0576,1.0537,1.0537,1.0537,1.0576,1.0537,1.0537,1.0537,1.0537,1.0508,1.0508,1.0537,1.0508,1.0508,1.0537,1.0576,1.0576,1.0576,1.0508,1.0479,1.0381,1.041,1.041,1.0381,0,0,0,0.82715,0.82715,0.8252,0.82324,0.82324,0.82129,0.81934,0.81934,0.81738,0.81543,0.81348,0.81348,0.81348,0.81348,0.81348,0.81348,0.81348,0.81348,0.81543,0.81543,0.81543,0.81543,0.81543,0.81738,0.81738,0.81934,0.81934,0.82129,0.82324,0.82324,0.82129,0.82324,0,0,0.91455,0.91699,0.91699,0.91699,0.91699,0.91455,0.91455,0.85449,0.8501,0.8501,0.84815,0.84375,0.8418,0.83984,0.8374,0.8335,0.83154,0.83154,0.83154,0.83154,0.83154,0.82959,0.82959,0.82764,0.82764,0.8252,0.8252,0.8252,0.82324,0.82324,0.82324,0.78516,0.78516,0.78516,0.7832,0.78174,0.77783,0.77637,0.77295,0.77295,0.77295,0.771,0.771,0.76904,0.76904,0.76758,0.76562,0.76562,0.76562,0.76562,0.76562,0.76562,0.76562,0.76758,0.76758,0.76758,0.76904,0.76904,0.76904,0.771,0.771,0.771,0.77441,0.77441,0,0,0.85059,0.85059,0.85059,0.85254,0.85254,0.85254,0.85254,0.85254,0.85254,0.85254,0,0,0,0,0,1.0381,1.0381,1.0352,1.0352,1.0322,1.0322,1.0293,1.0293,1.0293,1.0293,1.0293,1.0293,1.0264,1.0264,1.0225,1.0225,1.0195,1.0195,1.0166,1.0166,1.0166,1.0166,1.0166,1.0166,1.0137,1.0137,1.0137,1.0107,1.0107,1.0107,1.0078,1.0049,1.0049,1.0049,1.0049,1.002,1.002,1.002,1.002,0.99902,0.99902,0.99902,0.99609,0.99609,0.99316,0.99316,0.99316,0.99316,0.99023,0.99023,0.9873,0.99023,1.0547,1.0518,1.0518,1.0518,1.0449,1.0547,1.0518,1.0488,1.0518,1.0518,1.0713,1.0781,1.082,1.0781,1.0781,1.0781,1.082,1.0781,1.0684,1.0684,1.0586,1.0586,1.0713,1.0654,1.0684,1.0684,1.0684,1.0713,1.0752,1.0752,1.0723,1.0684,1.0684,1.0684,1.0654,1.0654,1.0684,1.0723,1.0684,1.0684,1.0654,1.0684,1.0684,1.0684,1.0684,1.0684,1.0684,1.0684,1.0684,1.0684,1.0723,1.0684,1.0684,1.0684,1.0684,1.0586,1.0586,1.0586,1.0586,1.0586,1.0615,1.0654,1.0654,1.0654,1.0654,1.0684,1.0723,0,0,0,0.88428,0.88232,0.88232,0.87988,0.87549,0,0,0,0,0,0,0,0,0,0,0,0,0,0,0,0,0,0,0,0,0,0,0,0,0,0,0,0,0,0,0,0,0,0,0,0,0
0.64111,0.64111,0.64111,0.64258,0.64355,0.64355,0.64502,0.64502,0.64648,0.64893,0.65137,0.65234,0.65625,0.65625,0.65772,0.66016,0.66162,0.6626,0.66553,0.66797,0.66797,0.66797,0.66797,0.66797,0,0,0,0,0.81055,0.81055,0.8125,0.81055,0.81055,0.81055,0.81055,0.81055,0.80859,0.80859,0.80859,0.80859,0.80859,0.80859,0.80859,0.80859,0.80859,0.80859,0.80859,0.80859,0.80859,0.80859,0.80859,0.80859,0.80859,0.80859,0.80859,0.80859,0.80859,0.80859,0.80859,0.80859,0.80859,0.80859,0.80859,0.80859,0.80859,0.80859,0.80859,0.80859,0.80859,0.80859,0.80859,0.80859,0.80859,0.80664,0.80664,0.80469,0.80469,0.80469,0.80469,0.80664,0.80664,0.80664,0.80664,0.80664,0.80664,0.80664,0.80713,0.80713,0.80713,0.80859,0.80859,0.80908,0.80908,0.80908,0.80908,0.80908,0.80908,0.80908,0.80908,0.81103,0.81103,0.80908,0.80908,0.80908,0.80908,0.80908,0.80713,0.80713,0.80713,0.80908,0.80908,0.80908,0.80908,0.80908,0.80713,0.80713,0.80713,0.80713,0.80713,0.80713,0.80713,0.80713,0.80713,0.80518,0.80518,0.80518,0.80518,0.80518,0.80518,0.80518,0.80518,0.80518,0.80518,0.80518,0,0,0,0,0,0,0,1.2812,1.2812,1.2861,1.291,1.3008,1.3115,1.3164,1.3164,1.3164,1.3164,1.3164,1.3066,1.3008,1.3008,1.3008,1.2959,1.2959,1.2959,1.2959,1.2959,1.2959,1.2959,1.2959,1.2959,1.2959,1.2959,1.2959,1.2959,1.2959,0,0,0,0,0,1.0635,1.0635,1.0635,1.0674,1.0674,1.0635,1.0674,1.0674,1.0439,1.0439,1.0439,1.0508,1.0469,1.0469,1.0469,1.0439,1.041,1.0439,1.0439,1.0469,1.0508,1.0479,1.0508,1.0508,1.0537,1.0537,1.0537,1.0537,1.0537,1.0537,1.0537,1.0508,1.0508,1.0479,1.0479,1.0479,1.0479,1.0439,1.0479,1.0537,1.0508,1.0479,1.0439,1.0439,1.0381,1.0352,1.0352,1.0352,0,0,0,0,0.82715,0.8252,0.82324,0.82129,0.82129,0.81934,0.81934,0.81738,0.81543,0.81543,0.81348,0.81348,0.81348,0.81348,0.81348,0.81348,0.81543,0.81348,0.81543,0.81543,0.81543,0.81543,0.81738,0.81738,0.81934,0.81934,0.82129,0.82324,0.82324,0.82129,0,0,0.91455,0.91455,0.91455,0.91455,0.91455,0.91455,0.91455,0.91455,0.85449,0.85254,0.8501,0.84815,0.84619,0.8418,0.8418,0.83984,0.83545,0.8335,0.8335,0.83154,0.83154,0.83154,0.82959,0.82959,0.82764,0.82764,0.82568,0.82568,0.82568,0.82324,0.82324,0.82324,0.78369,0.78369,0.78369,0.78174,0.77978,0.77783,0.77783,0.77441,0.77295,0.77295,0.771,0.771,0.771,0.76904,0.76904,0.76758,0.76562,0.76562,0.76562,0.76562,0.76562,0.76562,0.76562,0.76758,0.76758,0.76904,0.76953,0.771,0.771,0.771,0.771,0.77441,0.77441,0,0,0.85059,0.85059,0.85254,0.85254,0.85254,0.85254,0.85254,0.85254,0.85254,0.85254,0,0,0,0,1.042,1.0381,1.0381,1.0381,1.0352,1.0352,1.0322,1.0293,1.0293,1.0293,1.0293,1.0293,1.0293,1.0264,1.0264,1.0264,1.0225,1.0195,1.0195,1.0166,1.0166,1.0166,1.0166,1.0166,1.0166,1.0137,1.0137,1.0137,1.0107,1.0107,1.0078,1.0078,1.0049,1.0049,1.0049,1.0049,1.002,1.002,1.002,1.002,0.99902,0.99902,0.99902,0.99609,0.99609,0.99316,0.99316,0.99316,0.99316,0.99023,0.99023,0.99023,0,1.0518,1.0488,1.0488,1.0488,1.0518,1.0518,1.0518,1.0518,1.0518,1.0518,1.0547,1.0586,1.0547,1.0586,1.0547,1.0586,1.0586,1.0547,1.0547,1.0615,1.0586,1.0547,1.0518,1.0586,1.0615,1.0654,1.0654,1.0654,1.0684,1.0684,1.0654,1.0615,1.0586,1.0615,1.0586,1.0586,1.0586,1.0586,1.0586,1.0586,1.0547,1.0586,1.0654,1.0654,1.0654,1.0684,1.0654,1.0684,1.0684,1.0684,1.0684,1.0654,1.0684,1.0654,1.0586,1.0557,1.0557,1.0557,1.0557,1.0557,1.0586,1.0615,1.0615,1.0654,1.0654,1.0723,0,0,0,0.88916,0.88672,0.88428,0.88232,0.87988,0.87549,0,0,0,0,0,0,0,0,0,0,0,0,0,0,0,0,0,0,0,0,0,0,0,0,0,0,0,0,0,0,0,0,0,0,0,0,0
0.64111,0.64111,0.64111,0.64258,0.64258,0.64404,0.64502,0.64648,0.64746,0.64893,0.65137,0.65381,0.65625,0.65625,0.65772,0.66016,0.66162,0.66553,0.66553,0.66943,0.66943,0.66943,0.66943,0.66943,0,0,0,0,0.81445,0.8125,0.8125,0.8125,0.81055,0.81055,0.81055,0.81055,0.81055,0.80859,0.80859,0.80859,0.80859,0.80859,0.80859,0.80859,0.80859,0.80859,0.80859,0.80859,0.80859,0.80859,0.80859,0.80859,0.80859,0.80859,0.80859,0.80859,0.80859,0.80859,0.80859,0.80859,0.80859,0.80859,0.80859,0.80859,0.80859,0.80859,0.80859,0.80859,0.80859,0.80859,0.80859,0.80859,0.80859,0.80664,0.80664,0.80518,0.80518,0.80664,0.80664,0.80713,0.80713,0.80713,0.80713,0.80713,0.80713,0.80713,0.80713,0.80713,0.80908,0.80908,0.80908,0.80908,0.80908,0.80908,0.80908,0.80908,0.80908,0.80908,0.80908,0.81103,0.81103,0.81103,0.80908,0.80908,0.80908,0.80908,0.80908,0.80713,0.80713,0.80908,0.80908,0.80908,0.80908,0.80713,0.80713,0.80713,0.80713,0.80713,0.80713,0.80713,0.80713,0.80713,0.80713,0.80518,0.80518,0.80518,0.80518,0.80518,0.80518,0.80518,0.80518,0.80518,0.80518,0.80518,0.80518,0,0,0,0,0,0,1.2812,1.2861,1.291,1.2959,1.3008,1.3115,1.3164,1.3164,1.3164,1.3164,1.3115,1.3066,1.3008,1.3008,1.3008,1.3008,1.2959,1.2959,1.2959,1.2959,1.2959,1.2959,1.2959,1.2959,1.2959,1.2959,1.2959,1.2959,0,0,0,0,0,1.0537,1.0508,1.0508,1.0508,1.0469,1.0381,1.0312,1.0254,1.0312,1.0342,1.0342,1.0312,1.041,1.041,1.041,1.0439,1.041,1.0381,1.0381,1.041,1.041,1.0342,1.0342,1.0439,1.0439,1.0479,1.0508,1.0479,1.0479,1.0508,1.0508,1.0508,1.0479,1.0439,1.0439,1.0439,1.041,1.0439,1.041,1.041,1.041,1.0479,1.0439,1.0352,1.0352,1.0352,1.0312,1.0254,1.0254,0,0,0,0,0,0.82715,0.82324,0.82129,0.82129,0.81934,0.81934,0.81738,0.81543,0.81543,0.81543,0.81348,0.81348,0.81348,0.81348,0.81543,0.81543,0.81543,0.81543,0.81543,0.81543,0.81543,0.81934,0.81934,0.81934,0.81934,0.82324,0.82324,0.82324,0,0,0.91455,0.91211,0.91211,0.91455,0.91455,0.91455,0.91455,0.91455,0.91455,0.91455,0.85254,0.8501,0.84815,0.84619,0.84375,0.8418,0.83984,0.83545,0.8335,0.83154,0.83154,0.83154,0.83154,0.82959,0.82764,0.82764,0.82764,0.82568,0.82568,0.82568,0.82373,0.82373,0.82373,0.78711,0.78516,0.78516,0.78174,0.77978,0.77832,0.77637,0.77441,0.77295,0.77295,0.771,0.771,0.771,0.76953,0.76953,0.76758,0.76562,0.76562,0.76562,0.76562,0.76562,0.76758,0.76758,0.76758,0.76758,0.76953,0.771,0.771,0.771,0.771,0.771,0.77441,0.77441,0,0,0.85059,0.85254,0.85254,0.85254,0.85254,0.85254,0.85254,0.85254,0.85254,0.85254,0,0,0,0,1.042,1.0381,1.0381,1.0381,1.0352,1.0352,1.0322,1.0322,1.0293,1.0293,1.0293,1.0293,1.0293,1.0264,1.0264,1.0264,1.0225,1.0225,1.0195,1.0166,1.0166,1.0166,1.0166,1.0166,1.0166,1.0137,1.0137,1.0137,1.0107,1.0107,1.0078,1.0078,1.0049,1.0049,1.0049,1.0049,1.0049,1.002,1.002,1.002,0.99902,0.99902,0.99902,0.99609,0.99609,0.99316,0.99316,0.99316,0.99316,0.99023,0.99023,0.99023,1.0547,1.0488,1.0449,1.0449,1.0488,1.0488,1.0518,1.0488,1.0518,1.0518,1.0488,1.0518,1.0488,1.0449,1.0488,1.0449,1.0488,1.0488,1.0488,1.0488,1.0547,1.0518,1.0518,1.0488,1.0518,1.0518,1.0586,1.0586,1.0547,1.0547,1.0615,1.0615,1.0586,1.0586,1.0547,1.0557,1.0557,1.0518,1.0488,1.0518,1.0488,1.0459,1.0488,0,1.0684,1.0654,1.0654,1.0654,1.0684,1.0684,1.0586,1.0586,1.0586,1.0586,1.0557,1.0557,1.0518,1.0557,1.0518,1.0518,1.0557,1.0518,1.0557,1.0586,1.0615,1.0684,0,0,0,0,0.88916,0.88916,0.88428,0.88428,0.87988,0.87549,0,0,0,0,0,0,0,0,0,0,0,0,0,0,0,0,0,0,0,0,0,0,0,0,0,0,0,0,0,0,0,0,0,0,0,0,0
0.6416,0.6416,0.64258,0.64258,0.64404,0.64502,0.64648,0.64648,0.64746,0.64893,0.64893,0.65381,0.65625,0.65625,0.65772,0.66162,0.6626,0.66406,0.66553,0.66943,0.66943,0.66943,0.66943,0.66943,0,0,0,0,0.81641,0.81445,0.8125,0.8125,0.8125,0.81055,0.81055,0.81055,0.81055,0.81055,0.80859,0.80859,0.80859,0.80859,0.80859,0.80859,0.80859,0.80859,0.80859,0.80859,0.80859,0.80859,0.80859,0.80859,0.80859,0.80859,0.80859,0.80859,0.80859,0.80859,0.80859,0.80859,0.80859,0.80859,0.80859,0.80859,0.80859,0.80859,0.80859,0.80859,0.80859,0.80859,0.80859,0.80859,0.80859,0.80859,0.80713,0.80518,0.80518,0.80518,0.80713,0.80908,0.80908,0.80713,0.80713,0.80908,0.80908,0.80713,0.80713,0.80713,0.80908,0.80908,0.80908,0.80908,0.80908,0.80713,0.80713,0.80713,0.80713,0.80908,0.80908,0.81103,0.81103,0.81103,0.80908,0.80908,0.80908,0.80908,0.80908,0.80713,0.80713,0.80908,0.80908,0.80908,0.80908,0.80713,0.80713,0.80713,0.80713,0.80713,0.80713,0.80713,0.80713,0.80713,0.80713,0.80518,0.80518,0.80518,0.80518,0.80518,0.80518,0.80518,0.80518,0.80518,0.80518,0.80322,0.80518,0,0,0,0,0,0,0,1.291,1.2959,1.3018,1.3115,1.3115,1.3164,1.3164,1.3164,1.3164,1.3164,1.3066,1.3066,1.3018,1.3018,1.3018,1.3018,1.3018,1.2959,1.2959,1.3018,1.2959,1.2959,1.2959,1.2969,1.2969,1.2969,0,0,0,0,0,1.0469,1.0439,1.0439,1.0439,1.0439,1.0439,1.0342,1.0283,1.0254,1.0254,1.0283,1.0254,1.0254,1.0254,1.0283,1.0312,1.041,1.041,1.0342,1.0342,1.0342,1.0342,1.0254,1.0254,1.0312,1.0312,1.0312,1.0479,1.0439,1.0439,1.0479,1.0439,1.0439,1.0439,1.0439,1.041,1.0352,1.0352,1.0381,1.0381,1.0352,1.0352,1.0312,1.0283,1.0283,1.0312,1.0283,1.0254,1.0225,1.0225,1.0225,0,0,0,0,0.8252,0.82324,0.82129,0.81934,0.81934,0.81934,0.81934,0.81543,0.81543,0.81543,0.81543,0.81543,0.81543,0.81543,0.81543,0.81543,0.81543,0.81543,0.81543,0.81543,0.81738,0.81934,0.81934,0.82129,0.82129,0.82324,0.82324,0,0.91455,0.91211,0.91211,0.91211,0.91211,0.91211,0.91211,0.91211,0.91211,0.91455,0.91455,0.91455,0.85449,0.8501,0.84815,0.84619,0.84375,0.8418,0.83984,0.83789,0.83545,0.8335,0.8335,0.83154,0.83154,0.83154,0.82959,0.82764,0.82764,0.82764,0.82568,0.82568,0.82373,0.82373,0.78711,0.78711,0.78711,0.78516,0.78174,0.77978,0.77832,0.77832,0.77441,0.77295,0.77295,0.771,0.771,0.771,0.76953,0.76953,0.76953,0.76758,0.76758,0.76562,0.76758,0.76758,0.76758,0.76758,0.76953,0.76953,0.771,0.771,0.771,0.771,0.771,0.771,0.77295,0.77441,0,0,0.85254,0.85254,0.85254,0.85498,0.85254,0.85498,0.85498,0.85254,0.85254,0.85254,0,0,0,0,1.042,1.0391,1.0391,1.0352,1.0352,1.0352,1.0322,1.0322,1.0293,1.0293,1.0293,1.0293,1.0293,1.0264,1.0264,1.0264,1.0234,1.0234,1.0195,1.0195,1.0166,1.0166,1.0166,1.0166,1.0166,1.0137,1.0137,1.0107,1.0107,1.0107,1.0107,1.0078,1.0078,1.0049,1.0049,1.0049,1.0049,1.002,1.002,1.002,0.99902,1.002,0.99902,0.99902,0.99609,0.99609,0.99316,0.99316,0.99316,0.99316,0.99023,0.99023,1.0518,1.0449,1.0449,1.0449,1.0449,1.0449,1.0449,1.0488,1.0488,1.0488,1.0449,1.0488,1.0449,1.0449,1.042,1.042,1.042,1.042,1.042,1.042,1.0488,1.0488,1.0488,1.0449,1.0488,1.042,1.0518,1.0518,1.0557,1.0557,1.0586,1.0586,1.0557,1.0557,1.0557,1.0518,1.0488,1.0488,1.0488,1.0488,1.0459,1.0459,1.0459,1.0391,1.042,1.0459,1.0332,1.0332,1.0332,1.0654,1.0332,1.0361,1.0332,1.0332,1.0361,1.0293,1.0332,1.0488,1.0459,1.0459,1.0518,1.0488,1.0518,1.0518,1.0205,0,0,0,0,0.8916,0.88672,0.88672,0.88428,0.88232,0.87305,0,0,0,0,0,0,0,0,0,0,0,0,0,0,0,0,0,0,0,0,0,0,0,0,0,0,0,0,0,0,0,0,0,0,0,0,0,0
